# .PCD v0.7 - Point Cloud Data file format
VERSION 0.7
FIELDS x y z
SIZE 4 4 4
TYPE F F F
COUNT 1 1 1
WIDTH 578
HEIGHT 1
VIEWPOINT 0 0 0 1 0 0 0
POINTS 578
DATA ascii
2.347307 -0.092775129 3.6046789
0.099817827 -0.012341298 2.4208248
0.71490562 -0.016126916 1.3852189
2.3930719 -0.1064732 3.4131978
1.8163575 -0.067105502 2.2872732
1.9253144 -0.10243363 3.5340612
3.2291486 -0.27805322 4.4825649
0.17105611 -0.017212082 1.9378741
0.25406349 -0.20412251 3.924937
0.22590925 -0.38831711 4.2245302
-0.41955209 -0.21140915 1.3252347
-0.30536193 -0.24114311 1.7629125
-0.55452943 -0.13695785 0.97556996
0.14068897 -0.013699614 2.5255983
0.26108074 -0.20758721 4.0442982
-0.52869779 0.031343624 0.93497729
0.38146067 -0.18625379 2.3662822
-0.57058978 -0.10943276 0.97336507
-0.57076752 0.027733512 0.95704031
-0.57098114 -0.10811123 0.9744904
0.85976678 -0.060531832 1.5972452
-0.82697415 -0.078107521 1.6563241
0.24614753 -0.36597794 3.945061
-0.66549432 -0.045590691 1.7799451
0.76135802 0.027913757 1.0674562
-0.20018877 0.054954197 0.43877864
0.39510679 0.036508594 0.8380065
-0.57934523 0.025028314 0.72751617
4.1775198 -0.78282797 5.1448936
-0.52376622 0.022806626 0.92602658
0.22137971 -0.33587089 4.3726015
0.30213422 -0.27355826 1.5401881
0.21862902 0.058572482 0.34117222
-0.31387228 -0.20256591 1.4858501
-0.50875062 -0.19118115 0.89453006
0.10280247 -0.012331493 2.5675676
0.32081956 -0.33399621 1.7781112
-0.289294 -0.21441311 1.815696
1.0854877 -0.035560407 2.9798787
-0.33882815 -0.28024268 1.4780958
-0.88050044 -0.075914204 1.3783374
0.96296722 -0.14239964 1.3103364
0.48677474 -0.18736058 2.0177295
0.39823848 0.039405227 0.84494328
0.081633821 -0.42833224 4.4291611
0.88454682 -0.067649819 2.5493338
0.36203939 -0.10925879 0.80246663
0.46129775 -0.15229663 1.4742692
-0.58325732 -0.1613237 1.0300875
0.88320285 -0.058103792 2.6270864
0.28316921 -0.17494586 1.5671508
1.3960522 -0.32234445 3.4610994
-0.50589591 -0.05663003 0.9098959
-0.16035606 0.041481204 0.93312907
0.45493114 -0.34310102 5.2943745
-0.35220283 -0.20925102 1.07987
-0.45782894 0.042002611 1.2202785
0.29662192 -0.13383114 0.69390678
0.1451901 0.05863177 0.37509203
0.3037973 -0.26124999 1.6153011
-0.50496411 -0.10979144 0.9376545
-0.31452203 -0.19973096 1.4694221
-0.53261399 0.034602113 0.9472127
-0.49571162 -0.12408399 0.84680891
-0.34679896 -0.16581121 1.3894582
0.51278603 -0.1731987 5.4031544
0.18207987 -0.43165901 4.2742348
0.1771725 -0.43942958 4.3061342
-0.20353054 0.05223712 0.43301153
0.8394053 -0.018507004 1.6725581
-0.49788654 -0.10861997 0.92075539
-0.7052232 -0.048497878 1.8778841
0.34682143 0.025796298 1.8451679
0.37487388 -0.17660299 1.3370407
1.3779495 -0.18492627 3.6189773
-0.50322223 -0.10791812 0.93529248
0.08957015 0.059078947 0.48566294
-0.56917721 -0.10701727 0.96990085
0.074839517 -0.022867091 0.66346478
0.092337742 0.060566314 0.50718212
-0.52935296 0.024110533 0.94140863
1.0223074 -0.055736028 2.5505421
-0.34376168 -0.18535194 0.82719755
-0.14618368 -0.2495349 3.076369
0.40177357 -0.1722464 0.92628503
-0.37327313 -0.46155158 3.7259352
-0.87625372 -0.17159396 1.1043093
0.2184837 0.058695465 0.34156871
-0.65931046 -0.042678759 1.7615139
0.42557365 -0.20345896 2.2399528
-0.12637179 0.05933965 0.39217424
-0.8052429 0.22889188 1.0847874
1.249434 -0.02695404 3.0632527
0.30783838 -0.28030547 2.6799023
0.89471859 -0.10551939 2.3330057
0.94106442 -0.29202515 2.224323
0.34251308 -0.10033596 1.5724678
-0.14152859 0.04281684 1.0065856
-0.60504198 -0.21132249 1.0344353
-0.19400696 0.060001362 0.33229518
0.59261894 0.040753752 0.84444928
-0.54800695 -0.19010565 0.8979857
0.6772151 0.030328995 1.2640104
0.28394771 -0.15195453 1.075485
-0.10633329 0.058916546 0.3977437
0.021443918 0.058438372 0.39283705
1.2593391 -0.040934458 2.9607313
0.35857296 0.036159433 0.77857614
-0.39865828 -0.28654957 2.3006356
-0.32952029 -0.38901404 3.2687004
-0.34442192 -0.43946815 4.2215796
-0.4283812 -0.37171197 3.2327654
-0.58254355 0.025146425 0.73765063
0.66110075 0.025481422 0.79646707
-0.44970697 -0.13904056 0.85299325
0.62223214 -0.03717437 0.95267797
0.65297616 -0.0032054316 0.91895127
-0.12604259 0.059379742 0.39204288
-0.38072121 -0.15446383 0.87772679
-0.64180362 -0.19640306 1.7267697
-0.50272757 0.022944776 1.3450124
1.0894756 -0.10858569 2.1038616
0.32140756 0.0054680202 1.8500521
-0.69203204 -0.046513654 1.8521311
0.3562116 0.033470996 0.76867533
1.1312236 -0.023375422 2.746001
-0.042655244 0.056912318 0.49315786
-0.49320114 0.022818243 1.3183653
0.3126294 -0.29642048 1.6362619
-0.28216982 -0.37785134 3.1658275
-0.93305528 -0.084131889 1.2172518
-0.84232283 -0.17426184 1.326827
0.22988518 0.055465247 0.48171163
-0.19313179 0.055481195 0.45822597
-0.51178312 -0.057335503 0.93190455
-0.1976562 0.056552954 0.44956565
0.1681789 0.059799891 0.32283282
0.2256981 0.057445854 0.42852402
-0.50646377 -0.086929187 0.93391061
0.15943997 0.058873422 0.35575056
0.38766485 -0.12987137 0.84807777
1.0558783 -0.25857931 1.6169155
0.4948867 -0.19357654 1.0542676
1.226505 -0.23357522 1.8552325
-0.50796199 -0.087043814 0.93583822
0.15839837 0.05841032 0.34934211
1.0820323 -0.21427786 1.7096817
1.1249857 -0.29333791 1.8090994
-0.92075801 -0.084690049 1.3383677
0.8875255 -0.038902797 1.5993557
-0.60770845 -0.15542218 1.8021286
0.26670539 -0.24124771 1.6148584
-0.039081126 0.056496318 0.50392628
-0.56745589 -0.13579631 0.95951295
0.4766528 -0.16866666 1.5774124
1.3856561 -0.18176228 3.6539977
0.24904628 -0.21193793 1.5219305
0.41082478 -0.18130156 1.9525216
0.25332224 0.047692686 0.8374126
0.87227041 -0.06410905 2.5414646
-0.55009735 0.054088034 0.703228
-0.55991 0.027282793 0.93099427
0.15013145 0.058177259 0.3997736
-0.46882302 0.042321384 1.2570293
0.53575754 -0.19256803 1.1480482
1.2090085 -0.25106815 1.9650652
0.29744411 -0.1339972 0.69050097
0.25488621 0.049306713 0.83441472
1.238812 -0.19217032 1.7796924
-0.52496505 0.0099204574 0.93918395
1.0511123 -0.18924811 1.7430108
0.022725299 0.059670079 0.40180826
1.0652109 -0.18509606 1.6417778
-0.78180408 -0.085373618 1.8445346
-0.8226999 -0.073932521 1.1431868
0.48160887 -0.1242797 1.7879617
-0.38336974 -0.15525258 0.88294744
1.3874962 -0.27662876 3.0188429
0.31540549 -0.21715569 2.2691491
0.23470925 0.057000443 0.30543327
1.1341764 -0.31375137 1.6017156
0.078211293 0.060210668 0.2827177
0.22440509 0.055739794 0.38092208
0.22476862 0.05612693 0.3813746
1.0837588 -0.16918102 1.6499984
0.26528233 0.051160172 0.77372098
0.66537678 0.037987638 0.78838968
0.29584664 -0.23371568 1.1855474
-0.72341299 -0.24019569 1.1251986
-0.4680841 -0.16534063 0.85166359
1.05743 -0.19957846 1.7667406
0.65940213 0.037116136 0.77919102
-0.41667289 0.064999163 1.3496683
-0.34203005 -0.30456406 1.4472711
-0.46492374 0.04380393 1.2208221
-0.52298087 -0.063654698 0.93728161
1.3728893 -0.27460542 2.7632372
-0.54078501 0.027862538 0.70206428
0.3016814 -0.2081373 1.5509133
0.017568186 0.05540441 0.39686751
0.45912999 -0.057888083 2.2851455
-0.33515984 -0.15729031 1.5458703
0.22359891 -0.014617823 1.5141141
-0.33773464 -0.4123365 4.0077915
-0.5336284 -0.055913292 2.230099
0.33984566 0.0064208731 1.9594619
0.13376845 -0.0022516157 1.2062576
0.64021933 -0.024468064 2.3777492
0.22796555 0.057010539 0.38909864
0.22056471 0.059648354 0.35711551
-0.84606481 -0.21770343 1.3300622
0.85003501 -0.064072758 1.5696299
-0.11981012 0.061568514 0.26661587
-0.055091292 0.06216976 0.30290961
0.077786937 0.060137771 0.28281164
-0.19707768 0.060708527 0.33151174
-0.4914332 -0.1608589 0.83673692
-0.5037533 -0.10787789 0.93473864
0.6666044 0.035680737 0.85393715
-0.12750681 0.060693972 0.40688682
1.1319733 -0.16006172 1.6113865
0.70217538 0.029232614 1.2612946
-0.35772532 -0.28895137 1.2784081
0.23659615 0.056180682 0.58321905
-0.85793209 -0.16945639 1.1450806
0.4118042 0.01965655 1.2549462
-0.094569251 0.051060252 0.27702093
-0.053899705 0.058696471 0.40231204
0.51762629 -0.14954835 1.4645338
0.29088771 -0.16492146 1.2450945
0.86917019 -0.041029535 1.568819
1.0707065 -0.13534081 1.7360704
0.68252134 0.025409855 1.3109784
-0.61694485 -0.18758348 1.6452172
0.25838369 0.050728146 0.84065533
-0.50697553 -0.057688452 0.91962337
-0.77883363 -0.085520521 1.8396609
-0.50881779 -0.05766575 0.92610598
0.40085679 -0.17619446 1.625886
-0.60096967 -0.20463982 0.97581124
-0.052786872 0.058453515 0.40306473
0.25160152 -0.1130465 1.1944532
-0.17030315 0.043467686 0.99581409
0.24332179 -0.22976747 1.6027586
0.29493344 -0.25242078 1.5631988
0.25068289 -0.23766136 1.6670837
0.31614345 -0.29844955 1.6568327
-0.87744164 -0.17347232 1.1052179
0.14438604 0.058804162 0.37091255
-0.53688562 0.056029074 0.69736242
-0.52119899 0.029424604 0.78755569
-0.54772431 0.026346037 0.79590678
0.084296748 0.056821018 0.39815021
0.15827115 0.060487419 0.32006097
-0.82690889 -0.27051842 1.2245154
-0.52346981 0.021836165 1.0959215
-0.84462565 -0.17211807 1.2607679
-0.20574327 0.053117912 0.44013309
-0.063042268 0.061334845 0.29926753
-0.13527064 0.062508434 0.60117745
-0.39035243 -0.15378913 1.075882
-0.1041104 0.058656428 0.39093328
1.1284611 -0.20976523 1.7063196
0.2459528 0.060180493 0.52180934
0.38433033 0.038784117 1.021378
0.41221756 -0.172829 0.88088846
0.513776 -0.15235066 1.0438406
0.51271755 0.041186403 0.79779291
-0.2009757 0.057316735 0.40601921
-0.43797106 0.04100614 1.2694402
-0.50078923 -0.10507978 0.92974973
1.2304323 -0.23361492 1.8707712
-0.36065537 -0.20124727 1.2226422
-0.37231016 -0.27029464 1.3715293
1.117175 -0.28774515 1.7889531
0.37317574 0.032551885 0.79152751
-0.10095905 0.056805432 0.57672048
0.019472376 0.059277177 0.46151137
0.019521371 0.059556551 0.46029401
-0.33762693 0.053130437 1.0848932
-0.30104417 -0.28932464 1.4774196
1.1556507 -0.34916592 1.7747581
0.3087104 -0.19545385 1.1668069
0.018071815 0.057775147 0.43945432
-0.55409604 0.058050301 0.76195455
-0.30409044 -0.27986476 1.4690261
-0.69360131 -0.11703811 1.814348
-0.13549624 -0.094979905 1.2446024
-0.16680332 0.042201359 0.96592927
0.34039426 -0.18810081 1.8791339
-0.70522523 -0.15316731 1.8673851
0.317931 0.03477072 1.8137634
-0.57656276 0.015601482 0.81628752
1.0082644 -0.07059624 2.7992818
-0.055494085 0.063416854 0.3096168
-0.03895767 0.05749575 0.52454209
-0.047839731 0.058974534 0.54948425
0.76959139 -0.18625802 1.9293168
0.15790813 0.060475595 0.32329988
-0.5161407 0.024822626 1.0050783
-0.11097188 0.061597876 0.26448131
0.46220958 -0.14898148 0.84195256
0.53700829 -0.15480492 1.5348115
0.34590375 0.034936033 0.56773758
-0.8611089 -0.21669516 1.2150714
0.44610035 -0.1283856 0.74359035
0.65588802 0.038729884 0.91834784
0.65601802 0.02747415 0.82704902
-0.52625799 -0.069069825 0.94183612
-0.55024785 -0.18131509 0.7982583
-0.36595762 -0.18505585 0.81655717
-0.49773192 -0.10341576 0.9233222
0.64090842 -0.043345213 3.0006297
0.24387164 0.027252542 1.7341006
-0.70208782 -0.11845071 1.8398383
-0.71436787 -0.085387796 1.8832977
0.17342235 0.05415317 0.6590426
-0.77908587 -0.085005678 1.8345602
-0.53809679 0.031518932 0.82067513
0.0089277774 0.056964826 0.3727777
0.22472604 0.060351055 0.35202527
0.66154695 0.028804619 0.89702463
0.3307454 -0.28588113 1.9021356
0.48391926 -0.14643481 0.81663942
0.39396793 -0.27119622 2.1714356
-0.50814229 0.049487464 0.86129141
0.23800053 0.05680465 0.5873239
0.34586382 0.044702552 0.47596025
0.15699907 0.060019925 0.32107496
0.68044686 0.0051150285 0.85158753
0.42051083 0.022506908 1.2309308
-0.37226063 -0.18029755 1.1684413
1.1105105 -0.20766896 1.6782429
1.1938355 -0.15724131 1.4878945
-0.30098337 -0.20824772 1.5554297
-0.046378732 0.059205145 0.40264988
0.26420337 0.054434404 0.77951694
0.527722 0.039810568 0.83354926
0.0077857524 0.059131101 0.38905835
1.113862 -0.17431837 1.6992047
-0.52186304 -0.080915488 0.92515564
-0.050515175 0.061707824 0.58919764
-0.054080784 0.060242135 0.28685451
-0.71572971 -0.079522707 1.7738225
-0.52507132 -0.043094799 0.95430231
-0.35455686 -0.21407083 1.4510427
-0.31224555 -0.23558071 1.4143655
0.32311815 -0.17590502 1.7490556
0.40112925 0.015289415 1.2127168
-0.04668431 0.059622407 0.40857673
0.29172325 -0.2764008 1.5990036
-0.50016731 0.051396199 0.85193944
-0.16634466 0.047758646 0.36311603
0.022846028 0.058749281 0.38569856
0.30544055 -0.14767656 0.86835098
0.32499456 -0.29125783 1.6369352
-0.57763737 0.025289465 0.73043561
0.65435076 0.034064028 0.86391377
0.47342592 -0.17923081 0.89044809
0.15071915 0.060354464 0.25755191
-0.20382495 0.05286327 0.4352684
-0.19453846 0.056310538 0.44867778
0.27340907 -0.16809297 1.5149946
-0.35587317 -0.27515236 1.3658888
-0.34800404 -0.26928905 1.3322375
0.15467189 0.057957467 0.43312144
0.074670985 -0.00065954775 0.14606643
0.083710715 0.05674712 0.38821983
1.1156657 -0.20031849 1.5092313
0.080722824 0.055346224 0.38718104
-0.20218886 0.058724046 0.47237253
-0.19655977 0.060905442 0.33188677
0.25629908 0.059414439 0.66604805
0.078734085 0.061093748 0.28932428
0.40300232 -0.16864625 0.85887504
-0.86547089 -0.1755783 1.1566732
-0.52732313 -0.15161523 1.3447168
0.1766784 0.055192418 0.67049551
1.2236834 -0.041492991 1.8007214
0.30061388 0.04889632 0.55434203
0.20711742 0.060132667 0.38518977
-0.85462368 -0.21776465 1.2747104
0.013019264 0.059810527 0.25703311
-0.0077933669 0.05974628 0.43958926
-0.49881661 -0.1638588 0.73752213
-0.12379651 0.061261643 0.37871456
-0.054103822 0.059007712 0.40296626
2.4309857 -0.077696271 3.8714578
0.22736402 0.061167046 0.37086773
0.31721216 -0.15352404 1.6946838
-0.54654127 -0.15226546 0.9381671
-0.025424734 0.055109851 0.70402169
0.22448759 0.057898644 0.42764854
0.23200722 0.057775587 0.51296282
-0.85475492 -0.18559983 1.1563213
0.082563087 0.05658479 0.39611197
-0.20099349 0.057220384 0.37319326
0.56112295 0.041567445 0.85512686
-0.51255113 -0.0261667 2.3519528
0.22619273 0.056331024 0.38436365
0.39466566 -0.1466392 1.4237776
-0.72796506 -0.050294258 1.9410541
-0.75430644 -0.083818667 1.7818944
0.14472286 0.061275147 0.26299262
0.423603 0.01420811 0.96092367
-0.10817061 0.057437148 0.36988139
-0.38847691 -0.22500485 1.5006526
-0.20960824 0.056067277 0.28768206
0.29830754 -0.030203283 1.4936845
-0.57502222 0.033174694 0.78569484
0.4542613 -0.13914564 0.80426002
-0.11655514 0.060121637 0.25660133
1.9936805 -0.073844552 3.2304161
0.16066609 0.059080914 0.36990809
0.46006131 0.038541242 0.60926509
0.077340022 0.062286992 0.30500817
0.51985687 -0.16018263 1.1022844
0.23554991 0.053977363 0.60712099
-0.09888722 0.055443354 0.3745749
0.012468666 0.059022594 0.25698924
-0.21524559 0.054306291 0.36344457
0.16241343 0.059658486 0.30873895
-0.54388249 0.037160005 0.75723529
-0.51558048 0.029881686 0.78869843
0.32158887 0.051319439 0.52259135
0.36899763 0.038874276 0.80139208
0.15425639 0.057847533 0.42723942
0.31297845 -0.21244785 1.1722112
0.56404817 -0.017937675 0.79379082
-0.11869051 0.058107369 0.35863543
-0.33446455 0.090031199 0.45904016
1.271436 -0.1005044 1.5468998
0.36427832 0.048356924 0.43661356
-0.099424347 0.075218171 0.95249128
-0.51991123 -0.022972275 0.93601036
-0.50577432 -0.16460255 0.86385441
1.1439911 -0.25203893 1.8162081
0.60279018 -0.020024046 0.85319328
1.1083257 -0.036750413 3.7378881
-0.44158173 0.041999858 1.2877941
0.46758443 -0.1361829 0.78568959
1.3088015 -0.11723693 1.5049787
0.22109361 0.055556495 0.37381601
-0.50449049 -0.11486738 0.94759154
0.22639643 0.056948379 0.38493347
-0.51398247 0.047286335 0.75078154
-0.36365181 -0.26658261 1.358223
-0.54084384 0.050589208 0.90756869
0.85050732 -0.18848607 1.5868795
1.1443176 -0.30951986 1.6346235
-0.3069064 -0.25212994 1.3064067
-0.58572745 -0.11094675 1.7552793
0.51242775 -0.14581355 2.1256335
-0.35704178 -0.21672684 1.4772193
-0.22918494 0.037555028 1.2131023
0.35295749 0.013015468 1.7175238
0.086901292 0.058803387 0.41072559
0.67694235 0.0050334781 0.84894538
-0.19792192 0.056383006 0.36690402
-0.12201606 0.057043906 0.54108858
-0.42619115 -0.21194831 1.7155406
1.5460377 -0.36063141 3.1851428
0.30530953 -0.16228878 1.6469698
-0.49401933 -0.16269827 0.84418869
0.48103786 0.033165693 0.68980503
0.31536889 -0.2148487 1.1860795
0.65177059 0.037170187 0.99610019
0.5108875 -0.13229647 0.82901502
0.37624067 0.038922075 0.99592233
0.36357379 0.036429152 0.79531169
1.5438595 -0.053753495 2.4580462
-0.040387198 0.060897678 0.55783129
-0.10261363 0.058288634 0.39661002
-0.15492199 0.039113943 0.88309908
-0.52202904 -0.018990442 0.93795538
0.076458082 0.061773524 0.30399394
-0.16045861 0.040730692 0.91145897
-0.34640539 -0.18759879 0.83443213
-0.49360865 0.042897407 0.9343698
-0.026534706 0.064228117 0.30761957
0.21640404 0.085414 0.55406284
0.38861823 0.040377706 1.026742
1.2165978 -0.24035782 1.751641
0.021422669 0.070774227 0.42344522
-0.43702841 0.047048923 1.1575463
0.44122112 -0.21023032 0.93312335
0.18692391 0.05996912 0.39432931
-0.69257087 -0.1202101 1.8041418
0.90258849 -0.038593099 1.6118882
0.2819075 -0.11994747 1.733392
1.2097918 -0.15834084 1.5032966
-0.10945563 0.056560665 0.35528183
0.16205432 0.059601475 0.35046434
1.1650875 -0.24941108 1.613627
0.41886336 -0.014755338 0.6070323
-0.47334325 0.034525424 1.0960317
0.27909768 -0.13662606 0.77817202
-0.84409201 -0.083666936 1.3571072
1.1202245 -0.16603708 1.5786347
-0.39679039 -0.18245354 0.84251738
0.20003317 0.062338993 0.41160679
-0.19162838 0.05927648 0.38462353
0.66069043 0.018617887 0.7949028
-0.11898668 0.061423186 0.40407157
0.026793197 0.064149573 0.3060112
-0.87226474 -0.21712947 1.1645319
0.20259656 0.059193604 0.3769722
-0.52009004 0.034340903 0.92332411
-0.4596774 0.010432504 1.4842587
-0.20050107 0.057524927 0.29156709
1.2624586 -0.13464987 1.5295367
-0.34864795 -0.21229285 1.4241967
0.65822482 0.039016701 0.80233335
0.44226187 -0.015706707 1.5254531
-0.098466635 0.057086047 0.60375619
0.44887853 -0.13812813 0.79498172
0.26135337 0.029916944 1.8733532
0.62299967 -0.17587292 1.5890756
1.2452385 -0.23709163 1.8200104
0.45275092 -0.1150542 1.6516228
0.44024664 -0.14732379 0.81191516
0.091678098 0.057177544 0.51475
-0.10755594 0.06052934 0.41523957
-0.20342837 0.058426835 0.29696369
-0.29389632 -0.16703099 1.408314
1.1247938 -0.28680366 1.7989542
-0.33959061 -0.20640972 1.3915191
0.15708603 0.060217392 0.3212254
0.52183074 -0.14787248 1.471916
0.17623954 0.056074105 0.36667347
-0.035405174 -0.07385885 1.0800135
1.4458539 -0.10979962 2.1126134
0.21359368 -0.19367346 1.9374807
0.77526122 -0.077835292 1.4102538
0.25848943 -0.20808017 1.1334529
-0.50177097 -0.16904283 0.81260371
0.63759595 -0.181023 1.6306405
-0.59796023 -0.17721027 1.5944197
0.46159047 0.038191676 0.57710314
0.16240574 0.040820785 0.3139956
0.21754761 0.058766112 0.29303932
0.097581968 0.060845807 0.55659485
-0.56832647 -0.13689357 0.96175122
-0.11798467 0.061710168 0.4067142
-0.48325884 -0.18243462 0.82447338
0.1619211 0.059737209 0.30670428
-0.10030606 0.046630058 0.30140352
-0.51548904 -0.19231969 2.0620992
-0.30910271 -0.30098999 1.4232433
1.2189875 -0.23275018 1.7718513
1.3832785 -0.093156539 3.5889027
0.49690396 -0.016853828 1.9566753
-0.20771839 0.055833507 0.28445411
0.023993567 0.059656724 0.3893683
1.077419 -0.2033433 1.8095496
1.1945361 -0.054445423 1.7372882
0.31886941 -0.27310726 1.5749862
0.27288902 -0.22519237 1.6736548
0.46679103 -0.13745785 0.78574347
1.4406233 -0.10507815 1.8181775
1.4836836 -0.099158004 3.6677134
-0.21638243 0.052717507 0.3143394
0.22188 0.053787641 0.46498442
0.42037815 -0.1488269 1.381608
0.66325426 0.018005313 0.79866743
-0.53041118 -0.18811724 0.89288902
0.18503593 0.056198005 0.35348821
-0.40587246 0.036980502 1.1821666
0.25867873 -0.20745492 1.6080108
0.0081363171 0.058939528 0.38796449
-0.0066079646 0.048410002 0.8652246
-0.2050523 0.057077117 0.25683904
0.30776656 -0.15113688 1.6173871
-0.35712761 -0.17314139 1.1216767
0.41708708 -0.26917452 2.0184853
0.96035028 -0.082490064 1.5972066
-0.28944284 -0.19786844 1.4902117
0.65042686 -0.023561228 1.033107
