# .PCD v0.7 - Point Cloud Data file format
VERSION 0.7
FIELDS x y z
SIZE 4 4 4
TYPE F F F
COUNT 1 1 1
WIDTH 573
HEIGHT 1
VIEWPOINT 0 0 0 1 0 0 0
POINTS 573
DATA ascii
0.31561825 0.035135388 0.64918041
-0.81296742 -0.013679135 1.1140004
-0.9489001 -0.0010732217 1.1968671
-0.90988266 -0.12480049 1.5563475
2.9059117 -0.54495871 3.6562228
-0.9347105 -0.085099511 1.475655
-0.93341893 -0.085885957 1.4691569
-0.92897856 -0.15341344 1.464373
-0.91684151 -0.12841141 1.5638155
-0.92087209 -0.20946094 1.4754235
0.72593695 -0.043308198 1.4044513
0.79730761 -0.052142531 1.4520479
1.0241566 -0.045796815 1.9755386
0.38468277 -0.057885095 1.9330813
0.24801962 -0.18053479 1.3311213
-0.95749378 -0.09327025 1.5021588
0.31361359 -0.16863737 1.0692154
-0.95691478 0.065325275 1.2958692
0.23895559 0.057982862 0.88859403
-0.88903022 0.059329368 1.4264141
0.22709502 0.050690018 0.78031266
0.19651401 0.057463847 1.355832
-0.90878659 0.029280227 1.5070165
-0.85021031 -0.017076317 1.1755518
-0.94093746 0.035630658 1.2108537
-1.5407438 0.42190114 2.2873874
-0.66821891 -0.16192026 1.3702728
0.20649481 0.057476953 0.48797894
-0.74130207 -0.18422398 1.401826
-0.085938469 -0.38125351 1.9983555
0.21493317 -0.17729759 1.129239
0.13887724 0.059576102 0.49393594
-0.084586591 -0.3748402 1.9645187
0.7799502 -0.046178952 1.4096609
-0.94520026 0.034448478 1.2176055
-0.94886011 -0.072240241 1.1768993
0.32561457 0.050786272 0.41913092
0.23950587 -0.17026266 1.1306118
0.65079474 -0.10281316 1.118009
0.2431348 -0.010092954 2.8638797
0.86304051 -0.026020773 2.4947834
-0.56153268 -0.033226959 1.0965863
-0.5337522 0.052771635 1.1166457
-0.91379803 -0.12382653 1.5673879
-0.95204359 -0.010184751 1.5230628
0.19710991 -0.22760384 1.2200431
-0.9183864 -0.21052642 1.4651269
-0.25298798 -0.29412463 1.9228801
-0.20710501 -0.31626788 2.3771935
-0.73969835 -0.22166307 1.4124361
0.34253722 0.031034522 1.0023752
-0.89617014 -0.16870134 1.6472102
-0.93383586 0.064998209 1.5362171
2.8398242 -0.069222353 3.5372443
-0.25781694 -0.25606808 1.9343246
-0.96333873 -0.0057230806 1.5201408
-0.30461153 -0.19280325 1.9242598
0.20698284 0.05965887 0.50045323
-0.961564 -0.25266507 1.512164
-0.91047734 -0.26092041 1.4380516
0.35029387 -0.12296732 1.0636579
-0.44221342 0.0072318548 2.1589317
0.22643454 0.052933905 0.3556155
0.40730605 -0.17947131 2.4511232
0.34540597 -0.22091448 2.1447496
-0.24659806 -0.027685836 0.58213103
0.30580473 -0.15644614 0.96193326
-1.0206114 -0.24497369 1.6543802
1.3857172 -0.045030043 1.9069084
-0.95160896 -0.25485316 1.4917608
-0.99251789 -0.07338085 1.2747461
-0.90713686 -0.013238494 1.3023013
-0.52982634 0.0077255247 1.4811751
-0.59354556 -0.13558714 1.2241579
-0.22086486 -0.2142286 2.1666222
-0.77962369 0.035953429 1.2258698
-0.73289973 -0.22076154 1.4072956
-0.9419477 -0.0034603542 1.1812352
-0.29009888 -0.36558732 1.999591
-1.0097288 0.056327783 1.4035603
0.16851111 -0.24855524 1.1004044
-0.51926935 -0.030525524 1.4707571
-0.19979522 -0.28940445 2.4250197
-0.23179018 0.051061384 0.57553351
0.35169482 0.049801663 0.83641469
-0.97294956 -0.087683976 1.1856273
0.69745076 0.028942995 1.6138734
-0.89752877 -0.20592208 1.5973624
-0.11889644 0.065250538 0.67662144
-0.96716934 0.034394264 1.2487403
0.18168871 -0.24346423 1.2176548
0.44615233 -0.16257766 1.8420302
-0.17204432 0.062977351 0.62969613
-0.2956987 -0.37095532 2.0324206
0.73868173 0.099672526 1.6875929
0.39638618 -0.098092549 4.1671095
-0.21961972 -0.31834719 1.8784577
-0.25122809 -0.20956561 1.9359666
-0.28266835 -0.2652888 1.6506335
-0.16858011 -0.30785987 2.4756112
-0.25240046 -0.2487019 1.8919705
-0.17274292 -0.28605697 2.1894617
-0.17150025 -0.29632118 2.3084488
0.46829629 -0.17971857 4.3328147
-0.74213183 -0.18312158 1.4085439
0.29017195 -0.0019418793 1.946793
-0.92546636 -0.2479043 1.4452828
-0.85368472 -0.017925046 1.1834978
-0.18106133 0.056614377 0.76824439
-0.9851653 0.056055266 1.3556553
-0.2587792 -0.29365391 1.9246036
-0.88108766 -0.014679863 1.1992711
-0.51261294 -0.052337065 1.4821008
0.3391324 -0.015626378 3.1450162
-0.89905626 0.025082108 1.5361096
-0.29765779 -0.20520781 2.2658806
-0.30263683 -0.19651987 1.9464067
-0.23213533 -0.35610354 2.060905
-0.89392799 -0.0097082993 1.5310785
-0.52148116 -0.02937001 1.4817942
-0.17802545 -0.24486589 1.9936861
-0.91500521 0.03056867 1.5237414
-0.88734466 -0.0059790565 1.1790522
-0.9351452 -0.088746205 1.4680165
-0.24254507 -0.34994641 2.083014
-0.36822879 -0.28485763 1.3994125
-0.26522973 -0.19081877 1.9145843
-0.51666027 0.0080231493 1.4377145
-0.41396517 -0.2378042 1.8610176
-0.26362401 -0.23847629 1.6799499
-0.23850748 -0.35511455 1.7613109
-0.2986263 -0.37188324 2.0379753
0.24151787 -0.1699404 1.1368507
0.21931924 -0.19025859 0.97922909
0.42935902 0.046567939 0.65490925
-0.13019456 0.062938303 0.36306024
-0.32347524 -0.26355922 1.366623
-0.91750014 -0.21153948 1.4551321
-0.32435417 -0.26692608 1.3700522
0.38792405 0.04465878 0.47068727
-0.24250668 0.026983812 0.57446408
0.40188813 -0.15576705 1.0527939
-1.1022774 -0.28706199 1.5232641
-0.94883132 -0.011623967 1.5214084
0.33910036 -0.17802176 0.86806238
-0.29938281 -0.24557611 1.667744
-0.15417887 0.057133846 0.56326485
-0.86939156 -0.25144559 1.3809139
-0.17165968 0.062807202 0.61827707
0.40442932 0.045899138 0.50338674
0.39777863 0.044582032 0.59579098
0.43779993 0.046565436 0.6716584
-0.71313041 0.070653021 1.035844
0.42319676 0.046758719 0.64306772
-0.86496836 -0.23525086 1.3570307
-0.35549295 0.061104447 1.3428978
-0.35081139 -0.26994142 1.3465534
-0.92401022 0.0092209326 1.135826
0.33952746 -0.17667526 0.91620386
-0.93971056 0.039310813 1.5269514
-0.2264576 0.031881895 0.58148444
0.43690616 -0.053754698 2.5835629
-0.17894995 0.055550277 0.75356138
-0.10466097 0.058847293 0.49640822
0.48739946 -0.14738256 2.3048396
-0.0010575838 0.058296178 0.51643872
-0.094384655 -0.39407825 2.0832753
-0.25485831 -0.25240737 1.9240955
-0.29428101 -0.25866011 1.3659509
-0.29170921 -0.21343401 1.6350168
-0.43019223 -0.17326555 2.1120386
0.53373671 -0.20134598 5.0360889
-0.19819994 -0.26821408 2.6177144
0.89302307 -0.044472709 1.486179
0.53099221 -0.39215335 5.4060531
-0.21950734 -0.34254175 2.5682921
0.20315453 -0.20728044 1.0466443
1.5970727 -0.055256292 2.2168951
-0.67573822 0.064369895 0.95124829
0.38231531 0.04963579 0.45014131
-0.44710368 0.052771263 1.7523082
-0.23914361 0.052988082 0.56340206
0.21266034 0.055991426 0.35835326
-0.30698633 -0.21206199 2.3900933
-0.60651004 -0.16909564 1.3385264
-0.066142544 0.060820755 0.37250006
-0.18503782 0.055597398 0.58581698
-0.54589754 0.026845187 1.4174205
0.65746957 -0.0064319307 1.1401452
-0.94970769 0.035828199 1.2230664
-0.065777704 0.063293472 0.64731288
0.24074109 -0.19228588 1.1651033
-0.20251751 0.053020552 0.59284675
-0.18656363 0.056610264 0.29471612
-0.14378504 -0.21444553 2.4262691
-0.17102444 0.061975855 0.61275434
0.3606351 -0.17901683 1.5153309
-0.47675645 -0.14133775 2.1205878
0.36838904 -0.1634265 1.7755784
-0.63430065 -0.13266988 1.352466
-0.95121372 0.042480696 1.2637957
-0.33638823 -0.22019228 1.2910577
-0.58823979 -0.13054487 1.4500974
2.2573876 0.26635069 3.0299301
-0.058859814 0.06073587 0.76680911
-0.075462386 0.062966846 0.29566216
0.31205994 -0.011171012 3.3502116
-0.41725588 -0.17344879 1.5706955
0.15225799 0.06498567 0.32006526
-0.51787704 -0.04755475 2.8309345
-0.3748621 -0.36597118 2.1114912
0.40690434 0.050305862 0.71087039
-0.95176071 -0.27538466 1.44005
0.33936363 0.046381004 0.79481924
0.3176249 -0.17731225 1.5358566
-0.98137528 0.018154852 1.1969148
0.20111383 -0.22145449 1.1614057
-0.36121002 -0.14628604 2.9709892
0.014106151 0.034387808 1.4744474
0.55275446 -0.20574631 5.2021646
0.46575075 -0.0015749512 2.4781008
-0.4459458 0.023612347 2.0467319
0.73986691 -0.050655 1.2358736
-0.18236732 -0.25936511 2.5541787
-0.16902591 0.059810698 0.38127255
-0.27997777 -0.42835 2.9680386
0.35044587 0.010770054 1.1006936
0.33234751 0.052643109 0.43327844
-0.14133252 0.04836021 1.4505945
-0.88545829 -0.0068780268 1.1755258
-0.63614172 -0.13278972 1.3554863
0.0054093115 0.059163399 0.67679882
0.22911932 0.053776257 0.36068594
0.059322592 0.061753277 0.29218018
-0.55114681 0.054165542 1.2726985
0.20460153 -0.17764007 1.0009588
-0.54228848 0.053970121 1.1515993
0.3292658 0.051810734 0.42728448
0.13293859 0.062129054 0.44052351
0.55858403 0.04343722 0.7729708
0.21113849 0.057174221 0.40226889
-0.67905098 -0.22578791 1.3676127
-0.083547682 -0.38100284 2.0017762
-0.43431437 0.031650137 1.9847699
-1.228058 -0.25553668 1.5094415
0.084744513 0.058931753 0.81621468
-0.44282472 0.026503243 1.8932501
-0.65451688 -0.26796374 1.3463446
-0.63070589 -0.13106096 1.3418971
-0.9129948 -0.16646092 1.6006147
0.46880153 -0.12001787 1.1523231
-0.60368878 -0.16891478 1.3342363
0.39848027 0.045764744 0.49278426
0.6950562 -0.011132791 1.1249875
0.20759541 -0.25220528 1.1537772
0.53782624 -0.19784933 1.2570609
0.32645315 0.041721672 0.58155596
-0.53560764 0.051785804 1.1159021
-0.18587106 0.056472208 0.59010732
-0.52663964 0.066099413 1.0077268
0.0076809935 0.059528206 0.68320835
-0.27870941 -0.23724149 1.9106776
0.51552182 0.042110592 0.84246075
-0.5185222 0.065272473 0.98510873
-0.74573332 -0.21510778 1.4303354
-0.76008707 -0.22194973 1.4480211
0.35113391 0.048220005 0.82529414
0.3723104 0.050713301 0.63546085
-0.22998434 0.053386532 0.57189977
0.41221386 -0.15668775 1.0948745
-0.21669936 0.046758935 0.5405823
-0.63979644 -0.31783915 1.3979434
-0.60571724 -0.15621126 1.3613914
-0.06656155 0.061894722 0.39144933
0.45262846 -0.16680394 1.8702565
0.42060333 0.012504618 2.3997598
-0.9618023 -0.28992262 1.7902786
-0.42911261 -0.025304597 2.7283554
-0.23498493 0.050581656 0.6054635
0.0094604306 -0.3802081 1.9513904
0.42436415 -0.16728793 1.0714761
0.24098556 -0.17019394 1.1229566
0.22362529 0.053294513 0.3491205
-0.17634021 0.055701632 0.75195682
0.46160346 -0.080527224 0.65271771
-0.59421772 0.057444267 1.3874611
-0.13700293 0.061541572 0.50125635
0.21339759 0.056278042 0.35981631
0.46097124 0.045761965 0.55829155
0.18209401 0.062246472 0.47599339
0.54098743 0.045154929 0.75539696
-0.4230108 0.066882931 0.69782662
-0.52299714 0.034797292 0.98810184
-0.1697799 0.057187922 0.3203131
-0.06517154 0.060643006 0.38301229
-0.1569382 0.057997771 0.30306768
-0.67076939 -0.1718629 1.3565789
0.015610639 0.061683834 0.33959067
0.47086704 0.046833541 0.57303452
-0.58748764 0.068688869 1.2784063
0.31178966 0.028151114 0.64382493
0.21579222 0.056383085 0.51340008
-0.077857777 0.064713471 0.30499923
-0.18784091 0.058560625 0.3324194
0.3226285 0.05230628 0.60686457
-0.16107042 0.062899165 0.37417173
-0.56133705 -0.21074082 1.2523443
0.008661624 0.062832713 0.34383452
-0.23230761 0.053502604 0.58010149
-0.14283334 0.06431061 0.52843559
-0.5844577 0.068159103 1.2541414
0.059893113 0.060042363 0.38446939
-0.10873456 0.05999244 0.51136422
-0.5336141 0.065965801 1.0216905
-0.95724005 -0.012015476 1.5388423
0.14687684 0.061281879 0.42138326
0.41788864 -0.13288851 0.82562864
-0.56495839 -0.033423573 1.1113726
-0.10897122 0.06114763 0.66253138
-0.39076501 -0.20541491 1.4659344
0.46094966 0.0082015255 1.3780776
-0.37924677 0.017901056 1.673144
-0.37416643 -0.25157622 1.2943755
-0.0043738671 0.060624678 0.34779716
-0.068614468 0.063326389 0.40461028
0.20185816 -0.20751861 1.0427214
-0.32563269 -0.1884318 1.4561559
0.061166506 0.061825216 0.3582952
-0.0051515363 0.061710961 0.36228085
-0.86637473 -0.26117882 1.5813507
-0.43730646 -0.18337715 1.6727787
0.087187693 0.06175613 0.8284353
-0.48105401 0.019110531 1.8837081
-0.98134845 -0.30926189 1.7399906
0.059199881 0.062140707 0.29814947
-0.98307115 -0.30967763 1.7408689
-0.89707726 -0.1637875 1.6497315
-0.1566646 0.06405659 0.31917763
-0.99463528 -0.31520453 1.7610699
-0.094709069 0.061249293 0.35883379
0.28724533 -0.22659592 1.7741305
-1.0061468 -0.29999137 1.82103
-0.71176594 -0.18169998 1.3837827
-0.64235812 -0.22586022 1.3069912
-0.72603905 -0.18584241 1.4089714
-0.74852866 -0.19145997 1.430108
0.06648986 0.054138146 1.4322039
0.5835796 -0.19182247 3.5449104
0.17374741 -0.23362581 1.1370887
0.72069442 -0.042648092 1.1448323
-0.24528664 -0.37481585 2.5532346
-0.055828918 -0.39093009 2.0357609
-0.92731827 -0.21383542 1.4684042
-0.11950587 -0.1923531 2.2425175
-0.11703363 -0.18710947 2.2066236
0.54376405 -0.18520412 5.1267319
0.34397197 0.051131692 0.61305785
-0.16708452 0.061123423 0.32922888
-0.18201832 0.059117638 0.62405634
0.68454462 -0.0056455275 1.0507573
-0.093169153 0.060684852 0.26124072
-0.19354606 0.055859163 0.3017534
0.53075403 0.043091588 0.73732388
-0.24652457 0.05725868 0.57314515
0.21316899 0.056618869 0.50704217
0.2314333 0.059299745 0.84753978
0.70548636 -0.012422568 0.81155932
-0.37504643 0.059340306 0.55488443
-0.19518548 0.056435812 0.30539298
0.36154944 0.04875879 0.92033947
-0.27008027 0.058399402 0.50316739
0.33360416 -0.1090527 0.65553486
0.066039592 0.06560535 0.43859494
0.48209602 0.042692326 0.81495535
0.14746039 0.062394366 0.29871607
-0.35785657 0.056644179 0.52292335
-0.1684905 0.056765214 0.31698406
-0.19100854 0.058114138 0.30781233
0.45436478 0.047754344 0.6747458
0.40879387 0.035832703 0.66745615
-0.56026953 0.039752424 1.0830532
-0.11790378 0.06281732 0.64908826
0.34109932 0.034663424 1.0871226
-0.6031419 -0.021842126 1.1985914
0.36619729 0.048899747 0.93367898
0.69058806 -0.0054726871 1.0588332
0.34696484 0.046271764 0.87345731
0.21374206 0.056398772 0.36183774
-0.11041187 0.058402978 0.58958912
-0.6831491 -0.19529417 1.4063305
-0.55102336 -0.23731291 1.2920519
-0.54667586 -0.27572778 1.2529002
0.22062211 0.052760437 0.90791023
-0.68607897 -0.21452394 1.3673087
-0.35264224 0.059204057 1.1204716
-0.54798102 -0.019345596 1.085188
0.1019295 0.058690216 0.47836196
-0.11240241 0.061812505 0.639413
0.14594667 0.061501101 0.67186606
-0.62874824 -0.13199829 1.3471688
0.8703894 -0.10763132 1.4664758
0.1670347 0.04364007 0.67732692
-0.45326787 0.032860231 1.582677
0.083009377 0.059708487 0.76801646
-0.063749135 0.062923439 0.65478182
0.40763313 0.054816402 0.72224772
-0.27953017 -0.018151417 0.40383148
-0.33998331 0.058806658 1.4215842
-0.0034615435 0.061883301 0.55106378
0.21313401 -0.19626395 1.0665847
-0.43234879 -0.18834962 1.8297011
0.14269339 0.056976851 0.77331555
-1.1148406 -0.32110536 1.7223383
-0.6876592 0.071214318 0.98838484
0.42477453 -0.15851931 1.7426213
-0.29124984 -0.4528816 2.0269055
0.29082483 -0.18375999 1.1905853
-0.67439157 0.065128945 0.94314921
-0.54950571 -0.031035312 1.1114131
-0.90584481 -0.16187961 1.5104338
0.41074014 -0.21848124 1.7521878
-0.49377173 -0.11427966 2.1113338
0.086301357 0.061101813 0.82508576
0.0085735656 0.0609328 0.3627187
-0.48860919 -0.11307535 2.0949025
-0.43171048 -0.25503132 1.2984163
-0.25650081 -0.36211491 1.6508199
-0.34301513 -0.27501583 1.3134607
1.0275739 -0.026776426 1.3090357
-0.27251124 0.033409677 1.943128
0.063121855 0.052298512 1.3543502
0.52311939 -0.032194734 0.7244817
-0.34798726 -0.073565394 2.6530209
-0.56252891 0.06968113 0.7387501
0.46125245 -0.19346918 1.047048
0.32502425 0.051375695 0.41973066
-0.90084404 -0.20456009 1.4974846
0.3956297 0.046863273 0.58393943
-0.032547358 0.060232103 0.27562594
0.059563395 0.061541606 0.28964567
-0.63280082 -0.2596373 1.2949816
0.63599843 -0.1670126 0.87807429
0.24178945 -0.24223737 1.1039349
-0.12737438 0.062400334 0.34915388
-0.17097667 0.057616882 0.32354736
0.34394497 0.051171754 0.61335385
0.062631726 0.062650785 0.41393769
-0.13746202 0.0585596 0.34201372
-0.068485275 0.065048322 0.41771603
0.14993583 0.063334525 0.30439711
-0.18359578 0.056598227 0.51465428
0.24412262 0.069666952 0.59728968
-0.49261868 0.0605844 0.80449283
0.34350774 -0.097170271 0.68530917
0.19969213 0.061099052 0.39574158
0.20772862 0.062208444 0.38091159
-0.89895993 -0.20553201 1.5687176
0.32675779 -0.092589706 0.6450851
-0.44133377 -0.26051578 1.3258568
0.59791547 0.011469322 0.70131838
-0.23536906 -0.01828957 0.56382251
-0.075859189 0.063575469 0.40942609
-0.06907244 0.060181774 0.51780319
-0.39875457 0.031659007 0.80532253
0.091933042 0.063244134 0.3139751
0.234938 0.055013224 0.37054503
0.62898499 -0.16576657 0.86758149
0.16972806 0.062685907 0.48153102
-0.52814215 0.066559456 1.0138828
0.54718775 -0.10628728 0.8420397
-0.070050016 0.058768947 0.3734349
-0.67972213 -0.27699649 1.3984219
0.13585752 0.059838105 0.50298452
-0.19504672 0.056631669 0.3048557
0.14612234 0.062297888 0.45161784
-0.54538566 0.067375414 0.71331513
0.33198297 0.052919619 0.43274581
-0.37977618 -0.20499459 1.1863507
0.3619284 0.048749045 0.498698
0.24893022 0.054127317 0.35745764
0.29005748 0.025555626 0.58505332
0.31219637 0.045585752 0.65104377
0.62053335 -0.16246466 0.85430491
0.19976497 0.059774749 0.28265369
-0.24212426 0.05628106 0.84429133
-0.19351852 0.056099273 0.30201995
-0.5813641 0.033472519 0.76188314
-0.032305893 0.060447756 0.27700663
-0.15942943 0.064098641 0.32959414
-0.16796631 0.056427032 0.31602776
-0.069584653 0.064431965 0.30132949
-0.078429744 0.064870559 0.30377889
0.32540691 0.051285133 0.42176259
-0.63644797 0.050604075 0.96621788
-0.19116576 0.055580683 0.58080912
-0.16967925 0.059824876 0.38061225
0.45160574 -0.15319754 1.184446
-0.075298131 0.061842557 0.30259001
0.28508097 0.046897739 0.75731266
-0.24743304 0.027305193 0.59083009
-0.14274506 0.064186662 0.52614021
0.21632534 0.054294009 0.28282571
-0.38283232 0.064048536 1.2352844
0.32973951 0.016646247 1.0237998
-0.87925571 0.026187293 1.5017315
-0.37824497 -0.20297009 1.1792895
-0.59640402 -0.23089477 1.2704591
-0.23841161 0.054282274 0.89976513
0.20702502 0.060139187 0.29474485
-0.10489862 0.062014729 0.36278903
-0.88812077 -0.2040368 1.5489594
0.31867415 0.011260011 1.0014104
0.14373301 0.060050547 0.60311568
-0.6147781 -0.13023995 1.3184427
0.30306822 0.011252412 0.95484555
-0.82765329 0.02348705 1.4051856
-0.63537741 -0.21356364 1.2731656
-0.80866706 -0.0069416622 1.3726677
-1.0420958 -0.23882227 1.7822672
-1.0205441 -0.28013605 1.352872
0.14581297 0.060072765 0.68011367
0.14325665 0.057644974 0.77846825
-0.11280063 0.06414292 0.69597602
-0.18180445 0.058022484 0.69984698
-0.62620157 -0.23106076 1.3395783
0.0092883222 0.061778717 0.37363529
0.21758519 -0.21752995 1.2953802
0.002723109 0.061705731 0.55094945
-0.49028695 -0.18676259 1.5525004
0.16674007 0.073414877 0.54191244
-0.94948846 0.047929093 1.2486163
-0.94664067 -0.063330486 1.2125777
0.24898358 0.059288245 1.0428668
-0.25346988 -0.39196521 1.9855167
-0.65028906 -0.18203214 1.3430902
-0.69893974 0.10720515 0.93009102
-0.48946208 -0.11089233 2.0988522
-0.45631385 0.026454721 1.9231297
0.33308697 -0.19914633 1.5395128
0.17093034 0.058391258 0.99733698
-0.065859839 0.059544772 0.52112973
-0.47162795 0.0071382979 2.1028953
-0.36275536 -0.24292845 1.2449576
0.99800462 -0.06689281 2.6069713
-0.4305087 -0.17753945 1.6184684
-0.57311791 -0.23980191 1.2684745
1.6250069 0.199239 2.9733515
0.1199604 -0.032991488 0.25160027
0.4438414 0.048867244 1.2887887
0.3669247 -0.18095231 0.88864672
-0.077577114 -0.11186158 1.3067957
-0.72643334 -0.22265124 1.3826877
-0.6763224 0.069388792 0.96681297
-0.31148732 -0.19311884 1.9578036
0.47353566 0.047571059 0.72155488
-0.45913431 -0.19583809 1.7723266
0.16445163 0.072536223 0.58534384
-0.68768078 -0.074658856 2.7240548
0.29165715 -0.16565523 1.4190563
0.36713371 -0.18137957 1.8834196
0.23686016 -0.19928941 1.2856873
-0.30068737 -0.43154094 2.5336895
0.40862691 -0.19757822 2.0901237
0.28473282 -0.19749293 1.3288554
-0.94927639 -0.25891259 1.4869751
-0.95204824 -0.049762443 1.4156929
0.20884047 -0.19298972 1.2301966
-0.14640486 0.056796491 1.5342928
-0.94823736 0.043421309 1.258293
-0.18766138 -0.34093362 2.6992097
-0.40263391 -0.028982647 2.7971869
-0.6462965 -0.16318156 1.3520025
0.50213623 -0.34411854 4.7606516
