# .PCD v0.7 - Point Cloud Data file format
VERSION 0.7
FIELDS x y z
SIZE 4 4 4
TYPE F F F
COUNT 1 1 1
WIDTH 500
HEIGHT 1
VIEWPOINT 0 0 0 1 0 0 0
POINTS 500
DATA ascii
0.60601234 -0.10987704 0.95552129
0.62075514 -0.13372332 0.95743579
-0.9710443 -0.012124553 1.4667785
-0.63300103 0.047877681 0.83953482
0.71037161 -0.16835067 0.94873768
-0.92661643 -0.073715463 1.2435503
0.62056744 -0.13404471 0.95863384
0.8087039 -0.11839125 1.0013549
-0.85453695 -0.032870989 1.5667489
0.31724966 -0.14646602 0.98799747
-0.99476177 -0.12436325 1.5969374
0.22399555 0.053065866 0.77960402
0.81034666 -0.11889628 1.0046391
0.80070162 -0.1901952 1.0153515
0.33962026 -0.14925373 1.1065521
0.54454112 -0.19286227 1.2519403
-0.93557161 -0.015362762 1.6108618
0.20901114 -0.25721866 1.4329362
-0.97915703 -0.099515565 1.6027868
-1.2500296 -0.25350839 1.9172337
0.68035978 -0.13660842 1.6233714
0.24198127 0.040161446 1.1248147
-0.96987712 -0.092581041 1.6049266
0.37518695 0.047141083 0.61870223
0.13299203 0.059517205 0.32987326
-0.92112458 -0.013495434 1.5821352
-0.96737015 -0.10686394 1.6036084
-0.21478944 0.037764151 0.56675726
-0.9120025 -0.10280794 1.8800495
0.7914148 -0.18707871 1.0717001
-0.93224287 -0.087083362 1.5834422
-0.91394317 -0.10495851 1.8816442
-0.91245544 -0.17348829 1.8844275
-0.9041357 0.045949955 1.9283388
-1.1924657 -0.16576695 1.8138988
-1.0220342 0.036058128 1.4637938
-0.87766975 -0.033094823 1.6208863
-0.89372849 -0.14709944 1.9725893
-0.79322118 -0.1990487 1.5876775
0.74330068 -0.054854088 1.7326989
0.12390776 0.058919989 0.33067364
-1.3405139 -0.18712646 2.1210229
-1.6269768 -0.1815238 2.5821006
0.26620996 -0.18806517 1.6206455
-0.94375795 -0.11384833 1.9304192
0.29198879 -0.14281017 1.2554991
0.40901384 0.040759344 0.60917062
0.33174226 -0.17241174 1.3604653
0.20678811 0.060106918 0.35739595
0.23009489 -0.18697274 1.4403803
0.62164217 -0.21647811 1.4373395
-0.069048889 0.058264844 0.4865436
-0.92025465 -0.024594638 1.9004478
-0.91309464 0.048357118 1.6450777
-0.89275807 -0.081102245 1.5327375
-0.97509223 0.032781981 1.3802867
-0.92506719 0.044058815 1.984324
0.25005761 0.040888421 1.1759815
-0.94479561 0.0011450816 1.5709209
0.20223625 0.044181366 1.5046017
-0.20546156 -0.048698511 0.56760305
0.25838846 -0.18403691 1.5781684
-0.23109876 -0.062099651 0.62754709
0.53404319 -0.010181973 3.2364676
-1.3557024 -0.17509106 2.0729012
0.77307427 -0.046979688 1.6109164
-0.86333746 -0.031688698 1.6566982
0.66973394 -0.10610664 1.2273328
-1.0332071 -0.14278141 1.5572031
0.20530821 0.059297308 0.3560347
0.3756201 0.045664694 0.61643904
-0.90409487 0.020362113 1.5774364
0.8192212 -0.048951745 1.7574008
-0.049908303 -0.41486365 2.4390028
-0.95985186 -0.031606987 1.4794977
-0.21393752 -0.061642818 0.56019503
-0.97339201 -0.011449631 1.4708009
0.17769998 -0.21086961 1.0119684
0.2203445 0.050510239 0.86315793
-1.2626346 -0.26239324 1.934489
0.54498214 -0.027503133 2.3590467
-1.0186561 -0.13930526 1.5337002
-0.94719183 -0.10314191 1.5710843
0.37448195 -0.13681 1.434284
0.35613716 0.035149831 0.47514647
0.20794076 -0.22756779 1.4782996
0.21134172 0.05649595 0.36160666
-1.2464578 -0.047235169 1.6278827
0.2593793 -0.27559751 1.818933
-0.12412133 0.060487535 0.46043521
0.7889995 -0.056589879 1.8399408
0.69667125 -0.020957507 1.5323155
-0.049718626 -0.41061363 2.4386435
0.13830195 0.057533704 0.54676312
0.46102741 0.041988969 0.61480981
-0.95211083 -0.055765368 1.487716
0.15490173 0.051421929 0.87834734
-0.95582843 -0.089567944 1.5732765
-0.047473989 -0.39822519 2.3653154
0.84904683 -0.063961491 1.8758786
-0.99796444 -0.028211638 1.5601239
-0.91346717 0.018886257 1.5951452
-0.2163537 0.0032440894 0.56797904
-0.044587769 -0.38838792 2.2848229
-0.21083607 -0.036794174 0.58284932
0.3448616 0.043326624 0.80600232
-1.0092484 -0.094955944 1.4726007
0.60248542 -0.13912407 0.97595519
-0.28391093 -0.37736493 2.4231858
0.26661745 -0.18506601 1.5171239
-1.0297208 -0.10642792 1.4934518
-0.49980643 0.038826145 1.4676945
-0.97873861 -0.12773928 1.5637705
0.25072417 -0.030228753 2.6264169
-0.21700241 0.040171616 0.57555228
-0.9967435 -0.054310732 1.4639051
0.94878358 -0.050129082 2.9996598
0.38091937 -0.13252628 1.4591048
0.13175286 0.059890617 0.32884461
0.67470431 -0.17178226 0.9610644
0.19810721 -0.25899324 1.4425032
0.26533964 -0.1751762 0.91139227
0.60482347 -0.033216581 0.98934394
0.25297764 0.051968459 0.44163567
0.4568412 0.042231604 0.61509866
-0.42920083 0.05871797 0.90001458
-0.94519019 -0.062603459 1.4405544
0.34333476 -0.1848028 0.9716025
-0.12377978 0.060382243 0.44492906
0.75684112 -0.017803453 1.2042241
0.23111176 0.047330037 0.38499528
0.55823457 0.033557042 1.0206623
0.63404137 -0.15422282 0.94673747
-0.12544894 0.061040036 0.45853025
-0.49522224 0.03893647 1.4487975
-0.16677995 0.054772578 0.29122823
-0.24086146 0.053235684 0.51058024
0.6292209 -0.13739005 0.97776216
-0.058499955 0.05401732 0.65578264
0.36376145 0.023830814 1.050884
0.359862 -0.16938254 1.2903483
-0.88544858 -0.14173341 1.9616735
-0.14153837 0.051713046 0.58155471
-0.97941202 -0.051682033 1.4318717
-0.92255056 -0.02739343 1.9131474
0.22540987 -0.24302047 1.6059914
0.56811243 -0.15758973 1.0103333
-0.89021659 -0.22823706 1.8567629
-0.86701596 -0.22515529 2.0401194
0.38341758 -0.24074277 2.4858117
-0.62038869 -0.066311561 1.5043874
0.82030493 -0.040345103 1.2787223
-0.22712567 -0.33142966 2.4340792
-0.25605926 -0.21173412 2.2561865
0.88300663 0.079696551 2.0696826
0.88059068 -0.061573073 1.4608397
-0.15690972 -0.32707444 2.6459925
-0.67162114 0.0375508 1.403193
-0.15655378 0.057017483 1.3165672
-0.32252958 -0.14463526 0.67461652
0.20642267 -0.23057875 1.24894
0.15796737 0.052184492 0.89312261
0.23489188 0.051505283 0.44444877
-1.0128685 -0.078781076 1.4400997
-1.2814718 -0.26440388 1.8953824
0.35250738 0.017638894 1.3230319
-0.33674461 -0.14178532 0.66646785
-1.2862834 -0.26373976 1.8992584
0.57635689 -0.023174051 0.84283787
0.68149757 -0.11619497 0.93510836
-0.062267661 0.055268802 0.49427086
-0.014660658 0.061266284 0.27261573
0.13541982 0.060228087 0.33389968
0.2337283 0.05082693 0.44397944
-0.18943429 0.053893704 0.31008285
-0.27708516 -0.23369855 1.9542174
0.3058435 0.051563036 0.40881735
0.24117635 -0.042947214 1.3841665
0.73873687 -0.024047535 1.1791673
-0.2293116 -0.28463715 2.407717
0.25840229 -0.015442623 0.86460465
-1.0901928 -0.0030252524 1.4790182
0.67790949 -0.11613392 0.93104333
0.018417722 0.050263412 1.0236919
-0.1142299 0.055897254 0.29581541
0.3303324 0.045361664 0.52238351
0.14198248 0.058035146 0.55457431
0.31738755 -0.1889554 0.99293596
-0.14299472 0.052222133 0.59962887
-0.90532255 0.038061496 1.9397912
-0.22422801 0.054826871 0.54457933
-0.16364913 0.04430645 0.51335734
-0.91218948 -0.022489689 1.8593507
-0.22667448 -0.059978738 0.596219
0.07309439 0.052045118 0.75757259
0.42456976 0.039472342 0.67032868
0.7365883 0.073851131 1.7572339
-0.200082 0.056295414 0.26141125
-0.16946562 0.045957219 0.53404313
-0.7206713 -0.073614217 1.4969676
-0.26788551 -0.21158081 2.2990375
0.66224855 -0.16824821 0.94035953
-1.0165745 -0.012832714 1.435708
-0.89853323 -0.2843408 1.8640473
-0.93813276 -0.27104354 1.9104602
-0.89444685 -0.28202337 1.8558104
-1.2012924 -0.084951043 1.5730131
0.096566878 0.00035152398 1.8932643
0.37803346 -0.13637966 1.4502165
-0.42470255 -0.017949563 2.712611
0.77466708 -0.12177157 0.99144369
0.6699326 -0.11587625 0.9182269
-0.24026327 0.050198667 0.44095999
-0.35186353 -0.13831401 0.68057543
0.23978899 0.045513049 0.73193973
0.45888487 -0.20987707 2.8750598
-0.24649142 -0.042240486 1.0336702
-0.069944046 0.05645591 0.44569081
0.24760108 0.052691393 0.42316502
-0.37945911 -0.14009488 0.68023592
0.39391828 0.047957905 0.62173921
0.33271852 -0.17071316 1.3543353
-0.054251797 0.053083234 0.74744874
-0.32917404 -0.15016353 0.67227548
-0.068236895 0.060842071 0.30167812
0.55570024 0.035548016 0.85028583
0.31212541 -0.186804 0.97572273
0.34541821 0.043867197 0.59989506
-0.10824213 0.06109862 0.29941148
-0.92879564 -0.076689117 1.5189927
0.6313464 -0.0088096336 1.0571632
0.18668176 -0.20724443 0.92944282
0.63797647 -0.21427256 1.151485
-0.21717574 0.043333985 0.96362931
-1.1619542 0.012179945 1.497823
-0.9680742 -0.27198476 1.9981182
0.68244189 -0.11428951 0.93530399
-0.23611535 0.0513529 0.49877137
1.4499608 -0.064828269 2.3164203
-0.96188962 -0.08983352 1.6531134
-0.38116407 -0.14090267 0.6839624
-0.9358688 -0.031671029 1.8126323
1.5261178 -0.098499916 4.0028214
-0.50707203 -0.011115473 1.8979161
-0.15473296 -0.20714757 2.1604204
0.49629369 -0.10675289 2.3638675
-0.65021259 0.019117014 1.3790824
0.45947576 0.042324595 0.6098085
-0.19444317 0.054278288 0.29088491
-0.10791004 0.059211452 0.52514547
0.74491823 -0.18149778 0.9773584
0.030529914 0.059530318 0.3223694
-2.6852281 -0.38375208 3.7720006
0.86875397 -0.025620438 1.0430801
0.20524295 0.059387539 0.3540774
-0.93138015 -0.016946916 1.5997925
0.36350656 -0.17166242 1.3124535
0.12313589 0.058541875 0.32636863
-2.6816921 -0.37931523 3.7627032
-0.25034818 -0.3831628 2.3607223
-0.35528281 0.070401676 0.68921846
-0.28172284 0.05336136 0.43504637
-0.97041947 -0.086288467 1.5962229
-0.18930097 -0.34014207 1.8936429
-0.98967284 0.040475383 1.8149467
-0.068667494 0.060758017 0.30004734
-0.09722738 0.047830895 0.84928864
0.19042701 -0.30906054 1.4605474
-0.35811043 -0.13160399 0.67894608
0.26765439 -0.16537806 1.2127151
-0.21641083 0.041631468 0.95735508
0.59203666 -0.10915774 0.93899196
0.49067548 0.040150672 0.68649048
-0.18262693 0.051950604 0.45596188
0.1334838 0.059267931 0.32454246
0.10539155 0.061866555 0.35403544
-0.13251629 0.055453293 0.42975348
0.84890985 -0.057564035 0.9998123
0.20955203 0.054996811 0.35821158
0.5262199 0.041180938 0.65936881
0.18225512 0.062052559 0.39526206
0.16772608 0.059836421 0.38678831
-0.21191721 0.037960716 0.56006986
-0.41719016 0.063317932 0.72219867
-0.19000757 0.054440159 0.31154829
-0.068675831 0.061867997 0.30988199
0.79903167 -0.17370772 0.98463124
-0.17869039 0.049798176 0.55026263
-0.35818407 -0.13885158 0.69956154
-0.3864193 -0.15503496 0.6837768
0.31075194 0.022177178 0.59208387
-0.15847838 0.055591647 0.29228717
-0.27170396 0.05486891 0.49948019
0.31033912 -0.040118799 0.59920865
0.1605991 0.057306163 0.36413866
-0.12422714 0.060981687 0.44435245
0.23937298 0.052283924 0.4538793
0.49862185 0.0406827 0.69990617
0.10399026 0.061891317 0.35314351
0.13592112 0.060457174 0.33438867
-0.21258436 -0.059957899 0.56047028
0.23661382 0.051743671 0.44842118
0.21441786 0.05538955 0.37690276
-0.13534042 0.059453275 0.4573949
-0.22824366 0.054192431 0.52363211
-0.11531172 0.057773273 0.307854
0.15450238 0.055335332 0.43630832
-0.38595232 -0.14213336 0.69283921
-0.19051929 0.054662906 0.31251949
-0.11675585 0.05144418 0.37453467
-0.24690233 -0.12990618 0.56811434
0.4819575 -0.15577209 0.71087426
-0.069641747 0.062248487 0.31360656
-0.17943317 0.054681443 0.33118409
-0.2968429 0.056182154 0.46756583
0.30646011 -0.040205482 0.59000748
-0.42815655 -0.0064789094 0.58935112
0.73632377 -0.16175589 0.98824829
0.55199337 -0.15222916 0.9771015
0.62475479 -0.15525624 0.90625459
0.78107333 -0.11391959 0.96011561
0.14491999 0.059821241 0.57273036
-0.022013916 0.061958436 0.36116511
-0.10444767 0.06281998 0.32728082
0.35420457 0.037338004 1.1446223
0.13832471 0.057389453 0.53980631
1.0098696 -0.029907901 1.219831
0.035203971 0.059692301 0.4369753
-0.11351196 0.056615479 0.30057913
-1.2881752 -0.26641271 1.9053402
0.23997532 0.0459661 0.7344659
0.059042148 0.060665939 0.26551813
0.88467199 -0.083988748 1.3852491
-0.96697122 -0.1045837 1.6107428
0.23720804 0.051008437 0.92187053
-0.20393942 -0.050041065 0.56797117
0.23480424 -0.12174583 0.76752084
0.19248416 -0.17184943 1.0042012
-0.047281437 0.062153123 0.53103608
-0.0024683345 0.059255943 0.48050696
-1.1453242 -0.26116991 1.8055127
-0.81172186 -0.20997515 1.8503492
0.42862526 -0.01877285 0.53705281
-0.0026622731 0.059169177 0.48267859
0.23480181 0.054782256 0.82384175
-0.99092072 -0.0097100381 1.4967875
0.25885478 -0.15865928 1.1824238
0.32820091 0.032068402 0.46677393
-1.0027193 -0.12299422 1.5495737
0.22714269 -0.17830861 1.2140834
-1.0047889 -0.12273414 1.5521781
0.19130509 -0.21507657 1.1866877
-0.084999897 0.046406887 0.84235579
-1.0381153 0.019484987 1.8218529
-0.058399312 0.054679744 0.77572173
-0.20156904 0.049889624 0.56121999
0.34197414 0.062961459 0.53775817
0.79754949 -0.023357425 1.1233203
-0.13285685 0.048002064 0.97675258
0.20155196 -0.24675804 1.5223601
0.47834739 -0.17842397 2.1920147
-0.93100947 0.017710861 1.6246367
0.011383934 0.057897076 0.4781509
0.70235509 -0.03552071 1.1622202
-0.15206145 0.051477909 0.97761351
0.61529934 -0.13336107 1.0675735
0.3374429 -0.1438053 1.7873333
0.16858278 0.046824969 1.1926887
0.21289437 -0.1748226 1.1367939
-0.25380304 -0.387642 2.3839483
-0.36596093 -0.18272251 2.3478353
0.79065782 0.087669097 2.1050413
0.68979961 -0.017733857 1.6373487
-0.053468585 0.052673817 0.99247378
-0.053954639 0.052508671 1.021095
-0.19108468 -0.35319337 2.374465
-0.24667664 -0.28051749 1.999953
-0.12465622 -0.33237532 2.8658876
-0.16550632 -0.27143666 2.5503445
-0.21427122 -0.26576862 2.247088
-0.14178799 -0.33052528 2.7924573
-0.41507068 -0.020352039 2.7372355
0.60651094 -0.11234141 0.96273953
-0.13119201 -0.32510552 2.7516589
-0.2626467 0.053471334 0.48481375
0.80442518 -0.16810873 1.0147474
-0.19442345 -0.07331153 0.58257693
-0.28344956 0.057683788 0.48286384
-0.18013628 0.055141635 0.23699969
0.80975246 -0.13043976 1.0005696
-0.0824342 0.058859438 0.38048655
-0.34602335 -0.15641412 0.73412091
-0.37775335 0.05502782 0.4921729
0.16332266 0.060016111 0.488684
0.66339743 -0.12743631 0.92779714
0.14462121 0.05360616 0.42745715
-0.18463564 -0.13987902 0.60963696
-0.30716667 -0.27002972 1.5884264
-0.18309776 0.055824541 0.42500085
0.0020562988 0.059737481 0.30904406
0.27304494 0.050351955 0.45215517
0.34090427 0.042275354 0.59604424
-0.16985838 0.056293663 0.33479959
-0.27395728 0.056382794 0.50765604
0.64300305 -0.14065909 0.90321296
0.19638854 0.060518842 0.51760012
0.25603458 0.049108323 0.5457198
-0.13357042 0.056439746 0.24741644
-0.15566447 0.055170804 0.34835285
0.73800725 -0.1192802 1.0077839
0.41605797 -0.2055757 2.3328869
-0.1640604 0.054121088 0.31983596
0.22292577 0.04891675 0.77079517
-0.33664209 -0.14198646 0.66513902
-0.21846983 0.0536668 0.52913171
0.3044236 -0.07247486 0.60155982
0.17272997 -0.19601586 1.0728087
-0.16384551 0.056940846 0.35180801
-0.16404228 0.057235107 0.32598883
-0.17967699 -0.079010859 0.56506222
-0.25649706 0.037424006 0.67389446
-0.054649957 0.064382076 0.29737264
-0.2012056 0.041312654 0.32831746
-0.063424625 0.057626396 0.52257842
0.90765983 -0.22226536 1.0545912
0.096886277 0.057782412 0.32278162
-0.03125415 0.062323973 0.27790684
-0.24878998 -0.39135447 1.9391687
0.31402722 -0.0096056592 0.61306041
-1.2990375 -0.26997519 1.9288785
-1.0673357 -0.013743026 1.5105925
0.74322897 -0.064368747 1.2359395
0.21649821 -0.011255782 1.4611356
0.51483727 0.040782124 0.70389396
0.3216249 0.033539284 0.59793741
-0.17316218 0.053111032 0.39867812
0.099754378 0.059225652 0.33333248
-0.18812852 0.048924312 0.681817
0.12111044 0.057656586 0.31370431
-0.18634234 0.05047828 0.24877793
-1.1373494 0.0089734346 1.4817221
-0.8274523 -0.071318522 1.1598556
0.7653082 -0.049063139 1.7597964
0.28741887 0.031021349 1.661983
-0.14243238 0.052463867 0.59440333
-0.21165623 0.033761546 0.57370478
-0.11341899 0.056242779 0.29730517
-0.063337237 0.055702105 0.42393357
-0.87180078 -0.2546818 1.7838056
-0.38497069 -0.14272097 0.69237036
-0.82344353 -0.033210356 1.5622101
0.32230511 0.033400301 0.59934539
0.26039737 0.050413854 0.55583829
-0.96015251 0.038917352 1.7495601
-0.21576162 -0.30475697 2.2266366
-0.21776234 0.041437536 0.57727855
-0.24366732 0.053184669 0.51343817
-0.13740622 0.044840243 0.22281593
0.12059332 0.040678792 0.68753546
-0.93102658 -0.079181433 1.5242734
0.35195717 0.064196542 0.53889424
-0.41823402 0.058006216 0.87672776
0.055787921 0.05885667 0.31626326
0.20891595 -0.16773006 1.0664656
0.31266323 0.011730755 1.1349688
-0.87283701 -0.030505624 1.6242847
0.68675238 -0.045215983 1.6085758
-0.21193568 0.034285691 0.57574826
-0.26624453 0.054964606 0.48715562
-0.28946254 0.055754095 0.45277947
-1.019722 0.020964148 1.4760394
-1.0822828 -0.0058496967 1.4752007
-0.13037299 0.052127875 0.49493831
-1.0319417 -0.12508622 1.6582527
-1.3093612 0.513152 2.6437275
-0.52470678 0.056964751 1.3007839
-1.1289275 0.0092318002 1.4705434
-1.0891079 -0.0060646739 1.478817
-0.95102561 0.053830821 1.760649
-0.06426467 0.062015697 0.3697924
-0.55360758 0.057271693 0.97249359
0.3446798 -0.16885227 1.0697336
-0.43101156 0.059335269 0.8806811
-0.063852116 0.050838694 0.37730962
0.59669906 -0.037272733 0.92259008
0.74186164 -0.03815363 1.2347803
0.2968666 -0.1670002 2.0216215
0.3468124 -0.035355948 2.9837375
0.019977769 0.048213258 0.97770566
0.33944198 -0.2029098 1.0211458
-0.70905703 0.061307099 1.4248538
-0.50277162 -0.0090745091 1.8786685
-0.05727569 -0.39699075 2.3482697
-0.24805452 -0.20155218 2.1437919
-0.24043445 0.047824405 1.0270579
0.67045867 -0.052517019 0.98740238
-1.057413 -0.015409524 1.4496458
-2.7565899 -0.37695789 3.8718121
-1.0190505 -0.012505697 1.4346936
0.81904387 -0.052442707 1.2803502
