# .PCD v0.7 - Point Cloud Data file format
VERSION 0.7
FIELDS x y z
SIZE 4 4 4
TYPE F F F
COUNT 1 1 1
WIDTH 551
HEIGHT 1
VIEWPOINT 0 0 0 1 0 0 0
POINTS 551
DATA ascii
-0.91861516 -0.13228132 1.3645984
2.8904338 -0.58972806 3.4914708
-0.93999177 -0.091758527 1.2778929
-0.93898278 -0.092349395 1.2719163
-0.93417841 -0.15945904 1.2654313
-0.90215224 0.018376499 1.341971
-0.92918557 -0.21611232 1.2818848
-0.96107119 -0.099263832 1.3003322
-0.96291775 -0.014470154 1.3310417
0.22907004 0.051864594 0.6784693
0.13939533 0.051192574 0.59346116
0.72892195 -0.043101899 1.0468136
0.72573394 -0.056383424 1.2180618
-0.67838556 -0.16877672 1.1853961
0.7829929 -0.057854317 1.393335
0.21095759 -0.18818493 0.97563112
-0.09790916 -0.39134818 1.7971741
-0.53832126 0.047272138 0.92711914
0.23351291 -0.03319709 2.7997694
-0.66614038 -0.19090554 1.189576
-0.95836037 -0.017096983 1.3278588
-0.92397755 -0.21657734 1.2667683
-0.26167282 -0.30285233 1.7076668
-0.26825362 -0.26730195 1.7322685
-0.31530687 -0.20459375 1.7284795
-0.92509878 -0.26956132 1.2575461
0.4044199 -0.20475696 2.3569527
-0.24854821 -0.02840106 0.38751495
-0.53763431 0.00038117729 1.2905284
-0.60643595 -0.1433569 1.0494412
-0.3032859 -0.37945667 1.8148385
0.34054056 0.043914676 0.63402379
0.6563248 0.014318613 1.3363918
-0.89108902 0.00880537 1.2821211
0.42818123 -0.17368296 1.6232809
-0.39523843 -0.16252753 1.655331
-0.26406765 -0.22334956 1.7587095
-0.30073431 -0.28044388 1.5125223
-0.18451986 -0.32664517 2.3000069
-0.26638004 -0.26339164 1.725207
-0.19673899 -0.3191995 2.1800556
-0.18863729 -0.31628063 2.158237
0.45596042 -0.22098483 4.2926044
0.30683237 -0.01996644 2.0543752
0.29954508 0.017180139 0.63543689
-0.1928623 -0.35579896 2.3416667
0.3291004 -0.042062685 3.0680499
-0.90887558 0.018436899 1.3496069
-0.31139705 -0.20701723 1.7332853
0.21919632 0.051588558 0.64199626
-0.2420356 0.021854846 0.82030046
-0.90298581 -0.015504843 1.3364767
-0.53064859 -0.037474737 1.2943875
0.65453929 -0.013161877 1.0916299
-0.18887284 0.053888075 0.39944172
-0.94100881 -0.094876446 1.2712389
-0.24237663 -0.34323305 1.7469562
-0.27451381 -0.20165402 1.7071587
0.32958987 0.0065008346 0.76978958
-0.53568959 8.9557841e-05 1.2851576
-0.41999686 -0.24616621 1.6422404
-0.41904685 -0.010353876 1.8032607
0.23189333 -0.17614086 0.93948305
-0.92134953 -0.13074937 1.3815223
-0.54939365 0.029198352 1.310412
-0.95982248 -0.018563325 1.3357896
-0.93506473 -0.0077107567 1.3418061
-0.17552909 0.060968578 0.43177295
0.7066294 0.0042360146 1.4535733
-0.54563755 0.028180316 1.3000458
-0.35878351 0.052811474 1.1353773
-1.440317 -0.029483205 1.9809934
-0.92306656 0.028346617 1.2866055
0.4991855 -0.088892162 2.9398918
0.51243788 -0.17827404 2.3399653
-0.26513976 -0.2640858 1.7238368
-0.30656227 -0.23071922 1.4964792
-0.55837625 0.019218884 1.2391764
0.49741927 -0.23827048 4.7544732
0.87514764 -0.059079275 1.2839531
0.49930272 -0.43594769 5.2129645
-0.22659358 -0.34848103 2.2748342
1.0710829 -0.085124448 1.7308458
-0.46273151 0.042012729 1.5891787
-0.61463147 -0.17582084 1.1484321
0.77538401 -0.078220353 1.1313576
-0.55581695 0.019009186 1.2344738
0.6499173 -0.014941158 0.95748746
-0.069582924 0.060513668 0.45671272
-0.15966368 -0.23243417 2.2536082
-0.17286772 0.059593827 0.4160763
0.34612599 -0.17088835 1.523621
-0.6404615 -0.13863556 1.156777
-0.34681299 -0.2301899 1.117488
-0.59155029 -0.13679476 1.2426337
-0.065341167 0.058059268 0.60915482
-0.43531808 -0.18562333 1.4161869
-0.52761376 -0.064224839 2.6051259
0.39293358 0.044704691 0.50712144
-0.95376784 -0.28001967 1.2349116
-0.38435048 -0.17045058 2.8392873
0.52072966 -0.2475632 4.9859881
0.47746792 -0.020198921 2.4675446
-0.45372021 0.010243647 1.8389894
-0.20051008 -0.28293473 2.4223704
0.56320637 -0.056521252 0.94622958
-0.3380726 -0.25657907 1.6460844
0.2899662 -0.18770677 1.2255205
-0.14941537 0.039350465 1.259854
0.39315382 0.044447944 0.49966335
-0.64238793 -0.13903978 1.1601681
-0.55893433 0.064420491 0.8695823
-0.5789746 0.049450979 1.1375111
-0.55456257 0.049144994 0.97905457
-0.54833525 0.045028403 1.2027262
-0.44742796 0.018511854 1.8070077
-0.45570764 0.014979095 1.7135261
-0.64345944 -0.13866737 1.1626641
-0.23230144 -0.2447087 1.9562551
-0.61419821 -0.17623019 1.1493427
0.3211183 0.038561761 0.39511073
-0.1893886 0.054747924 0.40266645
0.0031329915 0.055952393 0.48557746
-0.29133448 -0.25053564 1.728146
0.34291342 0.043182746 0.63401926
-0.23410007 0.052190825 0.38689291
0.83640963 -0.1038346 1.2058686
-0.61155945 -0.16236497 1.1647817
-0.1880438 0.055634849 0.33046496
-0.26574561 -0.35373795 1.7454566
0.44286254 -0.0043728445 2.476058
-0.0032074377 -0.39386889 1.7629846
-0.5693801 -0.21146558 1.1873857
-0.18552047 0.053834677 0.5897609
-0.59942192 0.050085992 1.1915616
-0.6848864 -0.17001487 1.2019743
-0.67889142 -0.17767973 1.1651272
-0.57512385 -0.16489252 1.1487328
-0.54999828 0.05861184 0.9796387
-0.56922418 -0.21804799 1.0623461
-0.23255852 0.051402807 0.38198829
-0.59602475 0.061653972 1.0755924
-0.11380502 0.059600204 0.33224618
-0.96218568 -0.019161033 1.3409952
-0.11141797 0.057864845 0.46528912
-0.22380218 0.046189599 0.85099804
-0.44387516 0.0093756821 1.7590836
0.20093131 -0.19825803 0.95180833
-0.6160388 -0.16342208 1.1729573
-0.38920119 -0.22790106 1.5283657
-0.93224293 0.025627855 1.3092297
-0.6059199 -0.12770922 1.2082807
0.646496 -0.046441302 1.064648
0.2771928 -0.24010761 1.6013819
-0.45846733 -0.19816643 1.5300046
0.077774085 0.054958515 0.59301198
-0.22952625 -0.025379309 0.38225186
0.057252206 0.044208035 1.2198175
-1.0761901 0.052985132 1.4401361
0.57738215 -0.22779061 3.464838
0.71101767 -0.051405057 0.95828283
-0.26049402 -0.39195031 2.3578281
0.50320989 -0.22246416 4.8053231
0.33414808 0.047206212 0.41685212
-0.18834686 0.05778908 0.44877553
0.20995739 0.054632656 0.32392287
0.12825048 0.059287816 0.31851792
0.22164765 0.052910425 0.64392722
-0.39378831 0.060290352 0.50072849
-0.12055013 0.05982133 0.45196712
0.34104678 0.040600542 0.69014537
-0.11422918 0.056871258 0.39705014
-0.68198395 -0.19908175 1.194141
0.13985682 0.056134872 0.48041892
0.2250618 0.050101392 0.7730273
-0.72069424 -0.22882403 1.2254189
-0.11583462 0.059522927 0.4479115
-0.65848422 -0.14184205 1.2082995
-0.48928866 0.024794694 1.4971694
0.080163606 0.056950055 0.60708106
-0.067016795 0.059491016 0.45604277
0.40413031 0.049065039 0.54060686
-0.0069420636 0.058002539 0.33920515
-0.4588536 -0.20809273 1.7119569
0.13741598 0.052820809 0.58697832
0.55391699 -0.18285164 2.0239534
-0.96400267 -0.2907564 1.4550673
0.38220769 -0.22076327 1.4767207
0.35097298 -0.17362824 1.5534693
-0.50677282 -0.12802148 1.9258107
0.077040158 0.054441616 0.58887565
-0.39628443 0.02933966 1.8374554
-0.49577942 -0.12517549 1.8816561
-0.46928635 0.04229119 1.6175219
0.055226751 0.043744668 1.1736945
-0.35799751 -0.090435013 2.4169078
-0.92678863 -0.2153102 1.3347057
0.33711326 0.047295444 0.4238528
0.21350211 0.058192126 0.336941
-0.59871572 0.055535674 0.82832205
-0.43359399 -0.23707886 1.1463639
-0.24456885 0.051830523 0.64559734
-0.37778226 0.056001239 1.0049442
-0.90079671 0.018833302 1.3335372
-0.61134487 -0.23975287 1.0959996
-0.11261638 0.058303811 0.42446744
-0.91578966 -0.21567914 1.390406
-0.1750809 0.061321534 0.34406555
-0.59730792 -0.19980232 1.0681125
0.32291618 0.0035186913 0.85371411
-0.64360482 -0.14222622 1.1765312
0.31387433 0.0048060939 0.83074272
-0.91986883 -0.21439436 1.3510514
0.14554909 0.0575101 0.51782346
0.13792631 0.053552426 0.58933723
0.19921291 -0.21638213 1.0491475
-0.0011832491 0.058733538 0.34895396
-0.17505768 0.061331309 0.34440851
0.23196596 0.050487943 0.80601871
-0.27169126 -0.41451457 1.8463579
-0.65680963 -0.18826631 1.1457542
-0.47848573 0.016944613 1.788015
-0.50010067 -0.12413969 1.9018229
-0.48139301 0.015114869 1.8005484
0.34712824 -0.22637393 1.4793459
0.15624526 0.050330549 0.75229919
-0.46561661 -0.0058500674 1.8255273
-0.44768038 -0.18977971 1.4569041
-0.96846145 -0.31057185 1.4936816
-0.32000825 -0.20386778 1.7449111
-0.42420113 -0.1860324 1.3927289
0.152224 0.066122524 0.36047745
-0.56569427 -0.2363634 2.0386081
-0.71245688 -0.094287656 2.5740676
0.347114 -0.21566875 1.5975608
0.3755686 -0.20204122 1.7862431
-0.98785192 -0.059921347 1.2766474
0.22102153 -0.22085887 1.1895107
0.071403138 0.043505192 1.3238693
-0.21718547 -0.38400444 2.7073383
0.47097406 -0.37911496 4.5390539
0.30679545 0.040056545 0.45690668
0.31386766 0.041275539 0.47919583
-0.24144331 0.057158656 0.30044723
-0.10601506 0.058612451 0.32242131
0.22432482 0.051426232 0.32403719
-0.94429678 -0.28379193 1.3915311
-0.61259323 -0.16246086 1.1684626
-0.54707766 0.045996889 0.93588722
0.50743103 0.037301801 0.66493857
0.53148395 0.037074141 0.64000404
-0.10739201 0.059498318 0.3299036
0.54105097 0.037700437 0.65787613
-0.10909954 0.060204722 0.3349303
-0.18865597 0.054718897 0.40058005
-0.91437346 -0.17131227 1.3926784
0.352759 -0.16002743 0.96403325
0.76302892 -0.1599282 0.99542439
-0.57715172 -0.2442468 1.0923408
-0.073329307 0.059296511 0.34447277
-0.62864953 -0.18221185 1.1898552
-0.4421784 -0.24071293 1.1229213
0.12811992 0.056332961 0.4517566
0.19792718 0.054716617 0.48234439
-0.9139533 -0.017479936 1.3609463
-0.38235208 -0.20139213 1.0603384
-0.89542419 -0.018296571 1.3342725
0.68200821 0.018821742 1.414976
0.4675481 -0.16471492 0.92890656
-0.27740678 -0.18185906 0.86248863
-0.9139263 -0.016283089 1.3561589
-0.8959204 -0.15930152 1.2314116
0.73601156 0.010534609 1.7146071
-0.19407824 0.046895318 0.82852137
-0.9358052 -0.0075592827 1.3449486
-0.089629121 0.053216331 0.48019505
0.1578446 0.050104704 0.76277959
0.75327235 0.0093706436 1.7652818
-0.071797274 0.058461718 0.43114996
-0.19454688 0.05667302 0.62873471
-0.078356706 0.025527271 0.55709732
0.28271884 -0.24352057 1.6393939
-0.72895592 -0.096299961 2.6368022
-0.50900525 -0.06059546 2.4876451
0.28123254 -0.23731677 1.6164333
-0.37568265 -0.0043361895 2.1994033
-0.54431057 -0.11307957 2.3729825
-0.23379061 -0.1392018 2.2219181
-0.93639809 -0.16059083 1.2676955
0.17173222 0.053804182 0.86473787
-0.13780388 -0.073709786 1.2465311
0.83905816 -0.10119207 1.3058962
-0.53760678 0.020578872 1.2461749
0.41978565 0.041730836 0.48682618
0.22775924 0.016182352 0.58797801
0.57205778 -0.14996323 0.65297592
0.4624649 0.015924428 1.6483446
-0.4081535 -0.16589782 1.7308592
-0.0050385371 0.058434978 0.49221385
0.31164622 0.006514091 0.43782616
0.21149567 0.053804956 0.68156588
-0.47257885 0.015364357 1.765627
-0.45803854 -0.13234963 1.9696802
-0.72761852 -0.098603114 2.4310565
0.20480418 0.056637987 0.5016793
-0.45503643 -0.20701788 1.6850373
-0.36764774 -0.21275216 1.103412
-0.19824678 0.055453472 0.40603757
-0.18275619 0.055777885 0.47115445
-0.63711107 0.055066012 0.81025779
-0.41578493 0.06359081 0.54950988
-0.22728661 0.046905171 0.80418193
-0.50202912 -0.17998958 1.9184259
-0.7015484 -0.094319902 2.5239882
0.21767661 0.050466675 0.63829219
-0.0010119975 0.059658058 0.35714829
-0.48548803 0.038801663 1.2787336
-0.1592631 0.043668635 1.4181436
-0.065893061 0.059589952 0.45993221
-0.13642129 0.060953245 0.41909039
0.34087738 0.043297023 0.62856948
0.31308541 -0.082474455 0.43397892
-0.33043328 -0.17917842 2.2643852
0.28718385 -0.24998297 1.6830035
-0.50707203 0.060242966 0.64721572
0.22346967 -0.19837815 2.1693654
-0.26357877 -0.23676939 2.1469626
-0.69317466 -0.24638747 1.1926373
-0.23040089 0.047911189 0.81795275
-0.065158278 0.054770365 0.56270897
0.003785722 0.055840738 0.48061216
-0.2009922 0.055110529 0.37353015
0.28006637 0.042388797 0.59467566
-0.49984434 -0.20157273 1.3661815
-0.50140095 0.0025176574 1.6975578
0.30710968 -0.080185987 0.42385745
-0.37163976 0.029290998 2.1675997
0.40321788 -0.016554629 1.2506825
-0.38007072 -0.023420265 3.3267627
-0.38982666 -0.097644128 3.3612137
0.13090736 0.049719378 0.55829108
-0.67878515 0.033773959 0.86034334
0.31092998 -0.00030268542 0.44189429
-0.079881974 0.051710285 0.46097445
-0.317527 -0.19299982 1.6969661
0.065633304 0.058822446 0.340554
-0.55101615 0.030953925 1.3166569
0.44716245 0.01606435 1.5877267
-0.51635677 0.012559658 1.6304413
0.40089747 -0.20097457 1.0762902
-0.12104542 0.061140902 0.46722281
-0.066641979 0.0583665 0.42821395
-0.32317647 -0.25450903 1.3751603
-0.19057742 -0.39759722 1.8235103
-0.52799207 0.020530494 1.5638236
0.10025954 0.059255846 0.31152415
0.30887911 -0.07315813 0.43833816
-0.20091686 0.056087673 0.37463689
0.3293148 0.039460041 0.66980493
-0.90532261 -0.016654452 1.3521816
0.067685403 0.060236543 0.34903395
-0.42570284 0.065955259 0.56513155
0.34904814 -0.022200884 1.5016121
0.31192395 -0.065994866 0.4378258
-0.10971411 0.061193354 0.33998311
0.15214503 0.055609927 0.38748991
0.34377959 0.048052952 0.60521996
-0.22418016 0.054768637 0.31783712
-1.1165087 -0.0068750512 1.3975238
-1.0487036 -0.074509844 1.3466431
0.13145211 0.05636894 0.36169755
-0.18403396 0.056237645 0.33691633
-0.55550522 -0.003031835 1.5437173
0.23564795 0.050715648 0.83194458
-0.53812963 0.056638658 1.3100089
0.13903201 0.060092419 0.30890334
-0.23857129 0.051683903 0.37459993
-0.17690039 0.058288299 0.50807369
-0.42670432 -0.20155212 1.912474
-1.0480511 -0.01210287 1.3905495
0.69093442 -0.0083331335 1.3475868
-0.41744402 -0.22666219 1.104447
0.14080638 0.055027798 0.60102642
-0.49088266 0.041043483 1.2295338
-0.065925054 0.05950769 0.33331585
-0.33837202 -0.2665689 1.4461342
-0.0086222142 0.060214192 0.35053229
0.05533009 0.055030532 0.55339611
-0.54290986 0.064357691 0.70142782
0.49442592 -0.0019418243 1.8020653
-0.38496965 -0.17197557 2.8390698
0.052032106 0.044114269 1.1389593
-0.35659096 0.052376769 1.1248235
0.15417632 0.054028541 0.77297223
0.20460516 0.051925391 0.31272948
-0.0045761093 0.057571612 0.46990883
0.31330034 0.00095468014 0.44462299
-0.19099507 0.052794419 0.34767818
0.30714005 0.020217212 0.8050791
-0.055268005 0.054882422 0.67402923
-0.31039047 -0.29444835 1.6605314
0.26243329 -0.15744165 0.73084199
0.43440828 -0.17317998 2.5622268
-0.59001046 0.038224809 0.81247842
-0.58120495 0.036222555 0.95833528
-0.94881153 -0.25581315 1.2823943
-0.55777627 0.0078143459 1.5345873
0.3705712 -0.1673786 1.0184318
-0.17171502 0.052273676 0.43174076
0.064694487 0.058254026 0.33980012
-0.45543817 0.022060402 1.8437895
-0.93329567 0.026387017 1.3132528
0.066128947 0.059660517 0.35014141
-0.48965386 0.049771529 1.3455566
-0.1286796 0.057831734 0.45154572
-0.06115222 0.013952225 0.1127907
-0.43682554 0.060852729 0.61917722
-0.1316275 0.060540646 0.44383156
0.37804893 0.046785727 0.47200131
-0.070518054 0.05922699 0.34299183
-0.52111763 -0.036532216 1.2698537
0.34122261 -0.16036378 1.5276989
0.44514829 0.0066547208 1.568349
0.26933125 -0.17716639 1.0780159
0.068396099 0.056341782 0.43219483
0.42940554 -0.17272173 1.6258148
-0.44750285 0.010268172 1.8203644
3.0536644 0.34035563 5.7998791
-0.40408742 0.061864823 0.52951849
-0.089978196 -0.11981336 1.6160299
0.40229353 0.048038028 0.51222026
0.73585635 -0.075135313 1.3938695
0.072407581 0.059689216 0.47342443
-0.29251325 -0.42701799 2.056901
0.35951945 -0.04948429 3.9813476
1.0764564 -0.08300779 1.9588012
0.46196237 -0.35497627 4.8982773
-0.19504029 -0.17267491 2.5248494
-0.21338835 0.055706039 0.3089236
0.30069599 0.0034773983 0.41223085
-0.18720454 0.052517422 0.34428418
0.22239667 0.015363533 0.35006118
-0.65841699 0.062877774 1.3244542
0.22492057 0.051272683 0.37357712
-0.15570965 -0.2213448 1.1608459
0.21416333 0.054504432 0.33267701
-0.17678565 0.062259041 0.3467176
-0.53875029 0.063762985 0.77622402
0.3874695 0.043420732 0.63526452
0.35270813 -0.13015257 0.90042341
0.11730102 0.058797605 0.24716735
-0.50802052 -0.21002273 1.1025301
-0.33424136 -0.20397952 1.7921067
0.24430859 0.016505975 0.39349294
-0.26716959 -0.22757703 1.7765123
0.55492985 -0.13961609 2.4471083
-0.40635139 0.062233217 0.79668272
-0.10066246 0.031391844 0.74911559
-0.40096167 -0.24734969 1.0966574
-0.52882791 -0.21878976 1.1489671
0.29251292 0.043492187 0.6712836
-0.13936207 0.058649175 0.45443177
0.20156458 0.042097986 0.56797349
-0.55308431 -0.19020288 1.1890332
0.31133124 0.0064548589 0.43782103
-0.52810365 0.06220568 0.75896299
-0.4591268 0.019919846 1.5347894
-0.46859124 0.071790271 0.60862601
0.31078425 -0.089864463 0.44051945
0.20759612 0.05283083 0.31965411
0.13433462 0.057664283 0.37361634
0.10031386 0.059215955 0.31034505
-0.53454238 -0.23252274 1.8368877
0.35670111 0.040458545 0.60515821
0.35842469 0.041751496 0.6491586
0.079583772 0.060381748 0.31028152
-0.061846197 0.053525425 0.55684912
0.072033636 0.060307749 0.30610526
0.20594144 -0.20194104 0.96343935
-0.18779862 0.055903599 0.33080351
0.33955458 0.020823484 0.89689004
-0.19031775 0.055470832 0.40688086
0.67673439 -0.0080364924 1.3180686
-0.49674764 0.043545045 1.2474991
-0.11488455 0.059267744 0.42230237
0.36828619 0.036641221 0.90149081
0.34763604 0.040005364 0.50966799
-0.22300333 0.052341841 0.36896324
0.30135149 -0.22140859 1.7067777
0.15596196 0.058515295 0.42824292
-0.94572443 0.0095303189 1.2631549
-0.1761643 0.052720152 0.48006213
0.12849 -0.024304288 0.74159253
0.28471565 -0.16058186 0.71962035
0.37916148 0.042644151 0.62079728
-0.27580497 -0.23653792 1.6021022
-0.11621062 0.060922317 0.33878291
0.45489293 -0.17788568 1.4673337
-1.431091 -0.21122171 1.7619838
-0.24190947 0.050289676 0.51043212
-0.59832126 -0.18606199 1.1411816
1.4561461 -0.19436671 1.9366056
-0.41121155 -0.16960788 1.7432569
0.179151 -0.21528779 0.94519341
-0.39687216 0.059071891 0.92632997
-0.64700288 0.036141515 0.83728421
-0.16698089 0.058329791 0.40276623
-0.45581979 0.069943659 0.58691752
0.27122253 -0.2451749 1.6038395
0.34958506 0.042180493 0.40491486
-0.38362548 0.057482123 1.0243348
0.30950543 -0.022884266 0.4369663
-0.49755636 -0.23636256 1.1391956
0.6559428 0.019818239 1.3662626
0.12969977 0.059089668 0.2563982
-0.11263578 0.058954753 0.47966146
0.16873699 0.060862117 0.38184476
0.02983465 0.060594633 0.29236805
-0.49256209 -0.22013387 1.0333039
-0.48304233 -0.23046203 1.1027504
-0.39044169 -0.20559113 1.0820388
0.21323812 0.054726198 0.68836057
-0.17752293 0.049081899 0.86873186
-0.33570084 -0.22481284 1.0757309
0.78810185 -0.076079495 1.4729878
0.33923391 -0.15502031 0.92296898
0.095129319 0.048790168 0.8635577
0.20475927 -0.16153251 0.90733826
0.095947184 0.051122807 0.86443985
-0.52787697 -0.0017640535 1.2700304
0.51833683 0.036454279 0.62419569
0.27664608 0.041546151 0.58780873
0.26595643 0.043026313 1.1878704
1.5959696 -0.31962019 4.6061296
0.28319302 0.044275466 0.3637054
-0.37806097 -0.23748635 1.084931
0.32652912 0.045079947 0.40109324
-0.91603756 -0.26575854 1.2396783
-1.1995035 -0.3619279 1.8355998
0.17725167 -0.022558196 2.1444893
0.3606672 0.041214328 0.6556989
0.53014523 0.037047781 0.63969243
-1.0939261 -0.32486743 1.5631572
0.27660447 0.044223495 0.57122409
0.42274135 0.0164335 1.491326
0.50070906 0.032472819 0.85820544
0.062559836 0.056632951 0.32282925
0.068696924 0.056761511 0.44160676
-0.067032196 0.060201705 0.33990121
-0.55953908 0.0021368451 1.5330423
-0.53408509 0.0037249494 1.2837359
