# .PCD v0.7 - Point Cloud Data file format
VERSION 0.7
FIELDS x y z
SIZE 4 4 4
TYPE F F F
COUNT 1 1 1
WIDTH 567
HEIGHT 1
VIEWPOINT 0 0 0 1 0 0 0
POINTS 567
DATA ascii
0.22104123 0.044898923 0.62588429
-0.9164561 -0.13247076 1.4138162
2.910876 -0.59409642 3.551616
-0.93820369 -0.091720104 1.3274693
-0.93774116 -0.092703544 1.3227353
-0.93259186 -0.15974975 1.3152993
-0.89653373 0.018171452 1.3828924
-0.92703062 -0.1365561 1.4291372
-0.92548978 -0.21598819 1.3273077
0.71781522 -0.056444176 1.2616229
0.78368843 -0.065726787 1.2931621
0.38325036 -0.075097769 1.8407135
-0.96226895 -0.10000101 1.3562858
-0.96065223 -0.014961479 1.3811274
0.23140636 0.051028974 0.7268846
0.22265196 0.045128401 0.63648033
0.14083168 0.050052665 0.63478422
0.73181462 -0.044436313 1.0919847
0.76495612 -0.04633256 1.2032871
0.52104241 -0.029459944 1.9896932
-0.74528897 -0.19063929 1.2529993
0.76365745 -0.057322837 1.3749473
0.66100895 -0.018354109 1.0167561
-0.093892805 -0.3905026 1.8320906
-0.33161372 -0.37073874 1.9031692
0.89730358 -0.054114543 2.5224178
-0.57031894 -0.038127877 0.96689916
-0.66190708 -0.19073643 1.2320898
-0.9565556 -0.017302928 1.3778384
0.31980175 -0.18199915 0.96705604
-0.9275949 -0.21811841 1.3269923
1.872908 -0.10693071 2.8776214
-0.25920624 -0.30483389 1.7644551
-0.21371141 -0.32938227 2.1959977
0.33711368 0.022729395 0.85968971
-0.89943153 -0.17646544 1.4947348
1.6463858 -0.12436601 3.1604154
-0.31121051 -0.20492125 1.7712157
-0.96175563 -0.25645247 1.3532274
-0.91933614 -0.26847926 1.2984998
-0.5350647 -0.00019174442 1.3385034
-0.23111272 -0.22894515 2.0281703
-0.73391503 -0.2258195 1.2505691
0.3500616 -0.17519794 0.86031103
-0.29891765 -0.37934381 1.8558767
0.66574579 0.01372495 1.3998158
0.43194401 -0.17519663 1.6699586
-0.17338973 0.060078532 0.48151016
-0.30477375 -0.3852689 1.890336
0.7523098 0.087510169 1.6179416
-0.260028 -0.22374335 1.8016958
3.2370472 -0.31524944 4.6899071
-0.17874512 -0.32562277 2.3296046
-0.26185971 -0.26303083 1.7623787
-0.18656719 -0.3098529 2.127625
-0.18397325 -0.31639984 2.1989691
0.46118993 -0.22087684 4.2991314
-0.93288797 -0.25603214 1.3034396
-0.18584555 0.053350247 0.63884664
-0.18491569 -0.35110188 2.3400083
-0.90686882 0.018198166 1.3994319
-0.51380104 0.0050112074 1.2517984
0.22145385 0.05087835 0.69034839
-0.89502203 -0.015909137 1.3737686
-0.52678603 -0.037870169 1.3384728
0.65890533 -0.014459589 1.1404684
-0.18793893 0.053377986 0.44693232
-0.9244011 0.023617685 1.3891726
-0.93918377 -0.095240727 1.3207886
-0.23989788 -0.34635341 1.8083079
-0.92106509 -0.1768004 1.4591141
-0.2713488 -0.20257561 1.7568176
-0.93531764 -0.28481671 1.5097244
0.34047326 0.0061662095 0.85240674
-0.53294897 -0.00053095259 1.3325684
-0.43309325 -0.009850936 1.9644709
-0.277486 -0.25547728 1.594003
0.23420307 -0.17721559 0.985888
-0.92536831 -0.21877669 1.3141267
-0.92053747 -0.13107808 1.4335747
-0.54506218 0.028892154 1.3527381
-0.93225181 -0.0079338197 1.3896313
-0.88935888 -0.26191854 1.2623618
-0.17362231 0.060197197 0.47435153
0.43320513 0.041336536 0.53099048
-0.54250056 0.027875494 1.3462992
-0.3566007 0.052338712 1.1840391
-0.30006388 -0.26753184 1.2295594
-0.9199813 0.03041758 1.3346221
0.48195082 -0.085897155 2.8240163
-0.10885585 0.057846747 0.36957967
0.51115233 -0.1780411 2.3527319
-0.0035035089 0.056287132 0.38182712
-0.26153731 -0.26451978 1.7690647
-0.30143255 -0.22941561 1.5277247
-0.55566621 0.01901822 1.2863805
0.51086891 -0.24183016 4.8440933
-0.20597488 -0.28363061 2.4319196
0.87660563 -0.057674967 1.3237629
0.50991958 -0.43810076 5.2601538
-0.22339827 -0.35103646 2.3371029
1.624881 -0.083415702 2.1472461
0.33789629 0.046105564 0.46811616
1.2052848 -0.078283854 2.099184
-0.45972613 0.041638881 1.6384306
-0.24436027 0.052017003 0.43243659
-0.61156887 -0.17591296 1.1935508
-1.019737 -0.30173555 1.3796995
0.75619155 -0.075738512 1.1249502
-0.55218267 0.018573994 1.2789617
-0.15410045 -0.2321202 2.2843442
-0.17155695 0.058985338 0.46204507
0.36589026 -0.19916606 1.4400213
-0.47490025 -0.15217111 1.9247167
-0.63844675 -0.13905382 1.2052135
-0.34672147 -0.23222013 1.1747909
-0.58911359 -0.13707165 1.2900031
2.2317142 0.2255027 2.873122
-0.42525232 -0.18322247 1.4330354
-0.52416372 -0.065719299 2.6642263
-0.36880493 -0.3639957 1.8664248
0.3964982 0.043838479 0.55679011
-0.95034742 -0.27968732 1.2812924
0.34040177 0.042230789 0.67274499
-0.38014787 -0.1713313 2.903259
0.53208542 -0.24975885 5.0462608
-0.45097816 0.0096909814 1.8922639
-0.19417676 -0.28104106 2.4415269
0.34400827 0.002504833 0.95540953
0.29358459 -0.18939973 1.2764676
-0.14532891 0.038375363 1.2902429
-0.64034939 -0.13945423 1.2085402
-0.25005704 -0.22237773 2.0754521
-0.56239092 0.047961641 1.1486435
0.19963062 -0.18469043 0.86029434
-0.54260933 0.048212208 0.99897766
0.2094548 0.055133909 0.26482666
-0.53208935 0.043870196 1.209276
-0.44127113 0.017846867 1.8418202
0.077688746 0.052040718 0.63180614
-0.44802138 0.014480926 1.7417974
-0.64129514 -0.13907118 1.2107763
0.50609243 -0.037705936 0.80197597
-0.23565248 -0.253598 2.0861783
-0.18883574 0.054381676 0.45185316
-0.58840632 0.056397535 0.89974403
-0.52834153 0.061332561 0.8619349
-0.31620532 -0.25746042 1.2262778
0.0046242252 0.05538737 0.5345211
-0.28700256 -0.2507726 1.7697148
0.57526946 0.029681202 0.94964385
-0.76042652 -0.22714117 1.2893317
0.34779993 0.042280689 0.68808746
-0.54777938 -0.20360647 1.18137
-0.58306265 -0.04576879 0.99739361
-0.23377436 0.05179736 0.43596661
0.79955488 -0.096620418 1.1745083
-0.61061484 -0.16308703 1.216018
0.43491903 -0.17748807 1.6829162
-0.96085626 -0.29659161 1.6258736
-0.44700116 -0.0452592 2.6461732
0.00030504912 -0.39354813 1.8017626
0.42355257 -0.17579803 0.94447541
-0.54665434 -0.20390725 1.1775224
-0.18219563 0.052776784 0.62690425
-0.62220752 0.051347546 1.3067381
-0.6153096 -0.23618756 1.2221966
-0.57089198 -0.16447383 1.1908963
-0.56856233 -0.20748354 1.148417
-0.2314238 0.050770178 0.42850506
-0.14108816 0.060982987 0.36951351
-0.58806813 0.061722279 1.1103876
-0.11110184 0.058166511 0.3701669
-0.96329224 -0.019179588 1.3963509
0.44355851 0.052945375 0.62922359
-0.11331084 0.058818758 0.53440058
0.26457182 -0.17948066 0.96718216
-0.43205905 0.0087224906 1.763654
-0.37444103 -0.25484404 1.1277306
0.20659491 -0.20294206 1.0208743
-0.37225991 -0.22021434 1.5092123
-0.93365556 0.024990879 1.3648179
0.27829644 -0.23866208 1.6279421
0.081390269 0.055268377 0.66202569
-0.4576239 0.0059617143 1.6085343
-0.97418714 -0.31363308 1.5640566
-0.97112572 -0.31306922 1.5553002
-0.90361422 -0.17230937 1.5051472
-0.22817576 -0.02519135 0.42735314
-0.95572186 -0.29128268 1.5476429
-0.71662986 -0.1883229 1.2375402
-0.72249824 -0.19004776 1.2441845
-0.74995023 -0.1968955 1.2742839
0.060296275 0.043336198 1.2686636
0.5826987 -0.22838314 3.4981077
-0.25520349 -0.39159212 2.3958397
-0.23724225 -0.27201921 1.9296858
-0.92598426 -0.21795648 1.3087561
0.51681739 -0.22600041 4.8934889
0.21302363 0.054194853 0.3748672
-0.5530116 -0.23759474 1.1304016
0.22399107 0.052094065 0.69214916
0.48841852 0.036949262 0.69679952
-0.11912144 0.059123941 0.49738908
0.32895949 0.028404022 0.92204309
0.35014963 0.04015068 0.75556231
0.1391885 0.0546415 0.51464236
0.22587252 0.048978847 0.81329465
-0.72134602 -0.23079489 1.2806389
0.1385735 0.055651456 0.50894129
0.9006902 -0.12805642 1.1195877
-0.47819346 0.0238734 1.5148041
0.082538716 0.056634232 0.66138124
-0.066258177 0.05936747 0.51013267
0.75491786 -0.024448702 1.8252535
-0.3455531 0.05065944 1.2840452
0.13835943 0.051653281 0.62841988
0.54406184 -0.17991854 2.0086031
-0.3655569 0.052888803 1.3632481
0.29150364 -0.19580679 1.079396
-0.55156112 -0.036390372 0.9637146
0.40340436 -0.22508503 1.59779
-0.50353259 -0.12868932 1.9763405
0.079342969 0.053975135 0.64258122
-0.39058474 0.028386328 1.87362
-0.49581629 -0.12668468 1.9470856
-0.90766811 -0.1768239 1.4275329
-0.22996747 0.063988104 1.7208455
1.0503066 0.11953148 1.8703909
-0.46376538 0.041668206 1.6558328
0.060453631 0.043449797 1.2615356
-0.25915965 -0.23229511 2.1698089
-0.35468191 -0.092051633 2.4792516
-0.92875481 -0.21658894 1.3906736
0.33777994 0.046293061 0.46816242
-0.9053331 -0.21336603 1.4239347
-0.071757197 0.058346145 0.38057673
-0.59931743 0.055360593 0.88032079
0.51393872 -0.10712466 0.6539104
0.1236409 0.053069018 0.31510007
-0.43331635 -0.23914345 1.2005997
-0.24156654 0.051065519 0.68767858
-0.19829062 0.054788448 0.45663285
0.28552061 0.042644039 0.63064671
-0.37771553 0.055718958 1.059824
-0.86361778 0.018511344 1.3206906
-0.41958582 -0.22879721 1.1555877
-0.61490786 -0.24247982 1.1566651
-0.11367438 0.058769852 0.48656249
-0.91474736 -0.21642393 1.4416654
-0.74307013 0.016400903 1.0993717
-0.88130033 -0.015012698 1.352227
-0.94212401 -0.22054256 1.4419246
0.14678988 0.056649595 0.56266916
0.13838005 0.052255079 0.62874889
-0.18153733 0.05384545 0.54439938
1.6607344e-05 0.057914227 0.39369142
-0.47714633 -0.18943985 1.343183
0.00022982061 0.057298765 0.38741934
0.24131778 0.050890781 0.88595963
-0.26617235 -0.4121581 1.8766444
-0.46384209 0.016753677 1.7861621
-0.4936223 -0.12414635 1.9372685
-0.47267163 0.013993807 1.8253748
0.33589461 -0.21822467 1.4510534
0.15837881 0.048725318 0.79752469
-0.069433257 0.058432467 0.39628994
0.9649992 -0.089117832 2.4053643
-0.43745595 -0.18752258 1.4760072
-0.40250605 -0.1950333 1.4969177
1.5708985 0.1661294 2.7517378
0.24565879 -0.17611365 1.0021641
-0.077852868 -0.11116067 1.0496554
-0.95459759 -0.30678865 1.5188158
-0.58455265 -0.065760262 2.4883959
-0.31410199 -0.20287521 1.7748914
-0.43386233 -0.19207804 1.4907436
-0.50953817 -0.21245663 1.8635085
-0.70117295 -0.093879484 2.5963533
0.339562 -0.2101063 1.5853219
0.21783388 -0.19599627 1.0538318
0.29319155 -0.25479904 1.7424524
0.38968313 -0.20922522 1.8898342
-0.98278451 -0.058701962 1.3171628
0.21771824 -0.21819447 1.2019982
-0.20827815 -0.37833017 2.6992996
-0.45559204 -0.059898272 2.978821
0.48014343 -0.38120922 4.5866947
-0.84301299 -0.010060936 1.0256195
0.058942847 0.060018636 0.26511919
0.33217138 0.04455474 0.62506437
-0.24047852 0.056680262 0.34726036
0.49907625 0.035171121 0.69336677
-0.60694063 -0.16188516 1.2083457
0.2962572 -0.0080536343 0.46192062
-0.21511048 0.053417951 0.35032105
0.53426582 0.036070246 0.68689537
-0.10709525 0.059374362 0.38027608
-0.18831372 0.054379001 0.45032454
0.19846392 0.059574626 0.25984311
0.13816494 0.057588898 0.35449898
-0.23995686 0.056387335 0.34578705
-0.63424808 0.065406613 0.85810494
-0.6117506 0.057184719 0.86390734
0.21366775 0.053201839 0.37445498
0.34896994 -0.15879343 0.98995614
-0.58069104 -0.24713708 1.1528893
-0.61230564 -0.17861779 1.2057297
-0.44004303 -0.24129616 1.1704891
0.27188739 0.043636478 0.71148539
0.13706353 0.057297602 0.42201436
0.15701079 0.061136723 0.5330106
-1.075889 -0.0062265694 1.391731
0.12964517 0.055572785 0.49865592
-0.13219002 0.058011413 0.51016986
0.20027432 0.054051928 0.53144109
-0.92841321 -0.017982842 1.4389586
-0.38280094 -0.20332272 1.11638
-0.89499021 -0.018650712 1.3864858
0.64751935 0.016009592 1.3704004
-0.45986155 -0.20961185 1.2081594
-0.90853596 -0.016936427 1.4012656
-1.0771701 -0.0024417527 1.3937254
0.29265845 0.042953014 0.66740274
-0.91402614 -0.01714888 1.4093502
-0.57949311 -0.16751121 1.0285246
0.34137416 1.1233613e-05 0.94909692
0.062039383 0.054870322 0.37111056
1.3251708 -0.11584911 1.8612883
-0.84636223 -0.15135555 1.2040324
-0.94432205 0.012983722 1.375104
0.73447007 0.0089830495 1.745424
-0.49056208 0.0084353499 1.4997385
-0.62643892 -0.24583374 1.182477
-0.19033253 0.045708451 0.86494803
-0.93413562 -0.0075219814 1.3951759
-1.2174356 -0.090833455 1.9221797
0.15265268 0.046913393 0.76297927
-0.12235462 0.037310384 0.31712949
0.13924983 0.057687454 0.42556334
0.78005278 0.0078707058 1.8709497
-0.18626246 0.052125685 0.78166866
-0.069894336 0.057207651 0.47131717
-0.49744141 0.051693998 0.87189126
1.1580622 -0.15336259 1.6249132
0.42940068 -0.15772985 1.4942594
-0.68587953 -0.20567393 1.010278
-0.36202216 -0.2108829 1.1346834
-0.19107741 0.055534691 0.67055035
-0.41588742 -0.22922176 1.154093
-0.16155678 0.048514917 1.2702689
0.29393554 -0.25010732 1.7333412
0.94354582 -0.035105675 1.0712929
-0.72510684 -0.097171143 2.6917465
0.28109196 -0.23553412 1.6382577
-0.34622294 -0.0047114473 2.0710552
-0.22154686 -0.1349293 2.1804554
-0.93490446 -0.16096212 1.3178203
-0.12469558 -0.0680774 1.1626251
-0.51405144 -0.13918425 2.875982
-0.74564129 -0.23320125 1.2633436
0.24929512 -0.21162608 1.2736769
0.41753763 0.040225998 0.52680445
0.21020293 0.013799527 0.56700528
-0.24122071 0.056340702 0.34736001
0.58052039 -0.15324156 0.70782185
0.46073499 0.014552541 1.6722481
-0.39522374 -0.16225468 1.7314665
0.43137574 0.04144806 0.52783203
0.31500113 0.00559742 0.48738301
-0.37611187 -0.20131946 1.672811
0.2160815 0.053423546 0.73864436
-0.46476597 0.014688317 1.7963531
-0.45396239 -0.13330206 2.0176096
0.31223661 -0.162137 0.93274117
-0.70684934 -0.097168528 2.4203148
0.2072365 0.055998668 0.55078924
-0.44177854 -0.202393 1.6891868
-0.407029 0.062299095 0.72264934
-0.36412048 -0.21254568 1.1456954
-0.19806409 0.055250362 0.45586562
-0.17993921 0.054888889 0.51263452
0.71681559 -0.087268084 1.1229556
0.54964042 0.034880441 0.67378473
-0.1357944 0.035196222 0.87976742
-0.22449219 0.046220399 0.84686685
-0.43677852 -0.0071307365 1.9085324
-0.49590576 -0.17999357 1.954788
-0.69193757 -0.09425015 2.5535567
0.0002309531 0.05967813 0.41060591
-0.49557608 0.039601721 1.3660555
-0.15105987 0.041376762 1.4090555
-0.064724267 0.059234984 0.50891268
0.13953418 0.058001786 0.35563815
-0.1318647 0.058846995 0.45074344
0.3215282 -0.085588448 0.49311185
-0.32125387 -0.17741565 2.2740221
0.29147211 -0.25256455 1.7363422
-0.99207687 -0.013731187 1.378377
-0.52769977 0.062299922 0.72962236
0.22587526 -0.1987377 2.1870487
-0.23998705 0.052019767 0.42505836
-0.29094467 -0.29096767 1.761358
0.64902419 0.071123019 0.78190923
-0.14042425 -0.082252912 1.3403897
-0.25279054 -0.2320423 2.1356134
-0.25788754 0.056515343 0.34536529
-0.23233107 0.048113562 0.88196921
-0.25193739 0.01845229 0.44894016
-0.062190503 0.052874275 0.59111238
0.005208753 0.054725647 0.52043498
-0.19843984 0.05403582 0.41636026
0.27594566 0.040683091 0.62528896
-0.467619 -0.18990712 1.3194642
-0.77551317 0.042479172 0.99899125
-0.4995845 0.0018147491 1.75212
0.5448786 0.035241012 0.66931939
0.30802202 -0.080994271 0.46896303
-0.36193833 0.02825244 2.1795273
-0.39689422 0.06030596 0.50918269
0.2934716 0.04556942 0.65904474
-0.36335099 -0.022961086 3.2647731
-0.38152874 -0.09765628 3.3912013
0.52964807 0.036441617 0.67568326
0.12913689 0.047659293 0.58557868
0.31040055 -0.0014567189 0.48379648
0.55263877 0.035721727 0.68197846
-0.30637676 -0.18865721 1.6938839
0.068597816 0.059500515 0.40040874
-0.72149277 -0.19072105 1.2396472
-0.57958627 -0.036747336 0.97630095
0.31199396 -0.08229164 0.47709382
-0.049905062 0.047703959 0.59412956
-0.53756577 0.030755846 1.3353672
0.4524703 0.014514175 1.6399882
-0.50719512 0.011964915 1.6567869
0.30830956 0.039394826 0.51293862
0.36626109 -0.18361516 1.0061972
-0.12124398 0.061331749 0.52223253
1.9220692 -0.095626086 2.3466103
-0.064337812 0.056805529 0.46368217
0.22494969 0.047312018 0.67880702
-0.1875113 -0.40027842 1.8788431
-0.51793849 0.019711018 1.5879469
-1.2641544 -0.38013357 1.9252534
0.031848006 0.06066934 0.34786844
0.10171088 0.058718048 0.3595916
0.12165169 0.06937708 0.43451035
0.20715627 0.052976511 0.57794893
0.31570917 -0.075863063 0.49476504
0.19324774 0.058254495 0.25289881
0.17247888 0.058165304 0.35235727
0.66695577 -0.012824709 0.94577742
0.40435857 0.16624884 0.87884545
1.1418951 -0.078509964 3.8559787
-0.21164176 0.05854398 0.450652
0.32797283 0.038058534 0.70783925
-0.90832949 -0.017129963 1.4102845
-0.94238508 -0.090406299 1.3339448
0.064405464 0.055801943 0.36555529
-0.24718073 0.053564586 0.44262791
-0.42369303 0.065482669 0.61144137
0.31416535 -0.019748861 1.3553333
0.3118605 -0.066801593 0.48107708
0.05797378 0.059194677 0.26342118
-0.10784381 0.060196579 0.38328099
-0.1883629 0.055412054 0.6685729
-1.129105 -0.16327171 1.4025075
0.34000403 0.046246111 0.63958502
-0.67548633 0.057692379 0.83196545
-0.23439291 0.056821696 0.38682938
-1.0953989 -0.0068467017 1.420706
-1.0276543 -0.073082499 1.3687017
0.19059107 -0.22794676 1.054558
-1.1001397 -0.32694456 1.6119251
0.14550084 0.057681367 0.47346485
-0.39722049 -0.16244467 1.7401049
-0.98366392 -0.25534216 1.2323513
-1.0398134 -0.01258667 1.4302948
-0.53361893 0.06384512 0.70784593
0.5401383 0.035076275 0.66358423
-0.552953 -0.0033903848 1.5935881
0.23587367 0.048755467 0.8007741
0.24159992 0.05041232 0.89377666
0.057006739 0.058063097 0.2569828
-0.50786144 0.052910887 1.2861259
0.13797379 0.058383822 0.34840369
-0.23874816 0.051808372 0.42432094
-0.17811689 0.058542252 0.56479728
0.68328106 -0.0095769018 1.3694935
-0.41016853 -0.22500148 1.1355691
-0.18760598 0.051837943 0.95706773
-0.19408113 0.053464547 0.40516889
0.14179313 0.053800851 0.64310455
0.19427228 0.05845014 0.25466752
-0.50164723 0.041438952 1.3163688
-0.064371526 0.058555402 0.37646246
-0.32596356 -0.25916889 1.445858
0.8804481 -0.0648681 1.6513433
0.05657997 0.053803146 0.5939374
0.51636672 -0.003928354 1.9284847
-0.17299488 0.056677796 0.5441153
-0.51501715 0.0098795407 1.6715913
-0.17697585 0.045239337 1.1996672
-0.37805089 -0.17212325 2.8791063
0.054768197 0.043505765 1.1911705
0.42708319 0.031598806 0.58230245
-0.36404803 0.05317232 1.2100775
0.16026098 0.054439098 0.84473848
0.20986667 0.05208838 0.36818254
-0.0032797977 0.056681678 0.51419735
-0.42624223 -0.1806258 1.810776
0.31810194 -0.0001623556 0.49704206
-0.53517461 -0.038110591 1.3643789
0.30583945 0.019646287 0.84083772
-0.054411732 0.055142991 0.73697925
0.27060044 -0.16309488 0.79919457
0.43859848 -0.17451663 2.5977528
-0.61597598 0.037946269 0.90407825
4.5353751 -0.85966206 5.8545771
0.15566778 0.055373207 0.43739331
-0.55422604 0.0072483458 1.57935
0.39390385 -0.17813128 1.1308796
-0.16590136 0.050477818 0.46182692
0.40032178 -0.13074844 1.3899782
0.06452129 0.056228809 0.37537658
-0.2354973 0.051416375 0.30258942
-0.44546205 0.02114884 1.8611088
0.29102224 -0.18892489 1.0646122
0.35363996 -0.13266292 0.94405651
-0.93677962 0.026304213 1.3721702
0.07396058 0.064345278 0.44590938
-0.069144227 0.018286278 0.50170207
-0.93251425 0.0097013861 1.4092617
-0.06196814 0.060248256 0.35725498
-0.13462868 0.059833139 0.53195107
0.3710458 0.044199176 0.50022984
-0.56901872 0.19135624 1.7813156
0.62902761 -0.064166665 1.1392894
0.0063920841 0.056201153 0.53198707
-0.44504252 -0.2182927 1.1292939
0.54176867 0.034692902 0.66167736
0.3487044 -0.16244669 1.5980163
0.43101871 0.0044964161 1.539676
0.26648855 -0.17416015 1.0951242
0.20280886 0.031568896 0.45014822
0.43137971 -0.17379448 1.6649849
-0.44248343 0.0093777888 1.8620434
0.13138294 0.061467551 0.29553807
-0.41842136 0.063712463 0.60331845
-0.084549509 -0.11691747 1.589483
0.071319051 0.056780711 0.4956007
0.17961574 0.059594952 0.33235919
-0.51791716 -0.25764269 1.1450632
-0.27679762 -0.41356659 2.0130773
0.31742752 -0.075906113 0.49560881
-0.41970474 -0.19507419 1.6286397
0.36529237 -0.051915891 4.028348
1.0818418 -0.08441972 2.0053182
0.46836376 -0.35301486 4.9095469
-0.18467617 -0.1689714 2.4848015
0.20283797 -0.10526343 0.57776284
0.46531689 0.034623314 0.66313982
-0.055313833 0.054832302 0.72959208
0.14188939 0.052074432 0.42072535
0.28208777 0.041641571 0.64473009
1.5409355 -0.14928655 2.1841891
