# .PCD v0.7 - Point Cloud Data file format
VERSION 0.7
FIELDS x y z
SIZE 4 4 4
TYPE F F F
COUNT 1 1 1
WIDTH 562
HEIGHT 1
VIEWPOINT 0 0 0 1 0 0 0
POINTS 562
DATA ascii
0.59657341 -0.11062443 0.86147678
0.61286134 -0.13481468 0.86753976
-0.98019761 -0.012490089 1.3617485
0.70135087 -0.16924791 0.85708475
0.32239449 0.026669882 0.93423569
-0.86387587 -0.033272527 1.4602661
0.3290776 0.025535131 0.94740355
0.49777913 -0.17651045 1.0565073
-1.010798 -0.12466538 1.502893
0.2182301 0.052619647 0.6893034
0.49951833 -0.0011001369 2.1727674
-0.80506998 -0.026172489 1.414048
0.33608091 -0.15242346 1.043951
-0.94551712 -0.016633857 1.5049756
-1.2526007 -0.25375685 1.7907217
0.66973847 -0.14026009 1.541383
0.23440024 0.039007656 1.0411015
-0.98133439 -0.093070857 1.5019231
0.36692595 0.046475258 0.51831293
-0.92694622 -0.014061089 1.4653788
-0.96775311 -0.10633639 1.4768987
-0.21929219 0.038288679 0.47119951
-0.92753726 -0.10448479 1.7818649
-0.94388348 -0.087704808 1.4813952
-0.92887819 -0.10615705 1.7820711
-0.92060405 -0.17347355 1.767359
-1.1943753 -0.16430184 1.6872592
-0.87604284 0.0070812427 1.8139131
-0.84660786 -0.030356701 1.4168916
0.73586452 -0.058847155 1.6623135
0.38897657 0.040348988 0.47624397
0.13377026 0.057207055 0.44571245
0.40434402 -0.079806976 2.2100554
-0.9627493 -0.11564143 1.8383942
0.2852425 -0.14589116 1.1832967
0.5556941 -0.19580923 1.160598
0.79604405 -0.18105026 0.93454802
0.31205028 -0.17365354 1.2488534
-1.4541389 -0.19847305 2.1060324
0.22026449 -0.18957065 1.3593338
0.60880947 -0.21811852 1.3427505
-0.96845639 0.041290522 1.6843109
-0.94219971 -0.026383642 1.818368
-0.27922961 0.0042382637 0.66593051
-0.89867491 -0.081377618 1.4190776
-0.93640828 0.04239976 1.874212
0.23998688 0.039458849 1.0770686
0.19531341 0.042463139 1.4614048
-0.2105158 -0.048466962 0.47357404
0.51045054 -0.15770622 1.0477738
0.3021794 -0.08637242 0.50385153
0.32677951 0.045758348 0.47457576
0.24356535 -0.18404508 1.4622924
0.77500588 -0.05060811 1.565712
0.75328249 -0.061529096 1.6801851
-0.84614855 -0.031809643 1.4854674
0.65140522 -0.10579354 1.1165557
-1.0353338 -0.14191538 1.4368176
-0.9166913 0.019581307 1.4780719
-1.004482 0.079259239 2.0016589
-0.068508893 -0.41984969 2.3539591
-0.96742857 -0.031947874 1.3710172
-0.2189796 -0.061187711 0.46579373
-0.98023063 -0.011672872 1.3610327
0.21146715 0.048988979 0.75720644
-1.2798185 -0.26390451 1.833874
-1.0335469 -0.14018069 1.4369512
-0.96058786 -0.10396952 1.4724326
-1.021688 -0.13932873 1.4133062
0.36263075 -0.13870133 1.3396761
0.22742283 -0.25764105 1.5586045
-0.5082857 0.039747693 1.3662798
-0.70947903 -0.18154238 1.7218215
-0.21966839 0.0033628708 0.46864927
0.77089906 -0.059367549 1.7399056
-0.068423882 -0.41244152 2.3317435
0.23581524 -0.19935703 1.4694066
-0.96168405 -0.05590361 1.3828011
-0.96458727 -0.089344792 1.4650469
-0.065495104 -0.39964759 2.2566166
0.81979507 -0.064539135 1.7468727
-0.92320043 0.017987695 1.4890065
-0.063336253 -0.39607698 2.2223103
-0.93182677 -0.087883599 1.4559295
0.33907759 0.043086883 0.71585822
0.59050041 -0.1391931 0.87666404
0.25426424 -0.18667991 1.4209425
-1.0532 -0.10593659 1.4106967
-2.9781337 1.0999051 6.3733768
-0.51271194 0.037358485 1.3758528
-0.2201194 0.040446896 0.47409439
-0.9999997 -0.054000665 1.3477564
1.0002273 -0.063248225 3.1916556
0.36574391 -0.13369036 1.3505607
-0.13091086 0.056870054 0.33028913
0.66424537 -0.1722208 0.86614084
0.18484977 -0.25822341 1.3314395
0.25998306 -0.17730284 0.82766283
-0.51732665 -0.04453136 1.2853482
-0.43135145 0.058325075 0.78992605
-0.61492509 -0.19300498 1.5756886
0.30020744 0.031706359 0.51819861
-0.12352826 0.059550174 0.33011556
0.74288982 -0.020587165 1.106281
-0.12796929 0.061318722 0.35692811
-0.51576149 0.038001221 1.3836107
-0.24495003 0.053949524 0.41429603
0.61797512 -0.13748462 0.87964129
0.28821674 -0.16655797 1.0205083
-0.9963277 -0.052617226 1.3410888
-0.94202054 -0.02890224 1.8243737
0.21152042 -0.24280128 1.4970174
0.55273169 -0.15665428 0.90276253
-0.8992182 -0.2282148 1.742605
2.5619738 -0.1474635 4.3527713
2.1707885 -0.11136505 3.785285
0.36615109 -0.24408749 2.4034638
0.80818754 -0.04225722 1.18606
-0.24151427 -0.32785729 2.2807705
-0.27799726 -0.21886432 2.2092888
0.87336743 -0.067128003 1.383553
-0.17748229 -0.33098122 2.5514648
0.66584951 -0.1069576 0.82620597
0.14836153 0.050776578 0.77933073
-1.2917966 -0.26413044 1.7834351
0.33993691 0.01687704 1.220331
-1.2979085 -0.26395944 1.7894192
-0.63723344 -0.23652881 1.5587053
0.67222083 -0.11698321 0.84220946
0.60070997 -0.16849902 1.0956466
-0.29957956 -0.2425195 1.9203844
0.24210848 -0.053614859 1.3973866
-0.84995872 0.0078814011 1.7191103
0.71954626 -0.025446523 1.0706553
-0.2444967 -0.28437153 2.2753997
0.66788501 -0.11656186 0.83635426
0.13699211 0.05844767 0.45888078
0.30950338 -0.18980046 0.9004941
-0.14988844 0.053327423 0.51580513
-0.86265814 0.034701589 1.6906128
-0.2226212 0.054355502 0.42965925
-0.9372977 -0.025004972 1.78403
-0.22814453 -0.058611397 0.48809326
0.067716777 0.052464779 0.6741333
0.43749779 0.040956911 0.61480665
-0.17397185 0.046299439 0.43869185
-0.28938314 -0.21755022 2.2397516
0.65785897 -0.17020695 0.85590065
0.2132028 0.050489999 0.77000928
-0.90507591 -0.28325996 1.7423739
-0.96297646 -0.27611411 1.8342786
-0.90810692 -0.2829082 1.7525208
0.10414556 -0.0045578713 2.4043238
-0.42835176 -0.019379251 2.4932444
0.76410401 -0.1227008 0.89799011
-0.22434303 -0.044772353 0.47519684
-0.2484898 0.051617071 0.3584969
0.23383348 0.04513526 0.6384083
0.43184015 -0.21112986 2.7416058
-0.076506853 0.059294067 0.3739512
0.24733604 0.053770415 0.33740282
0.37332785 0.047130968 0.4998666
0.31732321 -0.1698119 1.2383268
-0.059393629 0.052377608 0.63892722
0.54893118 0.03506412 0.7597934
0.31047493 -0.19097805 0.9051348
0.25806424 -0.22020316 1.367415
-0.9604612 -0.07907252 1.4519999
0.61244696 -0.0092307916 0.94570398
-0.18013817 0.050666809 0.46659124
0.58701664 -0.13911599 0.87224185
-0.22268501 0.042561822 0.85692239
-0.98009652 -0.27248442 1.8879213
0.67403251 -0.11627951 0.84453416
-0.24349621 0.052818209 0.4113605
-0.95681196 -0.27964988 1.823246
-0.9748134 -0.090129837 1.5530879
-0.1739451 0.054584607 0.3338306
2.0252583 -0.13660422 4.302742
-0.13980892 -0.084119931 1.3604372
0.49651366 -0.1150188 2.3937767
-0.72569853 0.019422671 1.4284759
0.45411831 0.041900154 0.51777816
0.54634517 -0.098853305 0.85864866
0.59189337 -0.13937077 0.87873411
0.73056328 -0.18117267 0.87778354
0.15682453 0.054420628 0.57801378
-0.93700516 -0.018435702 1.4850087
0.63276488 -0.10298558 1.0753422
0.36252648 0.044761583 0.47456872
-0.26784647 -0.38482323 2.2545335
0.25710356 0.051579598 0.3370477
-0.97757 -0.085571013 1.4842334
-0.11751153 0.053479355 0.91388857
0.18081209 -0.26333943 1.3762147
0.18390279 -0.31982648 1.4159067
-0.2219255 0.04104127 0.8511461
0.59010839 -0.11151794 0.85922897
0.48989558 0.039778952 0.60319674
-0.19207799 0.054559961 0.37706423
0.20672077 0.056049217 0.26530743
-0.21691903 0.038869545 0.46557832
-0.18584512 0.051459599 0.46387553
0.59581536 -0.10732134 0.85633373
-0.12508291 0.060463447 0.33627689
-0.13030343 0.054817274 0.32181346
-0.26180196 0.055341143 0.40128398
0.7740742 -0.13743256 0.88541937
0.36526483 0.045498922 0.51580036
-0.70130378 0.043277409 1.1766915
0.63010991 -0.1595705 0.83734035
0.35414368 0.03684254 1.0858207
0.13223684 0.056964111 0.43664205
-0.14885707 0.054520782 0.30101573
-1.3094203 -0.26846752 1.8111038
-0.15462489 0.050713226 0.58484292
0.234671 0.045875423 0.6438725
0.59849948 -0.11017299 0.86286271
-0.96665055 -0.10393509 1.485512
0.22398357 0.049417511 0.80124843
-0.20864621 -0.049499322 0.47185838
-0.78299552 -0.020004101 1.5865047
0.18509817 -0.17266797 0.91303265
-0.047487065 0.057502676 0.37584138
-1.1788441 -0.26535216 1.7348785
0.22225291 0.052899461 0.70293224
-1.002483 -0.072869055 1.3741062
-0.9761011 -0.008992116 1.3500986
0.25463697 -0.16263311 1.1177034
0.20741077 -0.17108896 1.0533872
0.80265313 -0.2115355 0.91663933
0.21857007 -0.25855234 1.3756578
-0.10686654 0.053060673 0.92767417
-0.02684371 0.051601991 0.497082
-1.008943 0.018701706 1.6358192
-0.063165553 0.053579267 0.65798998
-0.2063266 0.050909325 0.4664191
-0.13762358 0.046904411 0.85745299
0.19018148 -0.25044909 1.4396622
0.4542416 -0.17931481 2.0632536
-0.93774456 0.016987238 1.5120168
0.007625429 0.057299174 0.36994982
-0.1631436 0.052162297 0.90898752
0.32823741 -0.1496674 1.7268641
0.15913823 0.045672618 1.0974157
-0.36739564 -0.17344837 2.1374652
-0.26860517 -0.38480052 2.2472396
0.68208307 -0.020817816 1.5635369
-0.058218673 0.050283633 0.83507991
-0.23179442 -0.23364946 2.2091577
-0.26785284 -0.28753671 1.9487059
-0.14641227 -0.33719295 2.7741399
-0.23127767 -0.26787975 2.146333
-0.16665399 -0.34314424 2.7810285
0.59571922 -0.11202858 0.86457753
-0.15295139 -0.32974026 2.6627417
0.44859192 -0.19192292 3.934453
-0.27074909 0.055053942 0.3962791
-0.19727203 -0.072274506 0.47965789
-0.18703371 0.04405662 0.47473526
0.64985174 -0.12795445 0.82785809
0.15405552 0.058784612 0.38014102
-0.3380965 -0.28683066 1.5897007
0.22408305 0.048532341 0.79909372
-0.27422237 0.056161273 0.40229321
-0.15763888 0.055854429 0.24944532
0.7269035 -0.1232398 0.91458917
0.3598893 -0.18684837 1.9905531
-0.22134265 0.049456872 0.4694618
0.21934116 0.049240664 0.68804586
-0.21829173 0.048953827 0.45989704
-0.21851183 0.05342453 0.4208194
-0.16204672 0.056405723 0.24340463
-0.23564613 0.032843243 0.50206149
-0.067697249 0.058042694 0.42690015
-0.26430508 -0.39368016 1.8431087
-1.3076828 -0.26959956 1.8134403
0.75415498 -0.068283789 1.1862741
-0.19372359 0.049482424 0.58679199
-0.14259019 0.051337563 0.47554636
-0.91270053 -0.26358855 1.7383511
-0.84478313 -0.034165561 1.4802077
-0.17623229 0.046074945 1.0908182
0.25879645 0.051132578 0.47002912
-0.21979818 0.041223381 0.47262764
-1.0276121 -0.3024233 1.9714723
0.11950146 0.041956235 0.62543631
-0.96116161 -0.081045382 1.4536495
-0.42311513 0.057928272 0.7740016
0.21506253 -0.18105365 1.0729468
0.31009007 0.0098939706 1.0708392
-0.8741706 -0.029989716 1.4995182
-1.0195696 0.02050144 1.3560812
-1.073004 -0.0058812508 1.3412459
-0.13951249 0.054859903 0.42195296
0.6138041 -0.12173882 0.8483727
-0.58552593 0.059876349 0.91966009
0.35868421 -0.18059678 1.0569081
0.589728 -0.037509177 0.83412898
0.74642825 -0.039933093 1.1730177
0.2939207 -0.18061569 2.0435977
0.34678602 -0.042755164 3.1495829
-0.90409523 0.0079813749 1.8836174
0.012142776 0.048197567 0.902794
0.82666671 -0.039036039 1.1921508
0.32880798 -0.2027128 0.92044675
-0.50478506 -0.0056819273 1.7297299
0.2325823 0.04549465 1.094914
-1.0623295 -0.015834346 1.3372862
-0.21378109 -0.39460266 2.4251871
-2.7838624 -0.38531995 3.7533851
-1.0454605 -0.013729862 1.3571134
0.7962718 -0.05818196 1.1607993
0.35598606 0.046945747 0.481094
-0.95282185 0.055081632 1.3632555
0.66825718 -0.11726728 0.83611202
-0.026043726 0.060325503 0.33272326
-0.90882993 -0.028802518 1.8852847
0.27396801 0.05156764 0.36825418
0.56464404 0.026457814 1.3331747
-0.21943519 -0.047926813 0.47594428
-0.17168076 0.054410156 0.33430612
-0.19484884 0.027689217 0.47243142
0.19226578 -0.29403314 1.4044023
0.69765621 -0.020231139 1.6017315
-0.28849587 -0.40653217 2.092917
0.13183405 0.057545017 0.43581355
-0.17859513 0.045634184 0.87957537
-0.91381854 0.012285605 1.8453884
-0.88202471 -0.020890068 1.4816422
-0.15023413 0.034356743 0.65933561
0.16150171 0.058761973 0.37327063
-0.18946204 0.040445849 0.26368868
-0.076568425 0.059948493 0.4489249
-0.22308996 -0.061097439 0.48403609
-0.13466395 0.053490557 0.46176505
-0.9249745 -0.10806534 1.7672162
0.31160253 0.005561796 0.51181996
-0.97350973 -0.035190046 1.4134734
-0.18218571 0.056006208 0.23524415
-0.14603189 0.055881575 0.32614255
0.069469452 0.053841583 0.69594002
0.33776045 0.042796206 0.51512229
-0.30921566 -0.38823038 2.3833854
-0.22697738 -0.38618284 2.4848046
-0.33674103 -0.28751579 1.5940671
-0.15171862 0.056202989 0.60745668
-0.1980761 -0.027556673 0.46305716
-0.237665 -0.20577236 2.1099794
-0.22106761 0.046070207 0.29650295
-0.6560477 0.059891492 0.95358503
-1.0282356 0.047818214 1.3906167
-0.54080462 -0.01067797 1.8691103
-0.23070154 -0.092016064 0.48671806
0.30413374 -0.0078760749 0.50802433
-0.1427307 0.053429563 0.36952055
-0.28588903 0.057926696 0.39725852
0.36776838 0.043157011 0.58390903
0.15517983 0.057266764 0.25565696
-0.97425443 0.051578056 1.3720489
0.33152953 0.048126381 0.46531796
-1.0954241 -0.048253145 1.3599803
-0.019161498 0.063153893 0.26955986
0.43884075 -0.1858997 2.3090935
-0.064306587 0.054251544 0.38889384
-0.25753489 -0.38239148 1.7879767
0.30733585 0.0031567924 0.5084542
-0.98623079 0.050948307 1.3885481
-0.35829267 -0.23524429 1.9136689
-0.2141524 -0.23729199 2.4807029
0.56967223 0.055680417 1.3829234
-0.13271649 0.05769109 0.33124483
-0.16744462 0.055805922 0.33942592
0.17844893 -0.18336613 0.87974143
0.26876256 0.052098431 0.33817101
-0.20605469 -0.032315664 0.83706081
-0.13866572 0.057224028 0.3890152
0.3045463 0.022639887 0.4984628
0.39900923 0.041632187 0.5079385
0.23447928 0.053375699 0.36017609
0.20784397 0.055207215 0.27499723
0.14076036 0.048351631 0.74773431
-0.30729675 -0.34947395 1.6879992
0.17697749 0.05920811 0.37314224
-0.24235249 -0.40856698 2.2813787
-0.28076863 -0.39873651 2.342787
0.77003586 -0.058608908 1.0394471
-0.20691368 0.051958486 0.46934509
0.23574352 -0.21009822 1.2943356
0.44995552 0.035559114 0.9594959
-0.22019115 -0.045214776 0.48873329
-0.94819444 -0.0013113404 1.4464803
-0.17670864 0.055803511 0.32216632
-0.20368439 0.042913314 0.47999024
-0.12177196 0.053622335 0.63385308
-0.30228895 -0.27633858 1.6124849
-0.15429848 0.055853393 0.58774281
0.01377218 0.059437767 0.39154458
-0.94129747 -0.2397539 1.8283091
-0.29821706 -0.274248 1.5852621
-0.22830126 0.033313204 0.48390281
0.16938516 -0.15734468 0.83353996
0.24459794 0.053220816 0.33274913
-0.23092869 0.023650602 0.91253996
0.64477062 -0.12458266 0.89572597
-0.17396414 -0.097053856 0.47462976
-0.40467131 -0.13609518 0.72823119
-0.5030933 -0.00056269299 1.6537414
0.29166609 -0.041532014 0.47976124
0.60499889 -0.09581726 0.93688619
-0.52403826 0.018851502 1.7810075
0.35829243 0.044777885 0.49971378
0.24755293 0.053609386 0.33815968
0.46528518 -0.15148485 1.197171
0.61682224 -0.15670197 0.81821311
-0.22257394 0.017399618 0.54725599
-0.2076017 0.017757425 0.50642812
-1.0512009 -0.10019022 1.4795232
-0.94134426 -0.030211173 1.8283761
0.32386944 -0.17491746 1.0476985
-0.28922516 -0.27093455 1.9977331
-1.342003 -0.17804132 1.8504193
0.23033616 0.050916553 0.4421587
0.18693852 0.056934528 0.35133135
1.0958942 -0.04511179 1.3462815
-0.12764564 0.041945331 0.71345568
-0.81061894 -0.25493518 1.5735466
0.32395336 -0.048140578 0.54394329
-1.0219479 0.063272849 1.5144253
0.31540465 -0.12058714 0.9075346
-0.21453962 0.026349565 0.45617783
-0.22588766 0.033801053 0.47477925
-0.57513231 0.036106687 0.98638356
0.25827152 -0.17483982 0.82734478
-1.0399263 0.067208394 1.349395
0.16008145 0.057040609 0.61070311
-0.40456906 0.05329534 1.3240011
-0.18527859 0.049948581 0.59328163
-0.077728108 0.059834674 0.37068152
-1.2816951 -0.26689199 1.7805297
-0.1628352 0.052227873 0.89972949
-0.067232057 0.058110218 0.37229228
0.20444182 0.060622934 0.30476356
0.03022269 0.058016609 0.31639183
0.19286725 0.058513317 0.36532116
-0.68538707 0.051983241 1.285763
0.33079273 0.04780158 0.46401525
0.12613007 0.058765244 0.45205009
0.62892556 -0.15475917 0.85947573
0.2083641 0.055209327 0.27585924
0.41549835 0.036430251 0.78905153
0.34466046 0.042985164 0.52318692
0.62053245 -0.16264127 0.85495794
-0.098413005 0.05999542 0.2932204
-0.10973847 0.057872362 0.47087967
-0.076970488 0.06012674 0.4497596
-1.030699 -0.070419773 1.4361918
0.48267213 0.038956281 1.0595481
1.188659 -0.043759957 1.3993158
-0.22680616 -0.090574577 0.47678399
-0.13443424 0.060889293 0.71650064
0.36833388 0.033638302 0.68981206
0.43277508 0.035700649 0.93414927
0.36236992 0.045648608 0.55200112
-0.51653892 0.053851463 0.89722097
0.60170287 -0.095307685 0.93083858
-0.18013851 0.055049568 0.31187677
0.24026087 0.054127865 0.37003946
-0.21598691 -0.052991334 0.49358976
-0.068546131 0.057791337 0.45125115
-0.97733301 -0.032002605 1.3940868
-0.076473892 0.059276991 0.36204684
-0.21851537 0.021663198 0.85570478
0.67990518 -0.020664152 1.5587561
0.45026842 0.036055729 0.95765126
0.17492417 0.058828976 0.36748099
0.29115334 0.02879536 0.42808867
-0.15004241 0.057838533 0.34991455
0.29964283 0.029849216 0.44336462
-0.16531961 0.054963678 0.33346927
-0.42666242 -0.11662109 0.53720605
0.26866058 0.051577289 0.33817625
-0.22457942 0.055182301 0.43583667
-1.0008607 0.045803208 1.8057849
-0.25513312 -0.081791312 0.53221834
-0.27612025 0.056393012 0.36411619
-0.87352639 -0.079605289 1.3770583
0.57570463 0.057152797 1.3844807
-0.13309135 0.04978 0.31733513
-0.17852986 0.054697253 0.30839789
0.57788271 -0.1355724 0.88987112
-0.20122972 -0.074143998 0.48971856
-0.12277803 0.048187606 0.27163219
1.1299808 -0.03504191 1.4036334
-0.81213731 0.065116189 1.552037
-0.13246731 0.059503797 0.42259538
-1.0962942 -0.14607693 1.5105472
-0.94899839 0.072114177 1.2782137
-0.20561001 0.042971514 0.48359239
-0.10735066 0.058322288 0.41025019
-1.0564907 0.068822376 1.3698723
0.45229754 0.036460694 0.96509111
-0.16989627 0.057604216 0.35654283
0.76822239 -0.091230519 0.94215119
-1.0287867 -0.07024923 1.4330285
-0.27603507 0.055723175 0.38067365
0.17526881 -0.18230976 0.87809932
-0.23088366 0.043860327 0.7147733
-0.26342195 0.054176882 0.33784842
-0.068557695 0.054328308 0.57645917
-0.7540251 -0.22565831 1.4436619
-1.3315277 -0.28066921 1.8585978
-0.14950326 0.053122051 0.51926184
0.7616474 0.00023529027 1.98245
0.19039468 -0.26307663 1.3659971
-0.066936046 0.058176704 0.74411786
0.30251497 -0.0090360986 0.50489473
0.36708999 -0.14556761 1.2675939
-0.33626541 -0.28756124 1.6290407
-0.1520988 0.048040107 0.26947141
-1.6384218 -0.054543432 2.8902335
0.30858314 -0.14080516 1.0538986
-0.21997887 0.053807475 0.42144978
-0.068092987 0.056183439 0.59952962
-0.93111843 -0.0071355039 1.4576557
0.35046858 -0.18927731 1.1905851
-0.046657577 0.040970366 0.63789272
-0.9591797 0.015924687 1.8851352
-0.20522812 -0.22487386 1.3726158
-1.0298958 -0.013748734 1.3315008
-0.2267355 -0.056284506 0.47208607
-1.0458736 -0.13710597 1.358218
-0.2177832 0.039756633 0.46896935
-1.0201149 0.0251731 1.3694577
-0.29124072 -0.42612523 2.0784543
-1.0068927 -0.13371159 1.3455319
0.23957378 0.046840493 1.14167
0.3665849 -0.19884212 1.2534459
0.30228198 -0.052071776 1.7978835
-0.096736431 0.049772359 0.77988541
0.44798332 -0.15246654 2.2414451
0.0066785794 0.049985681 0.82371342
0.0070508253 0.04866004 0.79324901
-0.078450233 -0.40471584 2.281008
0.72177458 -0.031907272 0.87624311
-0.26546538 -0.42028561 2.3338885
-0.97105908 -0.11780515 1.4621661
-0.22526896 0.020002641 0.47861421
-0.23792517 -0.27510211 2.2159169
-0.28054431 -0.27653968 1.6522388
-0.41630638 -0.20171739 2.4488027
-0.93553233 -0.0071162945 1.4671762
-0.27029556 -0.22224323 1.8426762
-0.42540336 -0.20464942 2.5040455
-0.039169222 0.041486952 0.78763783
-0.50958067 -0.048342656 1.7813838
0.5650844 -0.25432444 5.2003021
0.58282524 -0.25299707 5.3565049
-0.17694232 -0.2919344 2.8627388
0.63608646 -0.16037843 0.84515107
0.58348691 -0.45050216 5.7372255
-0.17282183 -0.32935849 2.4535973
