# .PCD v0.7 - Point Cloud Data file format
VERSION 0.7
FIELDS x y z
SIZE 4 4 4
TYPE F F F
COUNT 1 1 1
WIDTH 505
HEIGHT 1
VIEWPOINT 0 0 0 1 0 0 0
POINTS 505
DATA ascii
2.1388383 -0.085188419 3.2526896
2.1613269 -0.087969609 2.9972312
2.2443142 0.39767089 3.4058535
0.30725077 -0.08448457 2.9935863
0.047812909 -0.20135666 3.5611656
0.0044458807 -0.38083538 3.7641628
0.013584703 -0.0082959719 2.0417788
0.049558192 -0.20193662 3.6069362
0.048178941 -0.18546766 3.6060154
0.039770931 -0.36430755 3.5784185
-0.53654718 -0.16310044 1.085685
-0.56638134 -0.13905263 1.2839773
-0.0086863935 -0.33292428 3.9887764
1.1612912 -0.27239802 3.4921582
-0.024657339 -0.0052249171 1.9445617
-0.41724321 -0.22591355 1.5972183
1.1719587 -0.24911386 3.3618848
0.37921533 -0.17483599 1.4955699
0.73693299 -0.052046292 2.205888
-0.49891123 0.047121026 0.81804585
1.2606047 -0.35738149 3.5762517
0.74005866 -0.050541446 2.2261589
1.0698034 -0.36988574 2.9983246
0.9162271 -0.0217297 2.4218581
0.19795087 0.043172002 1.1991236
0.22713855 -0.16740683 4.9797144
-0.03981784 -0.41569701 3.7203252
-0.046746105 -0.43869677 3.9488828
0.94295216 -0.24940544 1.3471968
0.25338933 0.030741652 1.4234664
0.88212335 -0.06447877 3.5740955
-0.41778019 -0.32524243 3.8332069
-0.59524882 -0.47851399 3.4823372
0.92781591 -0.25823021 1.3593271
-0.014998764 -0.375788 3.5847552
-0.92107141 -0.068228588 1.9508288
-0.56605911 -0.43635347 3.7832782
-0.72186756 -0.43708172 3.5390379
1.2470797 -0.22740206 2.3497713
1.2796128 -0.35491475 2.8469536
1.0437883 -0.017900102 2.571759
1.3208778 -0.24612823 2.8108714
1.1410362 -0.077027723 2.0830548
-0.55058455 -0.45092195 3.537986
1.0258439 -0.26353872 1.3461215
1.0353837 -0.28620443 1.4423697
0.18943456 -0.24002606 1.2326028
1.1905588 -0.17344709 3.2843168
-0.52033913 0.046718128 0.77939916
-0.97126234 -0.15898317 1.7141879
-0.86714995 -0.081159964 1.3593228
0.40654019 -0.12176615 1.4606578
-0.81501389 -0.016458482 1.5742433
0.076901495 0.059210628 0.3186748
-0.94294524 -0.069545358 2.0233424
0.23553047 0.056913756 0.38786888
0.96220481 -0.19283776 1.3798964
1.7451037 -0.25125089 2.4294155
-0.8273102 -0.089670047 1.3303864
0.96083128 -0.17392166 1.2152579
-0.69365323 -0.14399248 1.3438513
0.22937945 -0.20735826 1.1772718
0.18903932 -0.21073392 1.0872259
-0.58029664 -0.43365884 3.8322246
0.23291859 0.011854947 1.4544094
0.47359487 -0.133448 0.80552077
0.34576234 0.02422981 0.82385612
0.46963778 -0.12839967 0.81408429
0.19828567 -0.0043736957 1.5028288
0.42458698 -0.22475088 1.7588813
-0.86684382 -0.079247087 1.3612802
0.167559 -0.23177186 1.247196
-0.4875361 -0.23796761 1.4268906
0.79096639 -0.030671906 1.1675477
1.0301093 -0.28174067 1.4272745
0.9758141 -0.26019222 1.3547099
0.22823432 -0.16700979 1.2906563
0.45126864 -0.14311291 1.0947628
-0.76040113 -0.073135749 1.2994654
0.25660571 -0.23433605 1.5010688
0.32514814 -0.24627164 2.8922598
-0.45309022 -0.16304934 0.89719081
-0.60422242 -0.30297896 2.519007
0.44338867 -0.16523577 1.0701158
0.21855536 -0.18005279 1.2720728
0.23514685 -0.1498895 1.3032196
-0.68752372 -0.021886937 2.1138766
0.3125231 -0.022584636 1.6507065
0.76285696 -0.026784457 1.1974013
0.24692044 -0.26131761 1.2510247
0.3999584 -0.13759525 1.6910632
-0.42080936 -0.20818745 0.99903393
1.821322 -0.34020042 3.6110914
0.2287527 -0.15690438 1.2706814
-0.20895773 0.04672917 0.50660229
0.33583364 0.045640018 0.6060493
1.2013799 -0.24570575 1.517823
-0.7929728 -0.11584406 1.3611696
0.78640819 -0.03051294 1.1520615
1.3939424 -0.27018192 2.5384719
0.22617099 -0.13433053 1.6270158
0.32592848 0.042879477 0.38567185
1.1461658 -0.23056972 1.4450099
-0.41709915 -0.18531542 1.1814132
1.0355065 -0.28093472 1.4313281
0.45452419 -0.14550628 1.0921562
0.13978341 -0.25442553 2.1867664
0.53756964 -0.17064431 1.1723599
-0.70814347 -0.17808954 1.2062445
0.19274619 -0.22468662 1.2954276
1.3175017 -0.094776228 3.4088233
0.21786526 0.055387735 0.42521167
0.18029335 -0.20939657 1.2351341
0.9697392 -0.22228786 1.3359215
1.0050099 -0.2282947 1.4012339
0.9613924 -0.15814227 1.2096374
1.55387 -0.38255361 2.8626783
-0.5482502 0.030882789 0.93103933
0.46748969 0.0058597811 1.6787612
1.0791965 -0.21806622 1.3351419
0.91643095 -0.16013992 1.1403043
-0.79023731 -0.065778293 1.2815654
0.38524434 -0.1135865 1.7557552
0.21292964 -0.22972745 1.2630126
0.18541297 -0.20786849 1.2492263
0.091400117 0.061796993 0.57019711
1.7997786 -0.066512525 2.6652119
-0.5707376 0.014770199 1.0876939
0.18172327 -0.19617766 1.9333289
0.93700051 -0.26462209 1.3761413
0.22899672 0.012728773 1.4510839
0.27019569 0.039934132 1.0744853
0.40079626 -0.11074042 1.8252718
0.17051771 -0.1964002 2.0357282
-0.37224713 0.056349181 0.58954597
0.21114656 -0.24463025 1.2510352
-0.5262599 -0.0066286102 0.99413037
0.32543585 0.041974824 0.38550067
0.07594654 0.058713913 0.31712103
0.76330841 -0.065748923 1.1889944
1.0126547 -0.27049336 1.4474103
-0.17764387 0.055296294 0.58744454
0.09585768 0.052187636 0.6961267
0.25614002 -0.18272382 1.3311336
-0.27958164 -0.14513832 1.0259004
0.61908579 0.039286621 0.86517715
0.32791188 0.043787472 0.37646747
0.21665207 0.057226956 0.31011939
0.21792218 0.057481941 0.31179571
-0.55595231 0.02768572 0.73296332
0.67070866 0.036467306 0.99234152
1.0775845 -0.13874881 1.4338334
1.200279 -0.053781942 1.528538
1.026597 -0.27276954 1.4461038
0.14929932 0.05750411 0.38908482
-0.80312049 -0.063526496 1.3166325
0.42484173 -0.081657715 1.5527003
0.27188233 -0.057293393 0.5631907
0.11530587 0.047414124 0.95044255
0.38428667 -0.042133793 1.2885177
0.41401264 -0.067305453 1.5750611
2.0303214 -0.13439304 2.8690798
-0.37489411 0.056698639 0.58244538
0.22585228 0.05595259 0.56375766
0.38202205 -0.029481899 0.89331532
-0.64263415 -0.18426216 1.5980246
-0.20716059 0.053704534 0.26726699
0.21168944 -0.26440766 1.2197971
-0.42073855 -0.30332634 1.4616635
0.23423633 -0.1473489 1.2934263
-0.045072496 0.056098312 0.55451632
-0.18744862 0.055963375 0.61620235
0.74542749 -0.027163606 1.0694926
-0.053358138 0.0593118 0.32005191
1.0019385 -0.15937464 1.3541486
0.42487833 0.02285243 1.474828
0.77784562 -0.02702824 1.1293869
0.22185907 0.040997669 1.367059
-0.051621258 0.056565687 0.48580146
1.0349449 -0.13682443 1.3409865
-0.18424973 -0.29690671 3.3498938
0.4489046 -0.07494083 1.749809
-0.20976955 0.046664007 0.50628471
0.34212276 -0.044043891 0.80019116
0.1870012 -0.24341336 1.2425563
-0.72995031 -0.22807851 2.9982336
-0.77237165 -0.19346634 1.3336837
0.33192304 0.02923893 0.38033915
0.33428493 -0.052375622 1.2772729
-0.54890049 0.027160866 0.84205031
0.44062123 -0.080012545 1.7056592
-0.090860724 0.054300662 0.51301694
-0.88402307 -0.080700651 1.1004057
0.82996607 0.03112689 1.5424473
-0.87059963 -0.07969442 1.3142874
-0.50976026 -0.0090898573 0.99721122
0.8253181 0.030648984 1.5289452
0.27028969 -0.22073936 1.154233
0.40717247 -0.13678946 1.7055652
0.14015672 0.044500265 1.2146728
0.34560892 0.024190918 0.82360697
0.34486529 -0.12802953 0.80967379
0.076953351 0.059409276 0.31702209
0.27655783 0.044542469 0.64191914
0.23162106 0.055803876 0.30455136
-0.71865153 -0.10556194 1.4103234
-0.21024913 0.054944057 0.2768755
-0.72356439 -0.14924745 1.2932446
0.25750747 -0.21016207 1.0925417
0.39637372 0.031835891 0.89486408
0.40169808 -0.018179633 1.4184201
-0.64675343 -0.15357451 1.173219
0.33898088 0.046010077 0.61745024
0.25226179 -0.16171947 1.4086545
-0.053043842 0.057237018 0.48842955
-0.8081882 -0.082231484 1.3192875
-0.51501024 0.01566725 0.98421454
-0.55795979 0.031367406 0.95107651
-0.73869216 -0.16975729 1.0842211
0.2108269 -0.19885607 1.2600222
0.42130789 -0.11829624 1.910146
0.25101975 -0.16415733 1.2868912
0.08607015 0.055714261 0.54014325
0.08796379 0.056841865 0.55943251
0.48766229 -0.13885555 0.85314584
0.47598585 -0.13559408 0.81511307
0.43742892 -0.12963641 1.5729001
0.27454343 0.0290774 1.4879315
0.39547864 -0.21999258 2.3708842
-0.19600227 0.0550269 0.30965233
-0.56993437 -0.16048168 0.86787677
0.43479493 -0.076842256 1.6852777
0.24099311 -0.25473905 1.2083807
-0.56888688 0.028034348 0.88795757
0.37800458 -0.057644688 1.5451443
0.022102326 0.038413499 1.3201506
1.2003376 -0.095431022 2.6675904
-0.44574484 -0.17813963 1.0418229
-0.51606202 -0.14134461 0.75841212
-0.3810387 0.057404481 0.60150695
-0.22565839 0.031907786 0.50579286
1.30753 -0.078767866 2.5415738
-0.56079721 0.0276966 0.87539244
0.24435887 0.03790677 0.46560812
-0.59515822 -0.17911433 2.409302
-0.57193792 -0.16814689 1.0440874
-0.73540115 -0.16477254 1.3217933
-0.053187519 0.059336752 0.26837015
0.30624947 -0.043970868 1.2040329
0.24179587 -0.21296422 1.2201033
1.0164382 -0.19251287 1.4215724
-0.052561224 0.058863506 0.3198216
-0.22620818 0.05056347 0.37423205
0.076759934 0.059378952 0.32544112
0.20663831 0.05448484 0.29128909
0.21946433 0.055003941 0.54621983
-0.77677095 -0.18251175 1.0633793
-0.053195268 0.059721634 0.33001471
0.25212499 -0.045947418 0.51985025
-0.57071662 0.023953035 0.74110317
-0.3692418 0.055801209 0.58528161
-0.17693973 0.054733362 0.58423853
0.15226135 0.058340322 0.31940627
-0.025022924 0.057015993 0.4292264
1.0178055 -0.11026792 1.2893455
0.64250362 0.028751679 1.200304
0.79373384 0.030391091 1.4486845
0.171846 -0.238666 1.2866404
0.80696893 0.022200147 1.7154877
-0.19603395 0.044611152 0.47722244
0.20323637 -0.24884972 1.1984935
-0.78217483 -0.13993993 1.3330863
0.24119601 -0.140973 0.79602003
-0.52392209 0.015097246 1.0019972
0.22925177 -0.16602984 1.2693133
0.087551832 0.056612525 0.55768871
1.0700004 0.078285873 2.6052544
-0.4170672 -0.29519677 1.4341419
-0.82656837 -0.074151792 1.2936218
1.1255972 -0.027555425 2.3944466
-0.74889505 -0.1551114 1.4022038
0.23195544 -0.16820255 1.2961123
-0.63316202 -0.19017693 2.5866992
0.37244633 -0.038083553 1.2430055
-0.69424033 -0.093791775 2.2319829
-0.15010655 0.043685533 0.96491957
0.39910725 0.02158691 1.3734763
0.07364741 0.060512934 0.25630355
-0.49733278 0.048794702 0.7759707
1.1460896 -0.037154831 2.5658658
0.32420835 0.029944226 0.3851881
-0.43361935 -0.33558089 1.4957173
0.15079138 0.064575806 0.30520916
-0.050201595 0.053810671 0.44106436
1.0668708 -0.30308667 1.4484851
0.37891206 0.034735125 1.0128756
-0.65608251 -0.49324235 3.6001265
-0.053576291 0.057827003 0.49024487
-0.020081937 0.05961366 0.34292626
0.38485584 0.023831813 1.2657783
-0.60590076 -0.3606154 2.9251082
0.32819644 0.043030322 0.38863778
-0.21661898 0.047715962 0.52075052
-0.5493933 0.034440368 0.67411566
-0.017476857 -0.025387652 0.89843345
0.36687842 -0.043103315 1.3964665
-0.69131887 -0.17634195 1.2695007
-0.51723421 -0.25016204 1.749624
0.25234982 -0.04613632 0.52324915
0.69545138 -0.29371807 5.1756401
0.78613639 -0.058283478 1.1811528
-0.61642265 -0.37230939 3.4320605
-0.56998599 -0.2527985 3.5583732
-0.68029773 -0.16629715 1.2345254
0.22505119 -0.1565517 0.80748796
1.0719162 -0.11845486 1.3681214
0.22827545 0.054214817 0.53632879
-0.71853805 -0.16204914 1.0976679
0.27363768 -0.16633832 0.74870896
0.77548671 -0.039535403 1.2127733
-0.36746988 0.055528644 0.58361197
-0.062823534 0.060798883 0.26761365
-0.003342092 0.056354728 0.39508581
-0.061593622 0.060415596 0.29479265
0.25182602 -0.21599692 1.1770132
-0.52424622 0.04634225 0.78563547
-0.17674384 0.049473189 0.63132501
-0.73855543 -0.073463544 1.1475499
0.404475 0.022121523 1.2515593
0.36754808 0.049058765 0.56642222
-0.79839396 -0.062654436 1.3118637
-1.121382 -0.1185202 4.9106312
-0.20759431 0.046270113 0.50613451
-0.52425969 -0.35304236 1.8439109
0.41057131 -0.10174957 1.8846376
1.0610052 -0.25617641 1.4038141
-0.75208628 -0.076737702 1.4278114
-0.046405405 0.055087134 0.53312111
-0.7020272 -0.42090833 3.3082449
-0.43709287 -0.28799832 1.4280212
-0.88503015 -0.086110227 1.2206757
0.30454537 -0.18070984 1.2328827
0.45108137 -0.14622346 0.77609277
-0.50245154 0.025242984 1.0806355
-0.041667312 0.053678066 0.53067017
0.28334954 -0.5381788 4.7482967
-1.0921215 -0.02894653 3.4029372
1.0083534 -0.036138311 1.4190733
0.26433036 -0.27858183 1.2506921
-0.54870188 -0.021642312 1.028188
-0.10804325 0.03293011 0.87429118
0.54978228 -0.16481389 0.92125559
0.084637791 0.058078699 0.46102834
0.20071962 -0.49649581 4.6111879
0.44199345 -0.13123953 1.5836632
0.24809846 0.045832437 0.77513647
-0.18883169 0.053527601 0.2990973
0.25189295 -0.1551244 1.2985423
0.14644235 0.058682829 0.46362376
-0.31421641 0.059083179 0.44501996
0.32664362 0.048640557 0.60553837
-0.020439029 0.060477406 0.39225221
0.223681 -0.1929632 1.1548793
-0.054310113 0.060660727 0.27836299
-0.063702434 0.061528631 0.27268553
-0.56099999 -0.31619093 1.7205627
-0.57367218 -0.044480257 1.0137341
-0.49588665 0.048123389 0.77301335
-0.72689211 -0.18322495 1.2986386
-0.50647151 0.051945828 0.7337873
0.66643488 0.037546985 0.98725486
0.21041968 -0.19873883 1.2600338
-0.7415427 -0.13673188 1.3655536
0.32322112 -0.027866319 0.37988758
0.25962391 0.029573414 1.3877327
0.43405774 -0.15140665 1.6685059
-0.49794754 -0.15061828 0.9507761
-0.39937052 -0.18820244 1.4660833
0.23734954 0.052298736 0.28386879
-0.083793908 0.055834331 0.4603951
0.3902941 0.041165896 0.69629836
0.26523587 -0.18958154 1.3660653
-0.63834321 -0.4756768 3.4867513
-0.21133015 0.029228553 0.50640893
1.764774 -0.064467996 2.5905974
-0.052303165 0.053543776 0.28108144
-0.70270848 -0.13392788 1.417979
-0.4215301 0.011370337 0.79137421
-0.49211058 -0.13919413 0.97795725
0.27139679 -0.51394749 4.4779825
0.26420221 0.040942013 0.54370952
1.1650579 -0.030414674 2.2863982
0.054638058 -0.00070568733 1.5684993
0.71786094 -0.30542424 5.3434258
0.41167465 -0.020890042 1.7696512
-0.91339052 -0.43119293 3.8950384
-0.65776384 -0.29378757 3.4113505
0.5900104 0.035122477 0.9499712
0.37378481 0.044004709 0.5930264
-0.86594152 -0.41552082 3.7057898
-0.64499068 -0.51916015 3.8011334
-0.50524724 -0.23962405 1.78566
0.36987397 0.04419601 0.58563638
0.069126546 0.051958799 0.24465275
0.35402873 0.026145348 0.84312201
-0.52014065 0.025191203 0.80245066
1.3816491 -0.030517459 2.5589063
0.14719877 0.056805503 0.38171124
-0.4985458 0.04457454 0.73013544
0.2795724 -0.53430641 4.7033958
0.67062438 0.033525169 1.0050919
-0.84936297 -0.16560136 1.0904253
0.076995403 0.059690818 0.32859206
0.36740586 0.03495184 0.9737525
0.32477507 0.043164846 0.38435483
-0.67591059 -0.095750436 1.1989961
0.15510604 0.058517851 0.43698597
0.26011375 0.04448773 0.50003076
0.22262338 0.056250326 0.55463147
0.26603356 -0.16372998 1.1860504
0.20519039 -0.19265038 1.2154372
0.64187384 0.041966628 0.90010047
0.60728025 0.036722321 0.87736392
-0.73151588 -0.15112393 1.2987225
-0.10614318 0.031711638 0.92619014
-0.38362721 0.059414275 0.50193667
-0.86089718 -0.2020749 1.1670649
0.075536072 0.059694938 0.33473468
0.047780454 0.061613292 0.34252477
-0.20100352 0.057676114 0.25887489
0.25667366 -0.1971688 1.1927912
-0.20027629 0.05701394 0.29778361
-0.22760031 -0.17991836 2.2148898
0.109626 0.05899553 0.37470579
0.25393054 0.042440876 0.88918042
1.3085896 -0.028830107 2.411638
-0.052571923 0.059568182 0.32923484
0.14159968 0.059955023 0.26261926
-0.19869265 0.054842234 0.2697103
-0.37218478 -0.25045714 1.1154737
-0.20345172 0.049102932 0.61834192
0.32133105 0.029614344 0.38137078
0.59298611 0.23409873 1.5371397
-0.055243641 0.063387796 0.29875875
-0.4994916 0.047883652 0.7196691
-0.51212728 0.020950614 1.0349281
-0.092605233 0.054644458 0.60569072
0.22150752 0.054442305 0.29406023
-0.49679986 0.044067424 0.72778702
-0.0090811849 0.066160664 0.29856443
0.082493514 0.056329645 0.43719196
-0.58213079 -0.19818187 2.1495717
0.32545647 -0.0059559047 0.38485098
-0.088487893 0.051512003 0.55635858
0.14279124 0.06034049 0.33009434
0.45392546 -0.1313805 0.80467868
0.39272371 -0.094497278 1.7317555
0.26722392 -0.13459586 1.2865126
-0.50062418 0.031016523 0.69377422
1.024524 -0.32510537 1.450969
-0.19842789 0.054658562 0.2691834
0.12396958 0.058517899 0.37214828
1.2900966 -0.033511128 2.556989
0.22460338 -0.13306004 1.0882149
0.17698726 -0.25012115 1.3578427
0.2119936 0.058134869 0.27062106
0.66284871 0.040703155 1.0015705
0.12828335 0.057880644 0.49754095
0.12056437 0.050642923 0.2765131
-0.17438939 0.013096701 0.50943804
0.44420651 -0.1363941 0.78802657
0.39994481 -0.12072432 1.6653874
0.33607152 -0.019512761 0.39928961
0.7795912 -0.085816659 1.197629
0.78451121 -0.086922497 1.2087204
0.46134266 -0.13416082 0.82194185
0.21273616 0.051913016 0.26635933
0.31212166 0.039123021 0.37469172
-0.2038815 0.044851501 0.48653293
0.18601105 0.077718452 0.43774748
-0.47286794 0.044932127 0.85389686
0.31577608 0.022590866 0.37302852
-0.73293376 -0.055899575 1.1472859
0.22172388 0.054119799 0.2793138
-0.41142598 -0.24418446 1.3404176
0.28941676 0.048675954 0.56399107
0.21016547 0.050505273 0.9182725
-0.1463331 0.05195345 0.66971111
-0.74202633 -0.19969364 1.2601607
0.38900223 0.040703829 0.69213486
-0.41973624 -0.30247977 1.4602005
-0.05769974 0.059866808 0.46130943
0.37681016 0.044443838 0.59796333
0.78113174 -0.023377798 1.1821923
-0.21460107 0.060401652 0.34744072
0.047560513 0.061946627 0.34331584
-0.50525641 0.044917565 0.75134158
-0.1452336 0.042631537 0.45634532
0.68798804 0.035105996 1.0316923
0.20580199 -0.4984372 4.6082306
-0.71083176 0.051863767 1.1793704
0.073353082 -0.023625445 0.83855271
0.32735667 0.045063443 0.59508967
0.58845329 -0.15098679 1.0350718
0.081067353 0.055131666 0.42311025
