# .PCD v0.7 - Point Cloud Data file format
VERSION 0.7
FIELDS x y z
SIZE 4 4 4
TYPE F F F
COUNT 1 1 1
WIDTH 452
HEIGHT 1
VIEWPOINT 0 0 0 1 0 0 0
POINTS 452
DATA ascii
0.92265856 -0.074424602 1.1170337
0.63175374 -0.13280205 1.0524304
0.60594958 -0.14421283 1.0165527
-0.95337248 -0.010672305 1.5605381
-0.62387401 0.047778092 0.937015
0.87256855 -0.11815994 1.1107333
0.63700718 -0.13424347 1.0649223
0.71998864 -0.16730697 1.0396519
0.62905777 -0.13264844 1.047116
0.35353598 0.031088315 1.1839871
-0.93905407 -0.012489574 1.7583396
-0.42852366 -0.17098391 0.92496008
0.8269341 -0.11769623 1.1063137
-0.83463651 -0.031240789 1.6543777
0.75991482 -0.15216418 1.0956511
0.91986042 -0.07431493 1.1103361
0.52743489 0.0045292471 2.3027177
0.83032334 -0.032697842 1.1233366
0.82928258 -0.11846138 1.1110883
0.81165189 -0.18870847 1.1068032
0.84421313 -0.15745848 1.0925527
-0.91985071 -0.01392152 1.7110164
-0.92257214 -0.0091272444 1.732626
0.40194464 0.041637078 0.67888981
-0.20590992 -0.021552853 0.28158706
-0.95118684 -0.096939668 1.6753075
0.25316441 0.041931979 1.223619
-0.95721662 -0.092181787 1.7128243
-0.6124804 0.050575651 0.91960686
0.38264441 0.048236825 0.71467429
-0.87012768 -0.14261304 2.0682449
0.13781562 0.059843205 0.43041664
-0.91989487 -0.012166191 1.7163961
-0.95494479 -0.10590956 1.7119074
-0.20972928 0.037602283 0.66662663
-0.89988345 -0.10131755 1.9955747
0.91584879 -0.074215911 1.1079497
-0.91391844 -0.085369073 1.6772835
-0.89602298 -0.10242934 1.9817462
-0.8904317 -0.17051306 1.9739623
-0.89475441 0.048371688 2.052855
0.34178275 0.04613243 0.66910154
-1.2616533 -0.17715856 2.1001782
-1.0074955 0.036891632 1.5649533
0.17244065 0.060459189 0.4858647
-0.86314905 -0.14250232 2.0394225
-0.60594118 0.047327094 0.90305573
0.75793922 -0.051288433 1.819242
0.14623559 0.057976246 0.65168685
-0.89771259 -0.10517395 1.9776096
-1.6052325 -0.17877077 2.6933722
0.80846542 -0.1118694 1.0711796
0.44507906 -0.072270855 2.4095864
0.28095493 -0.18495379 1.7122641
-0.91808873 -0.11079702 2.011564
0.864057 -0.1242751 1.109133
-0.20749554 -0.051662624 0.27510887
0.41127622 0.041336708 0.69168502
-0.2137845 0.04453966 0.27433866
0.33976698 -0.15881519 1.1281331
0.9058221 -0.11556636 1.102411
-0.13922459 0.051808201 0.66867703
0.34698257 -0.17159237 1.4681849
-1.048982 -0.10398533 1.9045367
0.211757 0.06024269 0.45468372
0.57807392 -0.20386003 1.5764458
-0.90046555 -0.021835102 1.995585
-0.20449156 -0.021473732 0.2786091
-0.90694886 0.050058879 1.7675989
-0.21432085 0.035615731 0.68511802
-1.4904764 -0.11121862 2.2117081
-0.88053167 -0.079691418 1.6391652
0.77242166 -0.05405391 1.8289697
0.26393318 0.044990152 1.3087425
-0.21598411 -0.018535724 0.28021556
-0.20529333 0.01174632 0.67433983
0.26394036 0.043141298 1.2891269
-0.935862 0.0024588751 1.6853445
0.20842981 0.045691684 1.5279257
-0.20016021 -0.049380958 0.66734213
0.38719326 0.04113137 0.63323826
-0.20987625 -0.033067487 0.27333516
0.17928104 0.04696878 1.2896261
0.27393395 -0.18215033 1.6806393
0.85049796 -0.05361522 2.2714164
0.53976393 -0.0027741399 3.1866987
-1.4358329 -0.17748855 2.3680611
-0.87658364 0.013280968 2.0371325
0.7771126 -0.054666772 1.8426394
-0.84999567 -0.030659324 1.7629979
-0.067022152 0.06048242 0.39673406
-1.0340044 -0.14391768 1.6905172
-0.19989815 -0.037400223 0.28041464
0.20940739 0.057281137 0.33219177
0.2090278 0.059228182 0.44909674
-0.20081612 -0.037594073 0.28223842
0.38940275 0.047104798 0.72822756
-1.0268774 -0.10230507 1.9925039
-0.88573325 0.021810494 1.6703036
-0.027260303 -0.40918958 2.5213246
-0.58560091 0.062632203 0.72388643
-0.95543855 -0.030833559 1.6010196
-0.20982328 -0.062129922 0.66434437
-1.0133293 -0.11814288 1.8326824
-0.95949477 -0.010206152 1.5730259
-0.72336274 -0.15326403 0.89906853
-0.13151677 0.050109677 0.62926978
0.18738079 -0.20971356 1.106915
1.1451859 -0.22435082 1.3978159
-1.2422867 -0.25992802 2.0353351
0.5820182 -0.02390779 2.531142
-0.99824828 -0.13699606 1.6253207
-0.93919039 -0.10236247 1.68787
0.31663951 0.029181922 0.74627167
-1.0244533 -0.14219998 1.6730485
0.38974035 -0.13477348 1.5366721
0.22189811 -0.22616141 1.577888
-0.70176101 -0.20010799 1.9040124
-0.42363083 -0.135526 0.71566063
0.21554971 0.056394719 0.45600611
0.33551177 0.051647648 0.45173699
-0.13994278 0.054091133 0.7017383
0.24484326 -0.24120872 1.6525781
-0.71779519 -0.12602688 0.90486282
0.56962734 -0.13274898 1.0924449
0.75791305 -0.053664587 1.7993183
0.81089038 -0.054207943 1.9440632
-0.074447885 0.061978519 0.31384176
0.19746156 -0.14277907 0.73908001
-0.027190045 -0.40166062 2.4989169
0.47377902 0.04323601 0.71958905
-0.94198442 -0.055246271 1.5984819
0.061431989 0.060354643 0.36434656
0.16760007 0.053887181 1.0075173
-0.93920976 -0.087666839 1.6712375
2.0602124 -0.36232153 2.3772497
-0.025988638 -0.39275694 2.4501235
0.88119346 -0.06007354 2.0051224
0.18543443 -0.17563054 1.0264463
-0.97685468 -0.027864086 1.6482542
-0.90628183 0.019981291 1.713325
-0.20944706 0.003303132 0.66009873
-0.024071693 -0.3811903 2.3549085
-0.89220893 -0.085297681 1.6288893
0.20715114 0.057468303 0.32727069
0.2026552 -0.18021761 0.97483069
0.25683913 0.050058283 0.51185185
-0.65536678 -0.17713359 0.82403225
0.41420975 0.037736766 0.91980356
-0.23704699 -0.11913215 0.73388022
-0.1099024 0.054901689 0.38237613
0.35857761 0.045062684 0.91735655
0.3819505 0.0457353 0.61876553
-1.0251004 -0.096875042 1.6299517
0.6155625 -0.13846284 1.0748413
-0.25319228 -0.36023664 2.4190578
-0.21239588 -0.037352629 0.28002363
-1.0187725 -0.10585786 1.6027226
-0.20009896 -0.058722213 0.27073747
-3.077606 1.2014602 7.1022668
-0.075513586 0.062581658 0.3171317
-0.45288059 -0.14855038 0.74009758
-0.2173993 -0.075920366 0.67033416
-0.26753652 0.055004433 0.55547124
-0.21313587 -0.037568077 0.28135198
-0.21259326 0.04039596 0.67798632
-0.9835785 -0.053129658 1.5677557
0.97740972 -0.0460926 3.0880253
0.3941347 -0.1301112 1.5513937
-0.19971079 0.05291789 0.34444553
-0.24669632 0.02432448 0.67141277
0.13500658 0.059459016 0.42110151
-0.12350388 0.055947885 0.52472299
0.19032192 -0.21454841 1.1361382
-0.93135953 -0.088076159 1.6970818
0.68688691 -0.17080113 1.0569139
0.21132316 -0.25660944 1.5356338
0.26828253 -0.17017399 0.97942656
0.38661814 0.044417679 0.78349704
0.061479151 0.061100572 0.37057763
-0.71005338 -0.16162997 0.88695234
-0.53233564 -0.045781247 1.6152282
-0.065654799 0.060464382 0.3957296
-0.2230026 -0.078545436 0.69372302
0.27623206 0.05543568 0.39286882
0.17959917 -0.22441563 1.0816214
-0.7161724 -0.14085297 0.89545506
0.21501401 0.056809321 0.27021593
-0.074028097 0.061478898 0.30934674
0.21054287 0.058270819 0.27128321
-0.20297836 0.0030889222 0.28392643
-0.11101821 0.058746248 0.35702509
0.45842582 0.042537682 0.69856507
1.0202695 -0.25604215 1.2355068
0.35778642 -0.18627849 1.0830851
0.38579458 0.045654356 0.62654823
-0.22519672 0.048913583 0.29201752
-0.11872706 0.059742324 0.53809565
0.99334478 -0.25144434 1.1994567
0.57554358 0.035368055 1.1295309
0.27870363 0.055539571 0.39697617
0.64935052 -0.15415354 1.0491173
-0.20440501 0.049086414 0.27913398
0.42745513 0.041397296 0.79265469
0.20181155 -0.16348463 0.79769689
-0.27404141 0.024465611 0.77817243
0.061373353 0.060062304 0.36043876
-0.11811797 0.059403494 0.53749102
-0.23418009 0.052913062 0.60278088
-0.6360774 0.045887671 0.95954341
0.63307029 -0.13282818 1.0532179
0.47327259 0.044524617 0.88607031
-0.13592647 0.054108679 0.81379634
0.30800626 -0.16396956 1.2085898
0.37205285 -0.16736178 1.3843088
-0.10124722 0.06176994 0.34911686
-0.86620802 -0.13881488 2.0594378
-0.13633686 0.052184775 0.68210775
-0.96249694 -0.050449654 1.5278399
-0.90520942 -0.02526146 2.0166945
0.24217802 -0.24332638 1.7213907
0.58191293 -0.15707666 1.1112139
0.066370517 0.055449463 0.57539457
0.74872577 -0.17894812 1.0594778
-0.85310292 -0.22334926 2.154985
0.24675758 0.040928304 1.9078405
-0.21084662 0.037875529 0.67148763
2.2184966 -0.091491111 3.913686
0.38900363 -0.22653148 2.4547572
-0.55351472 -0.1152618 0.8254407
0.83542532 -0.03820616 1.3747404
-0.2038804 -0.32573023 2.5131052
-0.22871193 -0.20108068 2.2625377
-0.13197958 -0.31974712 2.7153368
-0.65868437 0.038806006 1.5032384
-0.13226858 0.053600229 1.2562194
0.8137266 -0.11631794 1.0765734
-0.20362863 -0.021002436 0.278606
-0.30791607 -0.1407602 0.74990946
0.16731352 0.059799612 0.57967573
0.19646633 -0.20619003 1.1970007
0.69439906 -0.10536471 1.0278072
0.20809805 0.057101853 0.32921034
-0.073092863 0.060860008 0.30230838
0.16061208 0.051580712 0.94787747
0.23349805 0.050307989 0.52216786
2.1069205 -0.11507244 2.4900777
-1.0024316 -0.077958927 1.5486994
-1.3225327 -0.27450222 2.1028714
0.35238963 0.018508825 1.3614602
0.43077183 -0.14269198 0.65202636
-0.33006859 -0.14160794 0.76509339
-1.2560956 -0.25909999 1.9832118
0.55959481 -0.023445847 0.88324696
0.69560254 -0.11564891 1.0340762
-0.059263282 0.057806827 0.62360162
-0.012011725 0.060969278 0.37010473
0.14033173 0.060439937 0.43268925
-0.060338385 0.055314228 0.52182871
-0.029196702 0.062245958 0.38104337
0.19886285 -0.21016516 1.0418456
0.17720926 -0.23901539 1.1172242
0.23642005 0.050572634 0.53249937
-0.18632282 0.053518839 0.4082064
-0.14519528 0.05515337 0.28246921
-0.85383272 -0.18639313 2.1600108
-0.62749916 -0.074456148 1.3548126
-0.90048921 0.048871748 2.063616
0.44351852 -0.14727154 0.67537791
-0.81718516 0.020686533 1.0305479
0.21215841 0.057227612 0.2541675
0.30943668 0.051579937 0.50085014
0.21138366 0.057760879 0.33603436
0.039922468 0.059416533 0.53488439
-0.01358262 0.061160445 0.40866977
-0.79955405 0.011156439 1.8600392
2.9062841 -0.084562652 3.8929737
0.79196638 -0.023708133 1.3487892
-0.20963162 -0.28266013 2.5275862
0.49986786 0.041276202 0.75926012
0.68884838 -0.11525796 1.0257044
0.028207093 0.051845327 1.1330328
0.59154195 -0.11132632 1.0939221
-0.10802349 0.054132365 0.37962097
-0.20365475 -0.015422594 0.27907139
0.32345313 0.043822616 0.59032661
0.15174103 0.059677623 0.67013949
0.32684159 -0.18805741 1.0871673
-0.13997409 0.053302065 0.7143864
0.047174402 0.059874952 0.35686439
-0.86090314 0.041256025 1.9664338
-0.23906851 -0.14047992 0.70335597
-0.22926173 0.056972213 0.67882758
-0.049380772 0.052208342 0.76540774
-0.87156361 -0.020048836 1.8998272
-0.21609536 -0.057464883 0.67521554
0.08105962 0.053268567 0.86310011
0.43778735 0.041346304 0.77560252
0.45911604 -0.019997913 0.70852274
-0.14681384 0.056277953 0.28654152
-0.19930953 0.032585725 0.58441979
1.7554699 -0.11201592 3.7411144
0.74932599 0.073442966 1.8351071
-0.073547855 0.061206706 0.30814868
-0.17061132 0.047800869 0.66145784
-0.16547969 0.055921249 0.2980395
-0.19523221 -0.032902285 0.28704852
0.68526071 -0.17019363 1.0551064
-0.20152435 -0.035457648 0.30067474
0.47796512 -0.14364552 0.76432067
0.72474533 -0.16764888 1.0498841
-0.99185151 -0.011489 1.5194223
-0.1743311 0.057054862 0.41698736
-0.87976164 -0.2816968 1.9623539
-0.11515543 0.056338333 0.40256816
-0.75277215 -0.26080284 2.097883
-0.87130016 -0.27871695 1.9416184
0.094501853 0.0044530183 1.613333
-0.2091549 0.055928461 0.3536641
0.3874414 -0.13145448 1.524049
0.41085833 0.039985664 0.75723869
2.0898426 -0.36998749 2.4140007
0.64227432 -0.1093934 0.94977051
-0.21665949 -0.046014994 0.67964011
-0.35190627 -0.14100267 0.79683763
-0.23300976 -0.13627245 0.68336731
0.26795459 0.054189228 0.37843126
-0.61509174 0.053919427 1.3863678
-0.20678294 -0.042452976 0.28129393
-0.78184742 -0.13708748 0.99017376
0.24700844 0.046473384 0.82630259
0.2294549 0.023644419 0.3470574
0.45762825 -0.19566365 2.7911959
-0.065730743 0.06105002 0.30552036
0.098250188 0.05531203 0.39825231
-0.21307251 0.045204498 0.27470237
-0.19314125 0.054248743 0.56125575
-0.064969145 0.055524178 0.53630549
0.31232637 -0.14049146 0.68845481
0.26304987 0.055315711 0.54239446
-0.20028266 0.0031427061 0.27941519
0.012980149 0.056725577 0.56073064
-0.37217149 -0.13983721 0.77792054
0.38143757 0.046352386 0.67759222
0.34626722 -0.17019656 1.4552951
-0.21248105 -0.037663288 0.27881044
-0.048300564 0.055021375 0.87756199
-0.31647092 -0.1471789 0.75531369
0.20451257 0.055845626 0.31426817
-0.065692373 0.061256275 0.4049539
0.17722628 0.061611377 0.2636506
-0.65165734 -0.21178684 1.2809587
0.32883078 0.04267548 0.64152294
0.21700865 -0.16562271 1.15891
-0.28189909 0.053864405 0.5431475
-0.207127 0.051237024 0.27437323
-0.20288059 0.0505687 0.27726048
-0.10976255 0.063356362 0.41903394
-0.89005238 -0.073799834 1.5747817
-0.20169547 -0.057009719 0.27823442
0.64611167 -0.0076346155 1.157635
-0.1628049 0.055718586 0.29200023
0.037083663 0.060561292 0.32993704
-0.17233172 0.05091992 0.66969794
0.19501792 -0.20547843 1.0200391
-0.71053058 -0.1631742 0.88766533
0.68420178 -0.22665179 1.3159077
-0.14942428 0.057002202 0.29313332
0.60522968 -0.13684313 1.0561194
-0.20034099 0.042429484 1.0155311
-0.09913481 0.061539494 0.32914287
-0.90706944 -0.25684929 1.9875803
0.69805998 -0.1143079 1.0403388
-0.22226618 0.049292415 0.57070273
0.013965719 0.061368614 0.35169679
-1.0498295 0.2192031 2.3197978
-0.64823937 -0.14781947 0.8072229
1.4461294 -0.063521206 2.3495343
6.0039272 0.52641755 9.7278671
-0.93189675 -0.086555898 1.7167523
-0.37120032 -0.13916436 0.77541476
-0.96726531 -0.033862337 2.0283761
0.87503642 -0.072835162 1.1205127
-0.16940653 0.054698974 0.53991002
2.166693 -0.11926643 4.6289544
1.8819321 -0.054638959 2.5451889
0.96297199 -0.27130327 1.1902857
1.5753546 -0.092739753 4.1297755
-0.58240771 -0.14767204 1.8092122
-0.10369162 -0.16200908 1.6934822
0.50467604 -0.10106891 2.3777304
0.55579084 0.041103065 0.70807737
-0.10708164 0.058753148 0.35426742
-0.15900597 0.052608937 0.37557727
0.26732731 0.053500503 0.37747186
0.1839785 0.06250634 0.32381028
-0.6654045 0.022009809 1.5496795
-0.19512227 0.054669589 0.39797395
-0.59438169 -0.27510887 1.7840207
-0.10619507 0.060924701 0.40330094
-0.16027893 0.054448582 0.28523308
0.5997746 -0.13452706 1.0431089
0.23450869 0.051077791 0.88397914
0.75160414 -0.17925982 1.063437
-0.14454201 0.0550621 0.2807278
0.034486465 0.059918486 0.42370242
-0.15011591 0.059380934 0.35912806
-0.65292078 -0.22545402 1.792285
-0.17214419 0.054611385 0.40468484
-0.016455065 0.051836185 0.36793226
0.754399 -0.019778753 0.95380324
-0.11068626 0.058808275 0.3465423
0.20903236 0.058898568 0.44738978
0.63595575 -0.097821422 1.2227056
-0.12595052 0.055155724 0.34178728
-0.22593392 -0.37374476 2.4180493
-0.73453492 -0.16879606 0.92105573
-0.066515498 0.062855251 0.37315708
0.5439623 0.039626181 0.69302779
0.22040442 0.05900301 0.26754707
0.28048182 0.053354457 0.55830175
-0.37205577 0.074837819 0.8515349
0.32904905 -0.19011088 1.0974851
-0.098141819 0.059094407 0.26799172
-0.26468861 0.050493769 0.50536889
-0.18338534 -0.072617456 0.5645842
-0.82342958 0.020188525 1.0384512
-0.95290947 -0.085838698 1.6929307
-0.17068082 -0.34130356 2.0025184
0.42907789 -0.15174273 0.72872251
-0.20348877 -0.038182363 0.28660113
-0.063088134 0.058627561 0.38037235
-0.073670641 0.06130781 0.37155002
-0.055746883 0.053428322 0.56100577
0.21032529 -0.26486742 1.6013031
0.19275138 -0.28917247 1.4610484
-0.31147647 -0.14427833 0.7629264
-0.35528454 -0.13302499 0.78768367
0.26732031 -0.15688176 1.2423248
0.41802529 -0.15478998 0.73927778
-0.47360247 -0.045410298 1.95262
0.21080217 0.056740195 0.26402801
-0.12373926 -0.29055023 2.720886
-0.12769492 0.056227952 0.34864193
-0.21100375 0.042913206 1.0746384
-0.12812138 0.056597732 0.29727
-0.31254056 -0.14371178 0.7649135
-0.90943688 -0.10690857 2.0139346
0.45955428 -0.13908614 0.73251671
0.59894526 -0.10798334 1.0270603
0.38568553 0.046089411 0.62443072
-0.81213373 0.020104084 1.0270946
