# .PCD v0.7 - Point Cloud Data file format
VERSION 0.7
FIELDS x y z
SIZE 4 4 4
TYPE F F F
COUNT 1 1 1
WIDTH 594
HEIGHT 1
VIEWPOINT 0 0 0 1 0 0 0
POINTS 594
DATA ascii
-0.15136278 -0.18832308 2.7866671
-0.21279961 -0.37248695 3.0629523
-0.14568716 -0.18534768 2.743521
-0.17936808 -0.37500042 3.1596816
0.61723512 -0.041405857 1.4589612
-0.84525496 -0.0016978905 1.8183377
-0.10392004 -0.32734048 4.2216072
-0.047247708 -0.14956644 4.0365992
-0.25532615 -0.40783748 3.016053
0.69050485 -0.052280784 2.909673
-0.81464642 -0.47677344 2.7951858
0.91662425 -0.010681018 1.9008505
1.0798628 -0.20713165 2.0885966
1.0110552 -0.31471348 2.5423558
-0.76493615 -0.44427252 2.8189223
0.2358467 -0.034828052 0.930053
-0.76684088 -0.40441263 2.8789012
-0.86921138 -0.082717292 1.5054867
-0.85893804 -0.26318684 3.1964085
-0.82760948 -0.0072399788 1.3763158
0.69174248 -0.016066268 2.4371789
0.010415971 -0.40216956 3.0028841
0.33753687 -0.0038988516 0.97952247
1.7054539 -0.064134926 2.0847361
0.15357399 0.023287019 0.65989614
0.13890308 0.04809238 0.78571105
1.5035985 -0.048387244 1.868315
-0.93713349 -0.049024954 1.5536139
1.9294562 -0.068510205 2.5541441
0.34349948 -0.060676262 0.89741063
-0.5423761 -0.39245251 4.0678329
0.15730566 0.051676773 0.63765883
0.3458609 -0.068523288 0.91550946
1.9320693 0.1562946 3.1095459
1.137763 -0.022437166 1.7085407
0.19501209 0.039244488 0.68021941
0.71536022 0.031322099 0.97290778
-0.028226078 0.048872024 1.0426228
-0.8148784 -0.077642135 1.4130418
-0.86280388 -0.4786492 2.8052061
-0.87149519 -0.38970554 2.5389621
0.41257721 -0.290925 4.5907803
-0.7778452 -0.23852953 2.7960975
-0.95059198 -0.43419436 2.7410371
4.2601285 -0.16757303 6.1387529
-0.074020565 -0.52468073 4.2832146
0.35339206 -0.14243662 0.94690108
0.014683783 -0.52381903 3.9348595
0.42271096 -0.29956853 4.7172527
-0.86438352 -0.41950431 2.6132615
-0.91997641 -0.41313201 2.738528
-0.87073416 -0.28081283 2.6942475
-1.0959256 -0.40187585 2.9444225
1.2667542 -0.022793073 1.9046714
0.012073576 -0.52360028 3.9629829
-0.71729046 -0.33291966 3.9545333
1.1732452 -0.022773642 1.6925743
-0.86351544 -0.22821 1.8364837
-0.059801638 -0.49653399 3.9706929
1.0214348 -0.018478986 1.7366602
-0.73786694 -0.41184044 2.7828472
-0.88798708 -0.452317 2.7558558
-0.99770087 -0.42126364 2.7962081
1.2420702 -0.021596435 1.8564684
-1.0965476 -0.33296242 2.9145548
-0.99696356 -0.39514256 2.7533576
-0.32312965 -0.3966682 2.9929574
0.2161622 0.051407792 0.27636552
-0.83761114 -0.025545578 1.4545882
0.27659386 -0.021114621 0.81258512
-0.69424742 -0.26292604 2.7292564
0.31189364 -0.042585358 0.98142838
0.30837148 -0.095961928 1.0105135
-0.9908089 -0.2265459 2.7177389
-1.0592206 -0.39930362 2.8380511
-0.77374953 -0.41649878 3.3956268
-0.4892624 -0.069943242 1.8613894
1.2348349 -0.064306527 1.9407814
1.0230777 -0.26224223 2.1946146
0.3526004 -0.059800975 2.9106009
0.33018559 -0.046725348 0.8939445
1.3904655 -0.023526788 1.7769673
-0.98823351 -0.22117785 2.710891
0.072711885 -0.24516827 4.2093239
-0.8336938 -0.041192472 1.3844812
1.1655724 -0.082140118 1.6529071
-0.82021695 -0.25342369 2.5731094
-0.77205676 -0.52715635 4.3365545
-0.64631897 -0.0033118539 2.6841018
-0.43668789 -0.075136781 2.1304171
-0.87446183 -0.36042786 1.7699177
-1.1324606 -0.40726611 3.0572689
-0.7995562 -0.47482705 2.7523539
0.19846708 -0.2959325 3.6676524
-0.2067771 0.052618742 0.32081819
-0.83458251 0.012705509 1.3944352
-0.84210712 -0.28391731 1.7933848
1.4185197 -0.034735985 1.7103822
0.13711345 0.022282103 0.67421794
0.30541724 0.024891816 0.49901748
0.16204047 0.02281715 0.63784719
0.19977057 0.041446593 0.69957519
0.3700996 -0.070872866 0.89462447
0.083592117 0.047114573 0.55313945
0.22678977 -0.016585253 0.99966168
-0.88331598 -0.36198226 1.8007944
0.30606633 0.028410217 0.50651765
0.31851953 0.03358531 0.49283862
0.34058517 -0.069942087 0.90748572
-0.94715041 -0.15481445 1.6093686
0.33231837 -0.048061922 0.88857913
0.15074915 0.023166103 0.64973044
-0.84055609 -0.30527201 1.672231
-0.77514583 -0.43997055 2.9140775
-0.7377333 -0.2881377 3.0889032
-0.82183045 -0.07781285 1.4182785
-0.19408935 0.053536817 0.44381118
0.1632961 0.02320431 0.64236236
0.075340688 0.054483421 0.33033848
-0.82378739 -0.031751707 1.4175661
-0.84525543 -0.26515669 2.6295969
-0.1673972 0.053847879 0.63933301
0.36715752 0.030490533 1.293535
-0.18669653 0.051833145 0.47380638
-0.8220982 -0.55619389 4.6473684
0.084203064 0.048625454 0.55224156
1.0173724 -0.06374453 1.7310083
-0.83391792 -0.010182358 1.3874943
-0.83406049 -0.041741848 1.3852904
-0.79289132 -0.027684983 1.3640196
-0.11851543 0.052154608 0.69964194
-0.89675289 -0.33079237 1.8268507
1.144037 -0.022003014 1.7119825
-0.75428611 -0.38955328 2.7783458
-0.85597342 0.0035952628 1.6757557
0.13274038 0.019958584 0.66163611
-0.69114965 -0.37397453 2.700352
-0.59238404 -0.20039839 3.5662792
-0.73763222 -0.31821316 2.8441088
0.72543794 0.032184958 0.99217725
0.20584011 0.048580587 0.69633365
-0.9138369 -0.36181349 2.7903554
-0.66112608 -0.29016569 3.7673523
-0.8532514 -0.2594187 1.6688755
-0.91935855 -0.36265296 1.7423813
-0.14737445 0.053303614 0.54070258
-0.70209306 -0.060722858 3.5451849
0.50141305 -0.057218671 0.92845893
-0.95337528 -0.28304881 2.7080252
-0.83234531 -0.28255406 1.7735431
-0.85790747 -0.36005133 2.8365571
1.0224762 -0.042147115 1.7395852
1.0136836 -0.27753234 2.1722
-0.79789597 -0.076587051 1.3829491
1.2138443 -0.29603553 2.0645111
-0.78493041 -0.37266862 4.2434483
-0.43046176 0.055508852 0.6473434
0.021005452 0.052332908 0.64366126
-0.80944079 -0.15593779 2.6795881
-0.20542687 0.053285208 0.31784463
-0.15323371 0.053689297 0.55664706
-0.91084105 -0.34683681 1.726402
1.7428527 -0.39138496 2.0848734
-1.1767685 -0.46002233 3.0090744
-0.66030544 -0.25711778 3.3421876
-0.63326746 -0.54843777 4.4679346
-0.73371631 -0.36879942 4.2205362
-0.80752939 -0.030012734 1.3857076
-0.8235001 -0.2764768 1.7303026
-0.88471681 -0.46456128 2.8158028
0.96793753 -0.19701785 2.0041583
1.4635892 -0.043298922 1.7519729
1.7488365 -0.39114901 2.0948555
-1.1426163 -0.40904477 2.7612388
-0.84700674 -0.24953356 2.6288922
0.089063942 0.051809557 0.58409238
-0.49800837 0.058458116 0.61702323
0.20637447 0.042813022 0.2546382
-0.36112863 0.054153137 0.66455007
0.59810072 0.031497348 1.0854251
-0.79638571 -0.023161024 1.379451
0.67582661 -0.14690512 1.3312757
1.1282721 -0.12594399 2.106765
-0.23087692 -0.20965154 2.610152
-0.91378599 -0.3628557 2.7881091
0.28418332 -0.080057338 0.92318082
0.018271327 0.050574902 0.56283784
-0.81049198 -0.077056818 1.3834231
-0.84098774 -0.079864204 1.4045351
-0.36555243 0.056403227 0.55920959
-0.90007025 -0.3859475 1.753855
1.4808867 -0.046769135 1.7677109
-0.78995436 -0.029333092 1.4039342
0.17134267 0.050532077 0.61417127
-0.82872683 -0.23034674 1.7608798
-0.78618389 -0.026472759 1.397289
0.17090726 0.050409764 0.61500716
-0.93460494 -0.33898398 1.7045496
-0.82853121 -0.48186165 2.8348477
-0.50551277 -0.14080364 0.62193608
-0.10733885 0.052954368 0.56188273
0.21135879 0.042503256 0.31479621
1.1221106 -0.020707663 1.6676629
0.060768902 -0.15596907 1.0601146
-0.77125651 -0.025528815 1.3642733
-0.69853967 -0.25103468 2.9089625
1.7346401 -0.064790919 2.3658788
-0.47391516 0.035108805 1.130357
-0.049844414 0.053896137 0.42222023
2.4550941 -0.34245968 3.2981308
-0.48309654 -0.056433305 1.9166996
1.1086531 -0.018481113 1.6013157
-0.64414686 -0.0031912513 2.6642067
1.9821982 -0.095569193 2.3157661
0.068719447 -0.19503796 1.308459
-0.20585996 0.064606197 0.84391761
-0.84196228 -0.25501511 1.6426742
-0.6286245 -0.19181591 3.5777104
0.076883912 0.054895252 0.32553935
0.22311103 0.050016537 0.39719892
0.34663433 -0.13726342 0.69575524
0.15698099 0.051321805 0.64669347
0.30889708 0.033925697 0.49745178
0.32484674 0.038645066 0.47417593
0.37443191 -0.15006381 0.78922677
-0.83266276 -0.25169781 1.6880133
0.1679998 0.050019689 0.60517859
0.17820871 0.019181527 0.62764764
1.1540163 -0.25993118 2.1955607
-0.83581036 -0.28275979 2.5806463
-0.095318019 0.049297437 0.64344668
-0.72363681 -0.38082886 4.2654228
-0.87950081 -0.32569793 1.780987
-0.1507079 0.054855842 0.56700397
0.12870628 0.040620111 0.77838349
0.20040578 0.048413247 0.68862748
0.13470906 0.042151313 0.81885171
-0.050389886 0.05246016 0.57893872
0.30890864 0.033812046 0.49693775
-0.66775912 -0.23279583 1.4712918
-0.86225361 -0.46920985 3.9685662
-0.71153706 -0.017694484 3.8377531
-0.55445081 0.021698497 2.4148028
-0.65898329 -0.27095568 3.9018114
-0.50902528 -0.38478205 3.8835003
0.31591821 -0.050109625 0.92135072
-0.21053445 0.053174041 0.31355786
-0.19686931 0.042511024 0.61430335
0.13375425 0.042160884 0.82832122
0.17444241 0.023540694 0.63854241
0.16158205 0.057147324 0.26108384
-0.11838031 0.058049347 0.29099774
0.1743263 0.023817483 0.63663363
-0.87487322 -0.032618016 1.4384406
0.31156737 -0.028690383 0.49466038
0.076932311 0.054921247 0.32993865
-0.060217083 0.056256667 0.34105754
-0.87847906 -0.54887539 4.6480112
-0.42698824 -0.15951222 3.2018206
-0.16895992 0.049439292 0.84132266
0.34109008 -0.07018058 0.90978885
0.55637103 -0.10082452 0.83737636
-0.79489547 0.015354469 1.3777812
0.017436504 0.051105987 0.56369281
0.30996078 -0.1061444 1.0226543
0.76190251 0.031164266 0.95944524
-0.20168763 0.056859557 0.26277494
1.1105661 -0.068219915 1.6882946
-0.92155796 -0.32838956 1.6684134
-0.86450177 -0.25660729 1.5749028
0.076719224 0.054626755 0.33309674
-0.80160683 0.016954836 1.3944023
0.21246558 0.050996512 0.71320415
0.31197691 -0.026852004 0.49650478
-0.098314583 0.05151869 0.68383813
0.21823907 0.050945781 0.36096287
0.21560907 0.049838658 0.25651717
-0.20550919 0.052420225 0.31847548
0.38052475 0.039063238 0.50685334
0.21322012 0.052632175 0.27346039
0.13102621 0.049948476 0.68735719
-0.520163 -0.40216714 4.0541286
0.37547511 -0.074811868 0.9064405
-0.10985118 0.053843565 0.56711841
-0.90142864 -0.3441599 1.8081977
0.19811338 0.048071753 0.24928737
-0.156066 0.046183523 0.86505675
-0.18523258 0.052050546 0.4747026
1.4105451 -0.03662131 1.730828
-0.18524218 0.057686336 0.36692476
0.080700576 0.054419935 0.44522214
-0.82574922 -0.26840585 2.6302736
-0.84627634 -0.081706017 1.4345706
-1.0867858 -0.43094793 2.7811363
-0.22652638 -0.3719846 2.9759352
-0.92748183 -0.29782838 1.6609156
-0.95089108 -0.43634078 2.750025
-0.77665132 -0.46454653 2.7717354
-0.022510529 0.047417641 0.98277068
-0.2361986 -0.38454404 3.1168768
1.0441613 -0.26686016 2.2473381
-0.18498707 0.055808105 0.4055593
-0.71872109 -0.37601373 3.1013858
-0.97861272 -0.31081662 1.6727898
0.14850777 0.067652144 0.28466773
-0.057120085 0.053879067 0.32527399
0.14404076 0.056855142 0.33508873
0.21713978 0.049602434 0.381634
0.26976866 0.039506577 0.60674596
-0.91394025 -0.2249099 1.4733274
-0.47754246 -0.11871809 0.61484933
0.31511015 -0.11146371 0.91478133
-0.89593488 -0.16081926 1.6518919
-0.20027244 0.043225631 0.72443223
-0.37735701 0.058052853 0.62146449
0.92870694 -0.0097640976 1.6472089
0.97578055 -0.080415651 1.7425916
-0.97431666 -0.32532775 1.6960466
-0.04974997 0.054632708 0.43379712
-0.77211291 -0.034350023 1.1133649
0.016666174 0.052847438 0.58673882
1.1612897 -0.045088433 1.7026918
-1.0588708 0.01903167 1.9796364
1.6559837 -0.040075853 2.220578
0.54081744 -0.2818419 2.5317466
-1.1620305 -0.45823693 2.9799144
0.23896229 -0.18524058 1.1407616
-0.74818379 -0.41100115 2.848573
-0.023536503 0.044330142 0.88498282
1.1268167 -0.22251061 2.5482771
0.13497514 0.013967194 0.78786206
-0.81579834 0.010695659 1.4960306
-0.99234277 -0.22244284 1.2429659
0.19886386 0.018163184 0.71654105
-0.53515875 -0.087810978 3.252794
-0.061025798 0.056567892 0.33842611
-0.049896002 0.051542878 0.55253911
2.1195462 -0.1577663 2.4969628
-0.11788291 0.058165982 0.28997374
-0.13882029 0.047026496 1.0373094
1.1117911 0.010830384 1.3391273
-0.93611759 -0.30291528 1.6777551
-0.78775948 0.020401753 1.3701575
-0.3849439 -0.03927926 2.7883232
-0.4098137 -0.23964882 3.0842021
-0.95607156 -0.22111252 2.6266654
1.1577418 -0.079810187 1.6343901
-0.82076603 -0.1747286 1.6459062
0.090915263 0.053135656 0.59005237
-0.49121159 -0.12477182 0.64820075
-0.99089903 -0.19637543 1.309737
1.5565391 -0.29554963 3.4770672
1.4584396 -0.022614162 1.8730648
-0.36818802 0.056367196 0.56847692
0.21802288 0.05111669 0.34468889
-0.71486288 -0.34171915 2.8370726
0.1339736 0.013250254 0.77227044
0.22906995 0.048502441 0.26129174
0.13206577 0.013186611 0.75937295
0.26205993 0.030640872 0.45230913
-0.50664502 0.048002891 0.63817096
0.30085737 0.041264251 0.74965739
0.22341049 0.041738592 0.32920003
0.10770541 0.046246797 0.90487123
-0.16647691 0.04854789 0.83341575
0.35275215 -0.071472764 1.1372774
-0.80574983 -0.26777637 2.7018306
-0.78957695 -0.37138054 4.2659082
0.10804969 0.046923768 0.90300155
0.13628346 0.039504103 0.64983582
1.1202054 -0.0099043399 1.3086274
-0.14840525 -0.0038362034 1.4453776
-0.72196621 0.020157814 1.2511227
-0.43775558 0.023304842 2.2309525
0.31261742 0.033732966 0.48218799
0.11494201 0.049867645 0.91189027
0.32866138 0.017863199 0.50205946
1.4997842 -0.23123828 1.9245884
-0.4820208 -0.35867941 3.6317217
-1.0376136 -0.24934867 1.6910803
-0.81221372 -0.079482414 1.3749907
0.076238155 0.054342169 0.31960559
-0.82641131 -0.046367377 1.3755066
0.080989718 0.054877494 0.44310403
0.20868152 0.053427547 0.395751
0.30628753 0.03153149 0.50329113
0.21023291 0.054038636 0.3716476
-0.92564672 -0.29520428 1.578398
-0.052459419 0.05599238 0.33006883
0.07630527 0.051620115 0.40437508
-0.11770135 0.057962634 0.28970122
0.31025082 -0.034236409 0.49267912
0.35005718 -0.15040882 0.64858699
0.028426468 0.057663918 0.28644276
0.14995408 0.024289159 0.65083003
0.18524945 0.056977529 0.26501083
0.0030094385 0.057210796 0.35757589
0.30982447 0.016292388 0.494766
-0.68654734 -0.28921759 4.0861998
1.1451426 -0.047581293 1.6696141
-0.18907756 0.053487532 0.48942232
-0.18500477 0.05771856 0.3665657
-0.18311137 0.055464145 0.37234092
0.089949846 0.052479945 0.5757916
0.30331367 -0.069815934 0.88861442
-0.20365441 0.050465532 0.38512969
0.13037723 0.019749373 0.64250922
0.16121483 0.023169788 0.62847447
-0.40406221 0.060909059 0.61888766
0.23182994 0.041655339 0.56246734
-0.039329946 0.050252747 0.97590423
0.33509964 -0.048465982 1.0044086
-1.0433624 -0.18652317 2.6233675
-0.19497108 0.054207288 0.25392699
0.14817935 0.052641902 0.46906519
-0.053078055 0.056314051 0.33355808
-0.53729409 0.063192308 0.66919017
-0.20375198 0.054838285 0.33720326
0.16933072 0.049632788 0.60004067
0.2981891 0.040771242 0.73596501
-0.70437413 -0.40557146 2.8429472
-0.57524472 -0.054903135 3.6239398
0.13080776 0.052245364 0.35489583
0.29829592 0.017660739 0.49028921
-0.19367194 0.055218801 0.32112384
0.13225526 0.056905787 0.26806998
-0.20134914 0.052474964 0.36387682
-1.0796552 -0.22438163 2.7926004
0.20856518 0.043533489 0.25745845
-0.034249514 0.059584588 0.27141309
0.37564826 0.036719833 0.50685334
1.0637574 -0.32720459 2.1995022
0.42739838 0.04455515 0.50110579
2.0919561 -0.32456577 2.719558
0.345231 -0.1324878 0.90586019
-0.10851729 0.053253412 0.55349851
-1.0255327 -0.44098449 2.0637896
-0.13916379 0.015743069 1.3406694
-0.72833568 -0.32078609 2.5012753
-1.2031965 -0.11815441 2.9948132
1.1670961 -0.083815686 1.6565111
0.33573538 -0.13631581 0.89122844
-0.10449409 0.055078134 0.57675147
0.33118623 0.016006153 0.50517654
-1.0377278 -0.13453682 2.757746
-0.21468186 0.051045399 0.29451251
0.72988397 0.030192256 0.91747022
0.2565614 0.04646337 0.45282269
-0.050020337 0.056327999 0.45166421
-1.0038657 -0.13353704 2.665837
-0.87911719 -0.23002151 1.6793334
-0.11527073 0.056938089 0.767946
-0.20609468 0.052697621 0.31950521
0.22420704 0.048402913 0.47729254
0.20799744 0.043298788 0.25674582
-0.20958132 0.047302932 0.31383014
0.19720709 0.053360596 0.52805781
-1.1046312 -0.15967843 1.3991606
-0.18847758 0.058149327 0.29277396
0.063702941 -0.15922946 1.1069138
-0.19373876 0.055624209 0.27497149
-0.18520463 0.056745164 0.40154672
0.3113637 0.001377739 0.49592447
-0.80508775 -0.48900181 2.7913377
-0.19703114 0.054816823 0.25694871
0.30861175 0.033443883 0.49579787
0.39902169 0.027943004 0.88321662
-0.15105897 0.029673344 0.53146958
-1.1768107 -0.11503252 2.930804
0.28228641 -0.049244121 0.98447251
0.70613366 -0.19206977 1.6284034
0.3079555 -0.08575242 0.4940002
-0.50099283 0.049671717 0.66243196
0.29495841 -0.09385699 1.0074079
0.30607867 -0.085404605 0.49039888
0.34938335 -0.1113048 0.89160037
0.24770081 0.0366925 0.34741974
0.15443504 0.054356392 0.26774192
-0.67103451 -0.23150781 2.8501546
-0.52920014 0.011528119 0.69818854
-0.44593167 -0.0082510784 2.4138052
-0.19784367 -0.066872433 1.9234922
0.30528647 -0.14618821 0.64293361
-0.94970518 -0.27070576 1.6592553
1.5067706 -0.023316596 1.9413912
0.32071954 0.013438983 0.49056339
-0.47103113 -0.038485304 2.348799
-0.82705802 0.023557611 1.2880094
-0.21825296 0.049815945 0.37600684
0.084140003 0.057176292 0.47068
0.46623629 0.032239318 1.0496814
-0.10016763 0.050889097 0.66603971
0.32374066 0.017701242 0.98580098
0.15085852 0.052784424 0.67358804
-0.19590855 0.05815411 0.40491986
1.5390253 -0.2677438 2.0236137
-0.79797083 0.019296411 1.3859689
-0.78128475 0.021933641 1.3581789
-0.10105199 0.050417617 0.527807
-0.19664139 0.054342516 0.26576972
-0.50805873 -0.14099714 0.6442039
-1.0112855 -0.15942068 1.3147919
1.0322945 -0.32695115 2.1435816
-0.81290382 -0.40237877 1.7496746
-0.036911815 0.058539383 0.3246851
0.25443369 0.030466225 0.43688321
2.0277526 -0.30329469 2.509258
0.64703351 0.026466224 0.80623412
0.46084666 -0.11616813 0.5297749
-0.79625827 -0.25321516 1.3529642
0.45438498 0.034799039 0.53356242
-1.0142374 -0.30599877 1.7927415
0.21152431 0.051353805 0.27469707
0.86481708 -0.017021757 1.2266796
-1.1982365 -0.059492819 2.9798295
0.31529158 -0.0026656948 0.4467833
0.7459783 0.031025205 0.94246984
-0.095019281 0.058736227 0.25585604
0.33176607 -0.12876509 0.86993909
-0.064394176 0.04747916 0.31131577
0.16655308 0.053067472 0.6325314
0.22779447 0.041999847 0.31859851
0.44390821 -0.12726371 0.55102658
0.5333876 -0.15382378 0.90889001
-0.44596303 0.022995364 2.7175925
0.13720745 0.055428974 0.30080748
0.49692869 0.037303321 0.59198165
0.15396518 0.050233107 0.6354053
0.15221006 0.055299491 0.30327559
0.21047914 0.050797563 0.27335501
0.092376471 0.055960938 0.26470566
-1.1679368 -0.075410768 1.8818653
-0.83830255 -0.040061235 1.3941128
-0.058796048 0.054678909 0.32413626
1.5298302 -0.018101115 1.9604771
0.70979708 0.031753562 0.96822715
0.73095983 0.033557262 0.99856305
0.2627961 0.028179696 0.47089601
-0.20626456 0.052627023 0.32010794
1.2097526 -0.34411189 2.1753905
2.3234279 -0.89142513 6.1905899
0.15087008 0.059005089 0.43571901
-0.10124987 0.053674228 0.72285581
-0.11736792 0.051595189 0.6839273
-0.1883359 0.044440489 0.61860442
0.17171586 0.057963654 0.24622917
0.21309346 0.043342814 0.31711721
0.55502647 -0.29211 3.4498975
2.0251777 -0.30851755 2.5132763
0.063081205 -0.20069215 1.1907403
-0.18997115 0.050242048 0.30009055
-0.18046135 0.050307252 0.45497417
-0.75438887 -0.015905235 1.3689992
0.30692977 0.01334472 0.46910572
1.0555151 -0.28704998 2.2657411
-0.47658652 -0.014319368 2.5928867
0.37673014 -0.077290393 0.90444493
0.48462194 -0.14081901 0.72739339
-0.22334778 0.05328574 0.30900741
0.21129066 0.043349616 0.51960206
-0.56225222 -0.054147899 2.0097706
-0.98457521 -0.21625718 1.7511151
0.14738184 -0.0080074742 0.49286699
2.0167048 -0.14951386 2.3562801
-0.61131781 0.028114419 2.59988
0.69040543 0.02601368 0.94626594
0.72025675 0.025948294 0.92808843
1.0892661 -0.020634737 1.6325314
-1.0464718 -0.25099459 1.7021587
-0.046941221 0.050127 0.54809833
3.060632 -0.46054593 3.8626192
0.28309703 -0.1318254 0.95429349
0.21018165 0.049206167 0.32907844
0.21173662 0.05067699 0.25477004
-0.22044986 0.050424911 0.37930083
-0.1958887 0.046006396 0.64641118
-0.7829563 -0.1607812 0.97913194
0.34563339 -0.11886001 0.88949466
1.0202031 -0.28023335 2.1913531
0.13104522 0.037683383 0.62483001
0.20974612 0.049927916 0.29732823
0.10521871 0.047656082 0.78580689
-0.16815072 0.049402334 0.83932376
0.28799039 -0.057720125 0.75032973
0.16651118 0.023059664 0.70536542
1.1878099 -0.335895 2.1307657
-0.050888121 0.056383237 0.45631576
-0.95463127 -0.33658272 1.7130339
0.3208133 -0.093785018 0.89672971
0.62328249 -0.40695876 2.44258
-0.22756618 0.064765222 0.3372016
0.32082856 0.033691477 0.49937129
-0.46278888 -0.35969841 3.6001322
-0.75488418 -0.23212785 2.70523
