# .PCD v0.7 - Point Cloud Data file format
VERSION 0.7
FIELDS x y z
SIZE 4 4 4
TYPE F F F
COUNT 1 1 1
WIDTH 467
HEIGHT 1
VIEWPOINT 0 0 0 1 0 0 0
POINTS 467
DATA ascii
2.0238602 -0.10983111 2.973233
-0.07725969 -0.21536851 3.2194126
-0.080089301 -0.21549392 3.2543561
-0.13428155 -0.40043262 3.49774
-0.055416673 -0.012627356 1.6727259
-0.077787131 -0.2143617 3.2614582
-0.093605965 -0.38753465 3.382663
-0.14789602 -0.34398594 3.6004875
0.078643888 -0.072018728 1.8091018
1.1487741 -0.34718075 2.9707682
1.8042048 0.21908 2.5652463
0.052840024 -0.18626256 4.5894966
-0.18947414 -0.45617229 3.6471207
-0.72824693 -0.4918465 3.1604617
1.0269369 -0.04918256 2.3261478
1.3050923 -0.2695573 3.2982709
-0.14102349 -0.38448903 3.203675
1.5502771 -0.52339494 4.9759302
-0.69561696 -0.44129649 3.3752229
-0.8070904 -0.41565311 2.9446509
1.2193081 -0.25569138 2.2044451
0.18014178 0.0086727627 1.1101353
0.96919954 -0.032710124 2.310611
0.96144128 -0.033675078 2.2778285
1.0829989 -0.34325448 2.968931
-0.68517661 -0.46407443 3.2184021
0.36481789 -0.12620145 1.0581872
1.1100395 -0.19295269 3.1152971
1.0531329 -0.31106246 2.5573499
-0.47657582 -0.16101873 0.96360755
-0.99421525 -0.063614622 1.5896432
-0.75270438 -0.14270817 0.99893403
0.26716468 -0.049506407 1.3764737
-0.70278502 -0.43508381 3.3794081
0.18378291 0.0097622611 1.1216023
-0.54622698 -0.054054599 1.3513997
-0.76728654 -0.2855567 3.5845048
0.18474969 -0.16718149 0.94659257
0.17953345 0.038565774 1.0616114
-0.50878906 0.040664781 0.79469061
2.221935 -0.14063406 3.3210189
1.1325177 -0.45874333 2.7146161
0.55104911 -0.16155607 0.95927596
0.29120818 -0.025857594 1.3016798
0.33734199 0.027499417 0.50659251
-0.7744354 -0.019936781 1.7829206
0.26482293 -0.027565625 1.3772357
1.2358432 -0.35985455 2.4111502
0.18578103 -0.15713124 0.93207216
0.070305198 -0.32891738 2.5170739
1.0946934 -0.10607627 2.9787257
1.1859421 -0.11162819 3.0584586
1.6723425 -0.52900743 2.8120344
0.29753622 -0.19029289 1.1947677
0.17903331 0.010163303 1.104768
0.22906771 0.038684592 0.69974542
0.33203915 -0.11422934 1.4509809
0.72006476 -0.070007443 0.85774803
0.42071739 -0.22603261 1.4509184
-0.86006391 -0.062715128 1.9023955
1.54716 -0.071610391 1.9935958
0.98157704 -0.033867497 2.3379538
0.083381087 0.048665181 0.59877229
0.37786064 -0.076535299 1.3465836
0.045279473 0.039361544 1.1141112
-0.038704246 0.044589192 0.82284999
0.34390053 0.01746841 0.99367929
0.17715636 0.039723668 1.0418055
-0.39875701 -0.3889184 4.0545502
1.5156132 -0.067642435 2.1539924
0.18179837 0.039264213 1.0793774
0.37841788 -0.084389269 1.3533347
0.097531587 0.043708876 0.83293962
0.21135494 -0.1741098 0.92523789
0.39928392 0.031727545 0.66195107
0.37176087 -0.025692102 1.1549485
0.16460094 -0.19743405 0.89655995
0.22094032 0.026165687 1.1208966
0.29390016 -0.21449167 1.8426988
0.37313393 -0.079939187 1.3296111
-0.024980456 0.039163735 1.0366619
1.0161549 -0.099524304 2.1103714
0.28443769 -0.053386521 0.97538972
0.081751198 0.059565265 0.47007442
0.75150716 0.014646731 1.4010456
0.18384036 -0.16725072 0.91918683
1.0708793 -0.041556027 2.1563752
-0.48568091 -0.32485551 2.0440934
0.0045520961 0.033939078 1.56302
0.18399349 -0.16708364 0.92575121
-0.18242529 0.046395008 0.60727262
0.33208749 0.015953913 0.94639182
0.34791562 0.033915155 0.68416643
-0.78502965 -0.49948102 3.2215583
-0.81586456 -0.41952345 3.0283115
0.8515048 -0.036189932 1.7088363
0.52642798 -0.32789603 5.0150318
0.74305558 -0.062720045 0.85134053
-0.062657058 0.056945004 0.32945704
0.72155106 -0.043395642 0.86571622
0.3693637 0.019330956 0.94879794
-1.3999453 -0.13426922 4.9568787
-0.80401051 -0.069818959 1.0586393
-0.86470723 -0.44848615 3.1215079
-0.13447186 0.035288829 0.49935532
0.31703267 0.030924121 0.48007107
0.43152365 -0.13051327 0.9313736
0.21271023 0.028058173 1.0456321
1.1099561 -0.088057801 2.0721753
0.11401811 -0.56715924 4.4467611
-0.3308427 -0.13037233 2.0353868
0.53627634 -0.33608848 5.1084499
-0.82013845 -0.45793152 3.1614878
0.3595356 -0.027186196 1.4759543
-0.86821508 -0.44764769 3.2675898
-0.78853965 -0.30105829 3.0844128
-1.0229185 -0.42743951 3.4012563
1.240014 -0.043719511 2.1419785
0.11207452 -0.56736666 4.4790344
-0.44457802 -0.26358145 2.9758856
1.2358783 -0.044162247 2.1279294
0.50114608 0.21151057 1.0824978
-0.70572233 -0.20743001 1.9414551
0.31617561 -0.093339369 1.2965667
1.1404383 -0.044740994 2.1094291
0.69203198 0.02926157 0.88409972
0.21258304 -0.15377194 0.91782522
0.73453331 -0.090652466 0.86532927
0.73796189 -0.090239093 0.8729372
0.17411342 0.049819015 0.54102278
0.74460673 -0.029159751 0.86379266
0.24502596 -0.16984692 0.99232316
1.0770433 -0.039811965 2.1628859
-0.66429043 -0.43509543 3.2117403
0.21182111 0.052588411 0.37305999
1.3657074 -0.1022698 2.8771837
-0.77623641 -0.29064167 3.6365483
1.0420712 -0.051959876 2.2166536
0.37565866 -0.15858807 1.646167
-0.7641058 -0.28077123 3.0351312
0.1095179 -0.22576347 2.1111782
-0.5850265 -0.19822547 1.2713888
-0.89275229 -0.42647395 3.1048667
-0.18251964 0.046972383 0.61116886
-0.063265145 0.056571767 0.31050444
-0.22057828 0.044557061 0.61640334
-0.49555263 -0.19484606 0.98617578
0.17163888 0.049368337 0.53389573
-0.74574351 -0.091056511 1.7917469
-0.62658286 -0.16396734 1.0231678
0.71175325 -0.090266034 0.87939048
-0.19551972 0.05255603 0.39817882
0.23664466 -0.17211781 0.88369036
1.2940153 -0.11355618 2.2345073
-0.46707484 -0.23291957 1.0268881
0.076559514 0.054709662 0.43459845
0.26957408 -0.28295144 2.2024
1.2635167 -0.042213824 2.1982906
0.3405461 -0.14402156 1.3611186
0.24309149 0.018040625 1.2517321
0.28656933 -0.11957046 1.6811512
-0.5327208 -0.2178503 1.1857221
-0.9275533 -0.41806492 3.20487
-0.21733543 -0.38637933 3.0387137
-0.097131014 0.054848872 0.38519931
0.16936752 0.056754842 0.28932452
-0.7291224 -0.40371493 2.0688107
0.33476737 -0.077430561 1.4303215
0.07325387 0.05594597 0.3158381
0.21499398 0.049709763 0.28030348
-0.57450306 -0.14857641 0.97060943
0.23211667 0.040318668 0.70811439
0.35081324 -0.019869398 1.0508225
-0.5092634 -0.1863049 0.99781871
1.1396667 -0.08948423 2.1356556
0.30642828 -0.036202069 1.2528284
-0.62670851 -0.27221236 3.3727667
-0.78038061 -0.32899714 2.3302829
0.91230381 -0.20518014 1.0630324
0.20381925 -0.1650148 0.93015504
0.85938478 -0.17110415 1.063638
0.43377146 -0.16629711 0.99628711
-0.71299791 -0.35122815 2.9509094
-0.66575778 -0.44812128 3.7624195
0.40782484 -0.14321738 1.3417838
0.35140863 -0.15555723 0.873456
-0.49673232 -0.17973863 1.0006444
0.34667227 -0.058784168 1.4211466
-0.052268267 0.05303476 0.39989662
-0.63806701 -0.007071171 2.5773709
0.12915304 0.055331919 0.29447865
0.71515191 -0.042514484 0.85950613
0.23501447 0.047195274 0.31451035
0.34543917 -0.11372289 1.463835
-0.052648604 0.051076554 0.59895515
-0.16240272 0.060871344 0.37116718
-0.70603132 -0.38474706 2.0594175
0.085233063 0.061748229 0.48783088
-0.70744503 -0.3987163 2.0676196
-0.90795302 -0.24634978 3.1168482
2.0543523 -0.13090615 2.5412757
0.22545525 0.036999732 0.68445611
-0.68426633 -0.3858403 1.9893935
-0.93473566 -0.39831468 3.0940282
0.33200637 -0.1409395 1.3194401
-0.66916454 -0.43853936 3.7334545
0.47136697 -0.1550948 0.97802997
-0.17419419 0.050376337 0.614182
0.46985152 -0.13830277 0.99425244
-0.74604702 -0.079917163 1.3716481
0.37659207 -0.0694267 1.5221655
1.0176282 -0.083053693 1.9824007
0.17276695 0.050048891 0.54669881
0.072634816 0.05582609 0.32000589
0.19810608 -0.1700505 0.87720752
0.31498185 0.031437967 0.47591853
0.21233776 0.052889079 0.3731668
-0.21985015 0.044841282 0.61172605
-0.19591877 0.044364151 0.60394907
0.16134945 0.051903009 0.56934023
-0.80832493 -0.41089147 3.0305836
0.22875211 0.040599566 0.69191909
-0.055245042 0.056508087 0.30474591
-0.17143795 0.058432367 0.32460427
-0.13363388 0.056530416 0.39047384
0.3342714 -0.12665018 0.82995033
0.35008153 0.006024342 1.1699903
0.084227413 0.048445314 0.61911321
0.43750361 -0.08901903 3.4101226
0.31501642 0.017329948 0.91530108
0.36880121 -0.062336463 1.3579562
-0.16453013 0.058595721 0.31292796
-0.70717311 -0.38963872 1.9934909
0.070834547 0.054891374 0.31355333
-0.91846228 -0.24470842 3.1610444
-0.095736653 0.05423598 0.37783575
0.16340485 -0.25614235 4.2085619
0.092269689 0.05242696 0.69458032
-1.0693285 -0.052374829 3.6473887
0.36525944 -0.022958037 1.4302199
0.52533281 -0.16983646 1.0049589
0.29766765 0.036620807 0.52270269
-0.19179896 0.057428863 0.31868052
0.12929526 0.057917491 0.24806142
-0.78689861 -0.0029813945 1.8222349
1.0237597 -0.053238701 2.1806839
0.41609374 -0.17337666 0.98934484
0.073480397 0.056034356 0.31291342
-0.76703548 -0.28341424 3.0790455
0.15340373 0.017254945 1.2138116
0.33648142 -0.12738886 0.84019399
-0.54929614 -0.46614069 3.8682444
3.2707977 -0.5997026 5.0514841
0.45678344 -0.11228386 1.5543683
-0.385658 -0.097764209 2.6188662
1.5222919 -0.071414083 2.1653082
2.0510755 -0.84953886 6.053462
0.67659283 0.027949143 0.85975981
-0.19543573 0.059188411 0.29080486
-0.04534936 0.048310339 0.61991644
0.16140124 -0.19187853 0.86368394
0.31755117 0.024647441 0.4797225
0.40924433 0.036315531 0.56060171
0.71632898 -0.042669777 0.85698581
-0.18141499 0.067316592 0.40866613
-0.80529654 -0.3689844 2.1537025
0.32020232 0.010927953 0.46801448
-0.71173477 -0.48894477 3.1109569
0.29014483 -0.32799682 4.0920982
-0.19976124 0.066399239 0.37873054
0.078118354 0.056392569 0.2677989
-0.76304913 -0.10721964 1.336211
-0.64173031 -0.16475409 0.93954062
0.36656186 0.034804955 0.74103212
-0.19081476 0.042008422 0.75560689
-0.11109075 0.05704939 0.2691071
0.17489681 0.057374757 0.25355005
0.22145167 0.046980686 0.42300081
-0.78988421 -0.0041740462 1.8310535
0.35098967 0.034648672 0.49304891
0.49282691 -0.16217871 1.1246531
-0.78076744 -0.30631399 2.2177088
0.2238948 0.046822917 0.47520566
0.15087101 0.057003602 0.28183818
0.35991564 0.034624077 0.72305465
1.5102121 -0.057333019 2.1784942
0.45557687 -0.17564318 1.0432923
0.74170506 -0.05544607 0.85803318
0.16382971 0.0092860386 1.1272099
-0.54063082 -0.14653154 0.99307561
0.33715495 0.014360715 0.9594605
-0.48456863 -0.18756381 0.95499158
0.30875012 0.037930086 0.48267007
0.082622707 0.061050117 0.34769344
-0.051978648 0.053440299 0.41225362
0.23716268 0.04787565 0.31805634
0.20842603 0.048504267 0.27537584
-0.19902262 0.055112455 0.27619863
-0.65888917 -0.16866581 1.2021239
-0.060766608 0.06075085 0.35630703
-0.17245004 0.040738925 0.93540072
-0.69069231 -0.16497137 0.96795106
0.18665954 0.0097524226 1.0765941
0.24072132 0.029326878 1.2235725
0.40315202 -0.086483121 1.3342001
-0.68237269 -0.16226695 1.0244315
0.40520838 -0.11158168 0.51301646
0.67728126 -0.18425852 1.3183048
0.70633626 0.011840973 0.87584281
0.28530738 0.032857627 0.44365358
-0.18422279 0.042020123 0.71367621
0.12607387 0.035712808 1.2226002
-0.3982636 0.039131068 0.83640575
0.30552432 0.0084989667 0.4770391
0.20899668 -0.20906031 1.5680931
-0.44282576 -0.17279094 0.96653533
-0.053902596 0.050768726 0.56006265
0.25913236 -0.035310719 1.4358127
-0.61370897 -0.36135572 3.9504049
0.37684855 -0.095667019 0.90770841
0.083864659 0.050954696 0.54992676
0.17058143 0.056572959 0.30934501
0.1920934 -0.17424886 0.98312879
-0.8387723 -0.38268343 2.2577126
0.37620905 -0.14177844 1.4059665
0.3849338 -0.13815436 1.3534439
-0.7545867 -0.0013030544 1.7438681
-0.17785773 0.04615498 0.59603071
0.37324223 -0.15608117 0.76353121
-0.54220259 -0.14687055 0.99487901
-0.14948377 0.059224118 0.26997089
0.22336081 0.042375624 0.31969833
0.074831814 0.053811595 0.42387962
-0.45353666 -0.20602518 1.0098221
-0.19027808 0.058335207 0.29313493
-1.1117961 -0.12019959 1.8468373
0.22842714 0.039076243 0.72446299
-0.053132981 0.055464089 0.43343949
-0.16166833 0.060121566 0.32963967
-0.13759968 0.035725586 0.70058823
0.13776717 0.057254814 0.33347011
-0.062569708 0.056010842 0.44363594
0.52684152 0.037616916 0.59940195
0.17714974 0.051210694 0.55174756
0.22026286 0.049730849 0.35054874
-0.063925982 0.057019737 0.31111813
0.36857429 -0.084428519 1.3272297
0.22679815 0.04690817 0.48078012
0.30034879 0.037807297 0.4394455
0.62413609 0.024189083 0.7869103
0.21093902 0.052614942 0.37008476
0.4026666 -0.16130897 0.75725627
-0.88286233 -0.16829394 2.0103562
0.30089244 0.036633182 0.53053188
-0.36398205 0.049179729 0.88920879
-0.46089891 0.045100827 1.0223205
0.44005451 -0.12259707 1.0276029
1.5204366 -0.066971526 2.1590335
0.14181319 -0.13631624 0.72815228
-0.05531022 0.051260967 0.55243683
1.1640377 -0.29673713 2.9180105
0.3722035 -0.064698756 1.3562391
0.22098467 0.042162143 0.53408909
-0.044417679 0.047560278 0.61453104
-0.51237237 -0.20339388 1.0249193
-0.77771413 -0.095782161 1.8356388
0.081520885 0.03678637 0.68602133
0.18455765 -0.20417702 1.5235107
0.31072423 -0.056611028 1.5260766
0.23001567 -0.16699381 0.8564868
-0.7451036 -0.011541802 1.9131777
0.8930217 -0.20339319 1.0611379
-0.7134372 -0.39655486 2.0206463
-0.68811202 -0.16629182 1.0375202
0.39637932 -0.11904646 0.54288054
0.9019382 0.28379449 1.2143962
-0.79257798 -0.32330468 2.1122153
-0.18171307 0.060516533 0.33729625
-0.693645 -0.27330771 3.2888577
2.187851 0.92080832 4.0495949
0.072314501 0.051975235 0.39236832
-0.67068326 -0.16935651 1.2123268
-0.79728031 -0.53056192 3.8485281
-0.64551806 -0.31006446 3.4540055
-0.67567754 -0.39674774 3.6388576
0.22805759 -0.080161899 0.72367978
-0.77286172 -0.092559919 1.8453233
0.34857658 0.033443805 0.57821321
0.28818443 0.0092809945 0.43640399
0.31716701 -0.048376713 0.47212148
-0.48854026 0.04220625 0.86224103
0.3066158 0.015196417 0.78544641
-0.56963217 -0.20231135 0.98141456
-0.45898923 0.06143434 1.1106579
-0.17783889 0.058671735 0.31996202
-0.11043698 0.056550402 0.26674438
-0.48686573 0.035643112 1.0891092
-0.16345486 0.064450331 0.42120981
-0.11054274 0.057585206 0.31334424
-0.14664754 0.059348878 0.38773274
0.20628944 0.040180545 0.49966383
0.3040854 0.030115202 0.45882344
0.39357617 -0.17510162 0.77518439
0.20718822 0.056067877 0.27602363
0.066921741 0.050764516 0.27691603
-0.52294791 -0.17276077 0.9684217
-0.18028161 0.042694256 0.8967371
-0.073220879 0.052659839 0.52155542
-0.063740551 0.055036254 0.34969497
0.41581979 -0.11315806 0.52690268
0.066974312 0.053017601 0.28552794
-0.32918301 0.046405911 0.58504486
0.3770043 -0.11715114 0.5418117
-0.5096674 -0.18356782 0.98285794
-0.19485661 0.045514535 0.61028814
-0.13908765 0.05831857 0.37073803
-0.6897099 -0.16479637 0.96824384
0.1399307 0.03305684 0.17734075
-0.53276253 -0.22013074 1.0360968
-0.066462606 0.059236705 0.32471633
0.87037921 -0.22295886 1.031235
-0.67516911 -0.1391905 0.88793039
0.31473562 0.034789089 0.48136353
0.8948338 -0.20170988 1.0388415
0.21594873 -0.15978855 0.88382316
-0.043364435 0.045588516 0.2898581
-0.46553209 -0.20250347 1.0176218
0.1363332 0.056436673 0.25199938
-0.14603826 0.058330171 0.38197088
-0.53431296 -0.19938526 0.98079228
0.40627179 -0.11049297 0.51311183
0.30994132 0.034214105 0.47290134
0.31948259 0.01077519 0.49181175
0.14023796 0.05413074 0.35388875
0.14315334 0.055368982 0.36374664
-0.53491938 -0.19909707 0.98579431
0.17378882 0.057875086 0.26785445
0.0040588975 0.058028497 0.35865808
-0.17791364 0.051529124 0.62878728
0.18836227 -0.13677 0.91363597
0.18294784 0.010343451 1.0476797
0.71926987 -0.057238597 0.88186431
0.72834253 -0.049313363 0.88163638
0.28567299 0.0092278644 0.43742776
1.333762 -0.17469849 1.8110507
0.3749204 0.013053555 1.3273976
0.22320548 -0.18517354 0.87841678
0.41076437 -0.093849719 1.3468554
-0.052301109 0.054675363 0.36023283
0.33370057 0.015273757 0.94748664
0.10492691 0.049480636 0.8853662
-0.75128579 -0.052046228 1.7802503
0.2323536 -0.16249073 1.1239998
-0.61711729 -0.28400439 3.2056491
1.0088717 -0.24604753 1.9637129
0.22765616 0.026615081 1.1569798
1.2277478 -0.14330879 2.9053609
0.74301636 0.021388695 1.2450621
-0.81549096 -0.30521378 3.2389286
-0.090173125 0.042491741 0.49831557
-0.12489215 0.036090538 0.91263199
0.071475863 0.057194345 0.31875849
-0.033911079 0.044338427 0.88133216
0.24864414 0.0514443 0.45287323
-0.88388586 -0.39235154 3.0976455
0.53368521 -0.0444167 1.8229225
-0.66303658 -0.55353421 4.7232208
