# .PCD v0.7 - Point Cloud Data file format
VERSION 0.7
FIELDS x y z
SIZE 4 4 4
TYPE F F F
COUNT 1 1 1
WIDTH 521
HEIGHT 1
VIEWPOINT 0 0 0 1 0 0 0
POINTS 521
DATA ascii
2.283143 -0.08998435 3.4886212
0.14334404 -0.017984772 1.9371743
0.43403614 -0.091616869 3.3043399
0.19477093 -0.20659965 3.8230147
0.16027349 -0.38587365 4.0395665
0.19945157 -0.20863223 3.9133239
-0.54306036 0.031687908 0.7973392
-0.27944314 -0.21567607 1.3573167
0.19447333 -0.18821801 3.778635
-0.58065838 0.027367212 0.80695081
-0.58576858 -0.10787854 0.83585405
0.18839985 -0.37340745 3.9002466
-0.51653659 -0.10827556 0.79277873
-0.85667533 -0.086989015 1.3713341
-0.47665793 0.042848106 1.0855625
-0.53934056 0.023250371 0.79235363
0.11280376 -0.023829559 3.5921779
0.15538543 -0.33927029 4.2715702
-0.33398509 -0.23475991 1.2835248
-0.33146912 -0.22280537 1.7977095
1.2017138 -0.28881013 2.9201913
-0.20656919 0.057182044 0.31435323
0.95315593 -0.13965251 1.2150748
0.47703105 -0.020548793 1.9598889
-0.29429281 -0.1727872 1.2961578
0.016907513 -0.44060451 4.4062052
0.35035205 0.036057852 0.66856956
-0.51638472 -0.1091255 0.79078436
-0.52224272 -0.056962661 0.77893138
9.7339563 -0.41143683 16.348629
0.37570816 -0.34606054 5.1928334
0.98697281 -0.024493625 2.5732689
0.23697919 0.041258432 1.3708901
-0.93701833 -0.085957743 1.1644838
0.28156841 -0.26313207 1.5097544
-0.54514605 0.034654673 0.80400229
-0.37471819 -0.17007114 1.2905912
0.43081003 -0.1757357 5.2887611
0.1167196 -0.43101656 4.1207509
0.1146937 -0.44496831 4.2357974
0.77078539 -0.016156988 1.4315953
0.22210124 0.056645393 0.35504055
-0.73950803 -0.050351977 1.7550182
0.31886446 0.02619544 1.7226286
0.6926176 0.0337785 1.2301879
-0.51516187 -0.10706741 0.79189205
0.083959639 0.060516402 0.38229704
0.49046791 -0.15252542 0.87096786
-0.5852499 -0.10726843 0.83451557
0.42162544 -0.19069783 1.7917929
-0.54247576 0.023980394 0.80007625
0.36225992 -0.1375207 3.0961709
-0.21390522 -0.27480635 3.3114047
-0.43336099 -0.46799085 3.6317401
0.61383045 -0.081275895 2.4775586
-0.72797734 -0.046510004 1.7513776
-0.71264118 -0.066169776 1.655848
0.33429152 -0.10398456 1.5710287
0.58522099 0.042688005 0.73472667
0.68024838 -0.014489362 1.0227058
0.30483299 -0.16758969 1.1720738
1.2204471 -0.039512008 2.868751
0.58232462 0.043107558 0.72892451
2.1094038 -0.54204929 5.9631686
-0.83670169 -0.07487154 2.2869473
-0.41569859 -0.44975412 4.1697497
0.64624333 0.033497572 0.78934884
0.65582407 -0.032573283 0.93030024
0.87486625 -0.145069 1.3951764
-0.65787345 -0.19278017 1.5548184
-0.40058148 -0.21867219 1.1291199
1.1135695 -0.023357728 2.7081103
-0.51249921 0.022540722 1.177829
1.3693316 -0.22215512 3.0891252
1.4555943 -0.25383377 3.0968804
0.29064238 -0.29848444 1.529417
0.77897614 -0.026827822 2.5629125
-0.38622838 -0.43871993 3.6577601
-0.57894582 -0.13992715 0.86292005
0.22161132 0.056829698 0.35191417
1.0930645 -0.29328716 1.6943121
1.0481727 -0.26159489 1.5343466
1.0228001 -0.26134479 1.4948711
-0.53622049 -0.13376138 0.79324508
1.0922264 -0.28974837 1.6851044
0.84767199 -0.036568798 1.4481144
-0.62143469 -0.15251867 1.6165719
-0.40123791 -0.23129164 1.3932281
0.24394286 -0.24227373 1.5020988
-0.046838537 0.057589006 0.37265539
-0.73001462 -0.076805674 1.6083035
1.0446597 -0.18177857 1.6778092
0.3743329 -0.17604603 1.783761
-0.48274249 0.041871164 1.1027353
1.1479652 -0.24663939 1.7926192
-0.856929 -0.16398272 1.9432721
0.2434983 0.051048994 0.71476674
-0.53634793 0.010268157 0.79438853
1.023654 -0.18720508 1.6266737
1.1614275 -0.22425227 1.6828647
0.44655049 -0.12043751 1.6268063
0.097014368 0.05452919 0.60349464
1.3787553 -0.28373042 3.0058084
0.30267853 -0.23312579 2.3634577
-0.85079831 -0.07557977 2.3444443
0.25105044 0.053127505 0.63894844
1.0519696 -0.20094386 1.6951833
1.1297419 -0.24235265 1.7593026
-0.76722282 -0.097859301 1.6628881
1.1270946 -0.34675771 1.6639028
-0.53553897 -0.063302241 0.79500103
0.28486687 -0.26568872 1.528497
-0.58402997 -0.1380574 1.5001988
0.27987802 -0.20868281 1.4370759
-0.42125434 -0.43838805 4.1317897
0.11994398 -0.0023468398 1.1670418
0.60901588 -0.030265773 2.2851028
0.84100854 -0.064055257 1.486068
0.52653801 -0.14202254 1.1217065
-0.51725119 -0.10766547 0.79536891
-0.12477651 0.06031967 0.32289934
0.83586925 -0.084439136 1.4573429
1.2155988 -0.23628311 1.7692056
-0.34328777 0.051870272 0.81323957
0.22591236 0.057346433 0.45042324
1.1129086 -0.3430874 1.6387401
-0.52992666 -0.04253345 0.79637265
0.38928479 0.020044046 1.1183798
0.5026139 -0.15113938 1.3672979
0.8253513 -0.038114682 1.4080491
-0.66379398 -0.19276318 1.5701313
-0.46822876 0.045811921 1.1191142
0.24879006 0.052691996 0.72943258
-0.51800507 -0.05790171 0.77434683
-0.52242923 -0.075852238 0.79428792
-0.34285063 -0.2915 1.4099064
-0.81490332 -0.085874729 1.7174835
-0.52453834 -0.057203509 0.79010367
0.39564061 -0.18849044 1.6106544
0.28073835 -0.20738141 1.4261334
0.22396743 -0.23431839 1.5198107
0.22572541 -0.23735873 1.5430737
-0.037908345 0.055447094 0.55101895
-0.8295756 -0.21138437 1.1922383
-0.53619379 0.021555128 0.9478209
-0.87276751 -0.17350391 1.1320288
-0.21026134 0.053683601 0.30018234
-0.53159612 0.026670344 0.83294773
0.8403883 -0.034723699 1.4250402
0.36490405 0.040109251 0.88447714
0.48531163 0.04179211 0.64461517
1.2036834 -0.23125418 1.7617512
-0.40576488 -0.21797864 1.1922619
-0.39946723 -0.27522552 1.2625642
1.0919594 -0.28568581 1.6800156
-0.10894322 0.057372592 0.43860769
0.012157261 0.059519216 0.32077312
0.012084723 0.059348978 0.31336498
-0.34457517 0.051979631 0.91288662
-0.32327902 -0.28963959 1.3432267
0.29410362 -0.19659506 1.0561461
1.5690191 -0.13125578 2.7024941
0.011396825 0.058650121 0.30505109
-0.7153663 -0.11703356 1.6563363
-0.21350741 -0.1326281 1.6702914
1.0130976 -0.25287476 1.5651898
0.29710293 -0.17726593 1.6442356
-0.69386488 -0.14321777 1.6049685
0.28988516 0.035426542 1.6869373
-0.046147704 0.057603143 0.38007641
-0.056022808 0.059894092 0.41353393
-0.52595139 0.024484169 0.85450315
0.33863604 0.03664431 0.44551015
-0.87428612 -0.21591558 1.063457
0.63952267 0.040341146 0.79453182
-0.51474082 -0.10402053 0.79130459
0.54504263 -0.039593779 2.6034536
-0.70406193 -0.083554834 1.6411347
-0.57085186 -0.13320149 0.79884362
0.64060736 0.030185254 0.765136
0.28918505 -0.27390978 1.6876488
-0.40238047 -0.20533751 1.1416709
0.34976304 -0.26061282 1.9596224
-0.32081288 0.04913649 0.74404812
0.22606245 0.057456437 0.45093369
1.1233804 -0.14959025 1.5906777
0.40720028 0.023827584 1.1297874
-0.32846057 -0.21084598 1.4454103
0.23788941 0.052807771 0.5999167
-0.52040511 -0.084567852 0.79322839
0.084903598 0.059057899 0.38998652
0.22525981 0.054834414 0.47965336
0.29098147 -0.19664922 1.0544493
0.53382862 0.042941198 0.74868631
1.0511845 -0.16733797 1.5228324
-0.53933686 -0.080930658 0.79389977
-0.73539883 -0.078528561 1.6124616
-0.36864328 -0.20995261 1.2812138
0.29616374 -0.17484106 1.620295
0.40459299 0.016501872 1.1677186
-0.33423895 -0.20879382 1.8199759
-0.20877537 0.053483628 0.29710269
-0.20005423 0.057008371 0.31093502
0.25232989 -0.16978452 1.3970203
0.14985564 0.059960246 0.31148458
0.079272896 0.059297428 0.26834679
-0.2027747 0.057904921 0.3198092
-0.58712727 -0.16163984 1.3187337
0.16619986 0.05619074 0.54105926
1.2109797 -0.040918648 1.713336
0.29234415 0.050568752 0.42889047
-0.86458868 -0.21631287 1.1162078
-0.16862077 0.044352509 0.94441938
-0.06010358 0.060148902 0.27018595
2.3437994 -0.075098999 3.7236042
0.29889339 -0.15711513 1.617672
-0.036902577 0.057000946 0.58896971
0.22025511 0.058581606 0.37526989
0.64556694 0.020817135 0.79113531
0.21998328 0.057980482 0.25674939
0.39354265 -0.15382984 1.3884234
-0.75240946 -0.051481053 1.7845078
0.39630067 0.01629135 0.79862738
1.8369427 -0.068476431 2.9400964
0.138859 0.059900053 0.31617618
0.42144519 -0.1333555 0.78241706
0.22565594 0.055402294 0.47862196
0.38173902 -0.0062272791 0.72064734
-0.53412348 0.030351041 0.66053939
0.2940661 0.049912639 0.35673761
0.3567917 0.03982342 0.67661309
0.15013403 0.060190022 0.30985284
1.1887889 -0.2417215 1.6086702
-0.50809789 -0.16113006 0.70623398
0.58855432 -0.018058727 0.72972274
-0.4878667 -0.1074231 0.7466383
0.22046638 0.058488518 0.25748348
-0.38430268 -0.26629764 1.2221286
0.8127318 -0.030369895 1.4530606
-0.54492074 0.049771063 0.75070333
-0.33611804 -0.25872687 1.209938
-0.65201771 -0.11941303 1.7362099
-0.60947049 -0.080397941 1.4102156
0.30208647 -0.26370534 1.5227838
0.47697705 -0.1437854 1.9848466
-0.37270695 -0.21327861 1.3131406
-0.22305471 0.034005068 0.93116426
0.078903437 0.05913686 0.27025294
-0.13153476 0.058157794 0.41304684
1.488833 -0.35796577 3.0574174
0.28296047 -0.1610269 1.5344274
0.29262602 -0.20992483 1.0365701
0.64810598 0.039572306 0.89540052
0.36882728 0.040907294 0.89605737
0.35027289 0.037885413 0.66791177
-0.047983199 0.060712896 0.41266441
-0.17903456 0.041823771 0.81178927
-0.1837222 0.043229736 0.83365464
0.38341522 0.042674936 0.93440914
1.2669444 -0.2493159 1.7645435
-0.72419327 -0.12056843 1.6735597
0.83647448 -0.034621999 1.4124799
1.5428736 -0.28373855 2.8665848
1.1831789 -0.15619077 1.3862669
-0.48882347 0.034464184 0.95481586
0.29404002 -0.14887089 0.73884201
1.0600575 -0.15920146 1.4095724
-0.53305674 0.035044238 0.78239441
0.22801614 0.029881123 1.7107863
0.44295025 -0.11862489 1.5930996
0.084214002 0.058803692 0.3894968
1.0853491 -0.28140602 1.6637402
0.51404822 -0.15297681 1.3986168
-0.062904239 -0.083585359 1.0014417
0.18754029 -0.2024025 1.8864202
0.59336972 -0.17448162 1.4518561
-0.63580698 -0.18118614 1.4928603
0.082710743 0.057918362 0.38088799
0.2207717 0.05707515 0.34982514
-0.57973778 -0.13575912 0.8161447
-0.53459424 -0.070537224 0.7898581
-0.33701664 -0.3066287 1.3181281
1.2291887 -0.23846795 1.7194605
-0.38722849 -0.22967081 1.3254151
1.223541 -0.056052238 1.7117987
0.28666914 -0.26511371 1.4042227
0.2467773 -0.22416078 1.5423529
1.4514062 -0.10057297 3.6334987
0.25597039 0.054270677 0.76171398
-0.10692674 0.056123361 0.42512155
0.24205947 -0.21768148 1.5572655
-0.020571351 0.050447628 0.762182
0.29464126 -0.15840654 1.569767
-0.32512081 -0.20410173 1.4231875
0.64372391 0.030341575 0.77236056
0.13924778 0.05680763 0.38759995
-0.48438829 -0.14193489 0.67734742
-0.57186502 0.027655099 0.7887125
0.27904868 0.048246004 0.4600811
1.0686126 -0.23241626 1.6588097
-0.15819678 0.056456603 0.55017924
-0.54442084 0.024485251 0.93090487
-0.45919573 -0.13680513 0.71262264
-0.50516272 0.041933037 0.7891922
1.0958991 -0.14063641 1.4105873
0.43457824 -0.13173386 0.70473289
0.26387802 -0.13643773 0.58652449
-0.57717842 -0.10598493 0.82411766
0.017640203 0.060037971 0.30981541
-0.13931942 0.068248525 0.35259843
0.38851407 -0.14962783 0.72101426
0.33306092 0.029854281 0.64889908
1.0118581 -0.1257291 1.5693889
0.31593031 -0.23638628 1.0535674
1.0747886 -0.23367895 1.6705832
0.29895645 -0.19863884 1.0725896
0.44075212 -0.17063855 0.76665092
0.57850242 0.04260274 0.7283752
-0.4824236 0.04893104 1.0062735
-0.13499144 0.066069074 0.30731225
0.52513951 0.024270851 0.89566946
1.1477346 -0.18060182 1.386781
1.212013 -0.12829641 1.3799369
1.7286313 -0.067462139 2.7564445
1.0139661 -0.16217691 1.4644341
0.27659959 -0.33366907 1.5819516
-0.47340584 0.0094269887 1.3156865
-0.877891 -0.21770926 1.1355803
-0.49379307 0.025324805 1.2249067
-0.15166962 0.060077906 0.38372326
0.39741385 0.0033488087 1.3953633
1.1868408 -0.2313623 1.6615705
-0.77481699 -0.083305269 1.6991782
1.0681248 -0.18496199 1.5713067
0.29419947 0.029000659 1.2298539
-0.73225993 -0.067125134 1.6140275
0.46670431 -0.14140369 1.9401531
1.9334927 -0.068907522 2.9322968
0.45429277 -0.11649176 1.9971485
0.26669538 -0.23061205 1.5217912
0.24315304 -0.21232687 1.5384958
-0.48649472 -0.00086839125 1.295943
-0.040195882 0.056371048 0.56262922
-0.39226979 -0.27035195 1.2410419
0.81149894 -0.080265783 1.404979
1.8169577 -0.070241466 2.8954835
0.11684564 0.055158794 0.81927228
1.9882402 -0.073798351 3.0157161
-0.52196449 -0.075465173 0.79445267
-0.50648594 0.010591859 1.3644865
0.27246118 -0.16852766 1.5342703
0.22566277 -0.17537208 1.8441124
1.0017235 -0.26789749 1.6401849
0.31171387 0.03456375 1.3177395
-0.082325786 0.056861125 0.54366779
-0.20363921 0.030268207 0.83744884
-0.64625102 -0.18422647 1.5137463
3.458704 -0.14705375 5.2641196
-0.38089281 -0.30215374 2.5769472
-0.19737825 0.060624674 0.2514503
-0.060309321 0.059900895 0.26741457
0.30357823 0.051512301 0.37261724
-0.1221481 0.059255004 0.31733704
0.12684551 0.053405948 0.3094728
0.38200653 -0.13523412 0.70433259
-0.074269474 0.061697051 0.27200556
0.13765585 0.05981791 0.30176091
-0.073157728 0.060044743 0.26530981
-0.15126735 0.060681202 0.3917675
0.21900797 0.059003763 0.2729075
-0.19980186 0.055555113 0.35290694
-0.34764779 0.052861612 0.92623281
-0.54494947 0.011446053 0.80813098
0.012489289 0.060056552 0.32663989
1.1490881 -0.26600447 1.3525031
-0.10593036 0.056598905 0.42966962
-0.11309731 0.06164109 0.28083849
1.0894293 -0.16595414 1.4827492
0.3235237 -0.1859045 0.96506214
0.57215238 0.041163169 0.72416949
0.20928398 0.053867981 0.40827322
0.44261247 -0.13181618 0.72182393
-0.13467008 0.059771784 0.43213701
-0.48057508 0.051018313 0.63105106
0.37801358 -0.13304655 0.69560885
0.3277519 -0.13328348 0.63502812
-0.35614485 0.055672944 0.54654074
0.2286222 0.056023307 0.42398453
0.3345167 -0.13514811 0.65071154
0.22227141 0.059495702 0.27790785
-0.12343413 0.056626447 0.38676047
-0.047090471 0.059994824 0.40693235
0.22403401 0.057698019 0.35439372
0.22222781 0.059592851 0.27789164
-0.17155582 0.057747047 0.53446126
0.35788181 0.040372718 0.67823768
-0.013874784 0.059779882 0.29628444
-0.34495002 -0.26538152 1.2432683
-0.046793878 0.058974765 0.39646411
0.51033992 -0.14853668 1.1837332
0.99617922 -0.1778501 1.4461768
1.1915646 -0.13653354 1.718873
0.83573014 -0.065877564 1.5686092
0.30098191 0.043355435 0.58895183
0.82071757 -0.21730588 1.3163006
0.018148869 0.060101129 0.24797654
-0.58380383 -0.13676015 0.82400012
1.0800935 -0.28641292 1.7810426
0.26513171 -0.24579979 1.5160549
-0.51638722 -0.088961743 0.79180288
-0.53254157 -0.12781422 0.88609195
1.2410071 -0.056798302 1.7395649
0.37674165 -0.0099454764 1.2407579
-0.043346137 0.053552397 0.49064231
-0.52188504 -0.076676063 0.7941401
0.35768351 0.03897287 0.69039369
0.096572608 0.054557309 0.60879397
0.47591734 -0.18798004 1.7272816
1.1342528 -0.29152912 1.801259
0.16251224 0.042998642 1.2516217
-0.14869037 0.051917948 0.9125917
0.14071512 0.048341975 1.0656815
0.46107572 -0.13754545 0.74770808
-0.53368956 0.034901522 0.78308797
0.306391 -0.36377904 1.5932007
0.29622734 -0.17481223 1.4961133
7.6800585e-05 0.045828667 0.96374059
-0.5384804 0.0044281837 0.79765701
-0.02360329 0.052118272 0.79459453
0.32358813 -0.36342558 1.5737391
0.84706569 -0.088883169 1.4825747
-0.19816172 -0.13346411 1.1497257
-0.53592497 0.016043905 0.84132361
0.21887219 0.057761684 0.34474063
-0.5231787 -0.041391492 0.78466749
-0.50706506 0.042021438 0.7932322
0.14542225 0.061284587 0.28397441
0.08945629 0.054147229 0.48869848
0.35499504 0.01978448 0.66641426
-0.5459519 0.034851797 0.67794657
0.77895212 -0.031584352 0.92596245
-0.19417861 0.055954099 0.31573033
-0.12038249 0.062294871 0.26621771
-0.085784733 0.061006747 0.5620172
-0.046476707 0.060635172 0.32901573
0.44033074 -0.15019214 0.71375608
0.051912308 0.059473462 0.31289077
0.00066024065 0.063073754 0.26336002
0.093809932 0.056831375 0.52141714
0.39599466 -0.14066872 0.73532391
1.2021627 -0.17234197 1.6073465
-0.05415082 0.058322243 0.39700103
0.38218099 -0.11502508 0.71525407
0.16658336 0.067123167 0.34716654
0.32951039 0.018549629 0.61488557
-0.57719815 -0.10674133 0.81841516
0.28833014 -0.19126436 1.0297854
0.16773841 0.057113573 0.43003511
0.081519306 0.058602177 0.30026269
1.1502759 -0.16092063 1.3651006
0.22766855 0.050631344 0.57415581
0.38607332 0.020133492 0.71999598
0.34538257 0.039334502 0.64981651
0.0043159425 0.058024943 0.29177952
-0.0057248175 0.061835267 0.2861104
0.24672982 0.054810554 0.6247313
-0.46138579 -0.16011995 0.82159305
0.13850921 0.058580391 0.26650071
0.75912398 -0.029799474 0.90013933
0.3143779 0.043613553 0.83457422
-0.48214805 -0.13894765 0.67550135
0.47699493 0.036538661 0.72942162
-0.096147805 0.05712042 0.5036006
0.23769322 0.053164773 0.59922767
1.1907811 -0.21088842 1.4017079
-0.05252336 0.060813621 0.27164388
0.70765662 0.031110005 1.2452183
0.30051985 0.052029397 0.3678813
1.0579625 -0.1881471 1.4011002
0.22051895 0.057933412 0.36927581
1.4763055 -0.055258378 2.3574162
-0.23865652 0.050479531 0.89497018
0.284114 -0.23748027 1.0876439
0.40811822 -0.1205812 0.76402402
0.30824059 0.035886418 0.84053326
-0.045175105 0.058730528 0.2883904
-0.081974894 0.057805665 0.52692723
-0.70186883 -0.063138515 1.6298819
1.0942469 -0.27644062 1.707603
1.1376243 -0.20308068 1.513041
0.18255171 0.056120776 0.72216487
-0.53642398 -0.12834254 0.89497685
0.43121368 -0.14103332 0.71131277
1.146561 -0.023667431 2.8051105
-0.37895644 -0.21813816 1.3130994
0.41422909 -0.072389357 1.5127132
-0.53646225 -0.071710497 0.7947185
-0.37033778 -0.26691023 1.3938236
0.25588459 0.052069873 0.85658288
-0.046823591 0.05736677 0.53822064
-0.11525834 0.056456722 0.28551817
0.31598675 -0.22075696 1.4106596
-0.54842293 0.024042744 0.94093871
0.13550866 0.04671479 1.0223155
-0.55241066 0.010419806 1.6612115
-0.045761853 0.067494549 0.68639684
0.15915185 0.042438705 1.229274
-0.70029241 0.030469265 1.6913562
0.44386727 -0.04634659 1.5763192
0.48835272 -0.072663814 1.8718209
0.25921285 0.050766625 0.83092237
-0.64741331 -0.11438004 1.7144089
1.0483754 -0.18710485 1.5241942
0.28685701 -0.15283988 1.5376961
-0.53374463 -0.05438181 0.79141045
-0.024700731 0.053752307 0.8173933
0.22422338 -0.11804584 1.3391063
-5.385437 1.5056599 6.8382897
-0.054143012 0.047526836 0.76350379
0.65809041 -0.0810652 2.2335019
2.1318407 -0.14221758 3.0496383
