# .PCD v0.7 - Point Cloud Data file format
VERSION 0.7
FIELDS x y z
SIZE 4 4 4
TYPE F F F
COUNT 1 1 1
WIDTH 520
HEIGHT 1
VIEWPOINT 0 0 0 1 0 0 0
POINTS 520
DATA ascii
1.3461574 -0.07389839 1.938859
0.069827765 -0.19608578 3.5518446
0.32993546 -0.082617529 3.1472025
0.068598121 -0.19637267 3.5988898
0.026336998 -0.37545434 3.8039036
0.070568949 -0.19708429 3.6528192
0.0692406 -0.18021736 3.631074
0.78408873 -0.053537168 1.2398345
0.060337573 -0.35950118 3.6195822
-0.53830791 -0.16468553 1.1635418
0.0025900304 -0.011236852 3.0742521
-0.013109416 -0.002668025 1.9894276
-0.40631291 -0.22316815 1.6333737
1.1937251 -0.24559309 3.4059663
0.37986502 -0.16792886 1.4682102
0.74854159 -0.049783193 2.2356668
-0.13563988 -0.44210345 4.333323
0.79920936 -0.064080842 2.3523936
1.2346438 -0.33971122 3.4420052
-0.68075514 -0.013646128 2.6535192
0.75247133 -0.048389532 2.2596612
0.20510963 -0.33420193 4.9968281
0.9016788 -0.01784387 2.3441763
-0.51813221 0.040937088 0.70092511
0.20581904 0.044435553 1.2431569
0.23122153 -0.25477582 1.2444477
0.25636771 -0.16085301 5.0379543
-0.018220574 -0.41118813 3.7717676
-0.024084896 -0.43354833 3.9917474
0.79006565 -0.26157603 1.6752667
1.2063355 -0.17530654 3.2941985
-0.38589928 -0.31201369 3.7658014
-0.5719322 -0.47104219 3.5045705
-0.818542 -0.041649975 1.5635524
2.2072494 -0.082654394 3.6221313
1.0557595 -0.01740911 2.5614986
-1.8228843 -0.15707012 2.70226
-0.7592603 -0.058484755 1.3580766
0.61422217 0.03721657 0.88978028
0.93987393 -0.25730199 1.4039807
0.32923529 0.041704468 0.41780686
0.0055976212 -0.37200272 3.6398101
0.23823455 0.01272857 1.4886899
-0.8384831 -0.04426346 1.6018291
1.0338218 -0.014509199 2.5250144
1.0290804 -0.016072186 2.5020046
1.4630597 -0.25011101 3.5124931
1.1477572 -0.073976316 2.1028128
1.1581604 -0.30355015 3.1001782
-0.52820206 -0.4440932 3.5659914
1.0439643 -0.2853466 1.4781694
0.92656779 -0.25904676 1.3831415
1.1182665 -0.27800468 1.860321
0.79982221 -0.031599455 1.2167616
0.19654766 -0.23836006 1.2692447
-0.51709461 0.047754377 0.8285377
0.41341081 -0.11986975 1.4893875
0.07919085 0.05888176 0.35715985
-0.93046546 -0.066493787 2.0691733
0.33439544 0.023703115 0.42173243
1.1611408 -0.18727754 1.4528222
1.0960708 -0.20565598 1.5627322
0.97257018 -0.19220187 1.4201818
1.7539401 -0.24342062 2.4518418
-0.83239615 -0.090427488 1.4092908
1.1943979 -0.25285026 2.3199115
-0.69537735 -0.14469518 1.418026
0.2361376 -0.2055656 1.2126944
-0.56053209 -0.42948374 3.8947644
0.24271062 0.013439035 1.5036421
0.76979303 -0.055154957 1.2018363
0.23379454 -0.15644595 0.85285187
0.47370514 -0.12776749 0.8497622
0.98127401 -0.12698951 1.3783269
0.20924154 -0.0034778044 1.566236
0.40567681 -0.0091454703 1.192513
0.23801014 -0.20498376 1.2081752
0.17511627 -0.23049249 1.2873428
-0.74004889 -0.09642598 2.4178786
0.33762708 0.040796615 0.41363335
1.0373077 -0.28043011 1.4605527
0.98022401 -0.25668821 1.383791
0.23828217 -0.16747275 1.3497415
1.3114495 -0.4536874 3.2125607
0.4731603 -0.1484067 1.1902897
-0.746822 -0.072130732 1.3344178
0.22263172 -0.25412354 1.3444204
0.36724791 0.029867556 0.8696506
-0.44764963 -0.16207297 0.94225955
-0.56344473 -0.28677812 2.4337807
0.25167403 -0.28450325 1.2639103
0.22733536 -0.17950918 1.3202252
-0.67373109 -0.16587532 1.151391
0.14901009 0.05979459 0.28587317
0.242973 -0.14858691 1.3423743
-0.63598812 -0.020387782 2.0037012
0.33098331 0.043287411 0.41799045
0.92248142 -0.025485313 3.3590412
0.25425753 -0.25991848 1.2896113
0.40975872 -0.13581137 1.728188
0.33143201 0.019701207 1.749855
0.23731807 -0.15639324 1.3177724
1.889829 -0.11403856 3.289278
-0.20503551 0.046987973 0.54782319
-0.77653885 -0.11224807 1.3886604
1.0464427 -0.16029155 1.2394373
0.32942924 0.042722635 0.4266026
0.40292862 -0.014315004 1.2995663
-0.39210936 -0.17300099 1.1460645
1.0464953 -0.28052455 1.4714036
0.46210203 -0.14491044 1.1337616
0.14898065 -0.24446692 2.1502576
0.54342127 -0.16927923 1.2069426
-0.69694924 -0.17595834 1.2440116
1.1002872 -0.2722556 1.4857507
1.2489609 -0.085271992 3.3871551
0.20318809 -0.22559315 1.3569016
0.22262326 0.055599235 0.47078729
0.98029315 -0.22115132 1.3761592
0.96980298 -0.15757912 1.2474191
-0.54223931 0.032054797 0.97565269
1.4624711 -0.41249263 2.5007725
0.46172616 0.0082267877 1.6479392
-0.78054702 -0.064003907 1.323483
1.7399352 -0.060471065 2.5712008
0.19312897 -0.20654695 1.2897139
0.088783324 0.057922773 0.53162289
1.7993035 -0.06472183 2.66857
-0.56231534 0.01613348 1.1281719
0.95331037 -0.26529428 1.4277635
0.24021152 0.014284732 1.511251
0.27745625 0.040868677 1.1166134
0.41295192 -0.10941968 1.8715758
-0.70775402 -0.17843527 1.2648182
-0.36994448 0.05718217 0.63781261
1.0237968 -0.15875787 1.2343588
1.0316522 -0.19710082 1.437664
0.4643878 -0.14185455 0.92197537
0.21812239 -0.24268295 1.2865889
0.078571975 0.058673993 0.35888648
0.77224052 -0.065261528 1.2297161
1.0319304 -0.27390829 1.5030165
-0.17426988 0.056056276 0.63380098
0.1031698 0.053900734 0.76575017
0.21547171 0.035004761 1.4916987
-0.46227762 -0.24748562 1.6826158
0.26374212 -0.18090151 1.3670092
-0.43654105 -0.20438905 2.1241751
-0.031127572 0.05151803 0.72481656
-0.047109783 0.055996209 0.51744342
-0.7392621 -0.059776612 2.2347517
-0.74090803 -0.060401268 2.2337637
0.62256289 0.039405115 0.89873219
0.33552733 0.023434315 0.42525172
0.33065823 0.043565091 0.41587257
0.21956435 0.057022303 0.35138893
0.22039887 0.057254612 0.35196304
-0.55208957 0.027815428 0.77894473
0.67961323 0.037018612 1.0349474
1.0562668 -0.19127321 1.2447135
1.0650574 -0.19531375 1.258637
0.15250731 0.057533853 0.43085623
-0.79938817 -0.062436022 1.3719525
0.42082271 -0.077725656 1.529675
0.27593103 -0.057186596 0.60384846
0.12157467 0.048262235 0.99289894
0.39394966 -0.041207679 1.3350196
0.41946337 -0.065215327 1.5942802
0.21898237 -0.13526842 1.3995895
-0.44650576 -0.1825747 1.7137198
0.61729407 -0.072526976 2.1319122
2.0316644 -0.13067396 2.8712125
0.26539591 0.067354135 0.56329322
-0.83097363 -0.07289508 1.2843995
-0.37131926 0.057394728 0.62723422
0.10353735 0.041465916 1.4870076
0.21547267 -0.24839406 1.2392626
0.23056772 0.056289054 0.60682511
0.25157973 -0.14854906 1.2963166
0.15016547 0.060075909 0.28910661
-0.60532618 -0.17316568 1.5505672
0.22012964 0.056963608 0.35196066
-0.20633635 0.054230377 0.31363773
-0.17080274 0.059931807 0.27448177
1.4507225 -0.17500381 2.011837
0.21852943 -0.26246339 1.25526
-0.41050002 -0.300309 1.5002604
1.7361568 -0.081007026 2.423172
0.24305639 -0.14649402 1.3394227
0.22612306 0.055082567 0.31242633
-0.18106875 0.055553451 0.64716768
0.78133619 -0.027024204 1.1616378
-0.050675422 0.059155196 0.36054993
1.2895833 -0.027318617 2.4633698
0.43687204 0.024911631 1.52598
0.45069423 0.025543354 1.4137416
0.35382578 -0.1036006 0.85827684
-0.048293978 0.056913957 0.5301075
0.47142068 -0.0064312331 0.95730686
-0.15705356 -0.28066289 3.229032
0.45841411 -0.072969884 1.7843442
-0.20416883 0.046631191 0.54119897
0.18793449 -0.23384653 1.2262967
-0.5142262 0.043383725 0.74272776
0.24921426 0.058976427 0.38242888
0.22582462 0.055226285 0.3117578
-0.6989013 -0.21914831 2.9767084
-0.75332499 -0.18887644 1.3570948
0.96055794 -0.25066534 1.4016781
0.33068708 0.028825982 0.41219735
-0.051944137 0.059719883 0.31233978
0.1983234 -0.22446416 2.3028507
0.34343454 -0.051847264 1.3151567
-0.54375005 0.028562365 0.88747001
0.45276877 -0.078549348 1.7531047
0.83633578 0.032412231 1.5722494
-0.83257174 -0.071389832 1.3008089
-0.55084395 0.042820264 0.74314094
0.83390617 0.031662971 1.5637589
0.27830192 -0.22097404 1.2011495
0.41392598 -0.13377364 1.7269616
0.2898334 -0.039325334 0.65852833
-0.74331903 -0.072641447 1.2519228
-0.73291469 -0.14545986 1.1311193
0.3523834 0.025205459 0.86746407
1.2474148 -0.029406896 2.4681444
-0.87809324 -0.080729373 1.1490741
0.25748321 -0.28914386 1.2854037
1.2958634 -0.026240991 2.4800644
0.07871139 0.058859587 0.35266542
0.33796504 0.041172683 0.40601373
2.8289483 -0.13446593 4.537014
1.3868545 -0.069849752 1.7453499
-0.52670443 0.040900532 0.7059195
-0.20779857 0.05510401 0.31941843
0.26440331 -0.20924193 1.133347
4.5546765 -0.15982665 7.6022363
-0.63414991 -0.15045622 1.2069139
0.34161451 0.045938689 0.65319729
0.26035705 -0.15991391 1.4454198
-0.050268292 0.058188923 0.54175735
-0.82141471 -0.0821402 1.4059348
-0.5101254 0.017058896 1.0320985
-0.4303275 -0.16719474 1.0669787
0.22254404 0.053130552 0.26823759
-0.55905318 0.0331515 1.0112808
-0.16955158 0.059555173 0.27213979
-0.73155046 -0.16808985 1.1295848
0.21704724 -0.19621982 1.2892289
0.25558999 -0.27934709 1.2443836
0.43587217 -0.11664782 1.9666705
0.26143566 -0.16448529 1.3425522
0.089929789 0.056000948 0.58185911
0.14373872 0.059487171 0.30414367
0.092274249 0.057270825 0.60363197
0.28007105 0.04587844 0.68105578
0.49305353 -0.1386082 0.89200401
0.48492011 -0.13480492 0.86006451
0.44427183 -0.12742214 1.6003079
-0.02561453 0.052711092 0.8147521
-0.58890533 -0.17229526 1.5370831
0.28350255 0.03058644 1.5263062
0.21814302 0.058993272 0.31757927
0.4172 -0.219732 2.4815464
-0.19233832 0.054857351 0.34965777
0.32865289 0.042299528 0.41453195
0.44698134 -0.075410403 1.7334809
0.24952772 -0.25489411 1.2560747
-0.55914199 0.028843172 0.92463923
0.37307385 -0.0537607 1.5181475
0.18008342 -0.22918282 1.3072238
1.0886083 -0.11972713 1.2826574
-0.37573001 0.057874121 0.64276361
-0.51320064 0.046637632 0.79462314
1.3215375 -0.075851582 2.5735531
1.1614147 -0.23286469 1.4833407
-0.55372858 -0.16681266 2.3234777
-0.49501881 0.05798547 0.64919257
-0.63359034 -0.18354048 1.1976228
-0.73387015 -0.16342378 1.3819041
-0.050927103 0.059255555 0.31038833
-0.65402222 -0.11486108 1.2216368
0.24636325 -0.2094696 1.2442038
-0.050539047 0.059420481 0.36700821
-0.22218803 0.050629102 0.41442657
0.078434646 0.058666848 0.3608892
0.40145537 0.043289844 0.74372721
0.077456117 0.059937999 0.24956775
-0.49907586 -0.13782318 0.64191198
-0.052601337 0.059792504 0.2511692
0.22749624 0.056265689 0.60093212
-0.052076966 0.061489269 0.38714194
0.26272294 -0.047048695 0.57880378
-0.56820774 0.025039699 0.79016066
-0.36843029 0.056779169 0.63617659
-0.42418531 -0.33184937 1.531754
-0.17183217 0.054951325 0.62209773
0.0019541383 0.05802165 0.45450163
-0.5216105 0.024767201 0.6695106
1.5883596 -0.055735163 2.3281536
0.15729693 0.059037417 0.36773491
-0.021072745 0.055021718 0.44511032
-0.77678299 -0.080166869 1.3283787
0.30217275 -0.17368878 1.2253022
0.33090129 -0.16027224 0.77756715
0.80583489 0.031685941 1.4924173
0.18105122 -0.23954143 1.3409061
0.85959077 0.026003897 1.8551698
-0.53817046 0.029526407 0.80021405
-0.19018033 0.044428028 0.51182485
1.0797937 -0.11644311 1.2764716
-0.62217855 -0.1783573 1.5227551
0.20990625 -0.24700262 1.2349181
-0.77850986 -0.14035971 1.3886228
0.2496632 -0.14236231 0.85012269
-0.5164119 0.016520986 1.0439813
-0.082470506 0.051398456 0.58658051
0.23896781 -0.16618271 1.3223972
0.091750622 0.057364665 0.60299993
-0.39486715 -0.28168339 1.4212027
-0.81706488 -0.072499432 1.3366652
0.18049678 0.059947312 0.49274111
1.1383015 -0.02525959 2.4258304
0.2163392 -0.18997236 1.3501816
0.24125746 -0.16770658 1.3460746
-0.59941709 -0.18000065 2.5364089
0.38479015 -0.036819123 1.3012183
-0.69016945 -0.092026018 2.3162718
-0.49980208 -0.13803011 0.64300561
-0.14849573 0.046099804 1.0468757
0.41532436 0.023812516 1.4435325
1.0822619 -0.3033447 1.4941373
-0.89324284 -0.083150834 1.0917346
0.076986074 0.061253592 0.30342793
-0.49161354 0.049755856 0.81928802
-0.10902518 0.059864908 0.32823586
0.24138442 0.052809417 0.33922672
1.1684378 -0.034370981 2.6167264
0.32808456 0.029738933 0.42653775
-0.42250809 -0.33190629 1.5315695
1.1568575 -0.033318952 2.5169711
0.14979684 0.063467056 0.33626628
1.0927037 -0.30552953 1.5103288
0.40786645 0.037339166 1.1214151
-0.49435541 0.057910904 0.6207602
-0.62978566 -0.48375916 3.6134214
-0.51870191 0.027943466 0.76725721
-0.80044198 -0.11553077 1.4392509
-0.20923772 0.054598711 0.27876639
-0.050619096 0.058572851 0.53919435
0.92257774 -0.022968719 1.1264946
-0.20491853 0.0547674 0.30795336
-0.2052227 0.055795781 0.27906966
0.38569644 0.024170212 1.2783432
-0.58961272 -0.35794142 2.9838576
-0.72056723 -0.17670728 1.2889218
0.42144302 -0.13726485 1.779695
-0.20979986 0.047328062 0.55425835
-0.54204464 0.034981038 0.71466422
-0.0088227987 -0.024231458 0.91966867
0.3739585 -0.044735841 1.4296989
0.26867893 -0.15547937 1.0803804
-0.20843723 0.054131478 0.27730966
0.14497429 0.055524774 0.43109226
-0.6684134 -0.16974881 1.2832592
0.23779908 -0.29887924 1.3119481
0.94278681 -0.025927005 2.0933218
-0.50591183 -0.24569495 1.7885919
0.25762829 -0.046367876 0.56781554
0.7171216 -0.28320265 5.1437879
0.7922051 -0.057712242 1.2159817
-0.082247525 0.055677101 0.34129977
-0.5470165 -0.24662291 3.5863791
-0.65487313 -0.16283402 1.2442052
1.2481763 -0.027590139 2.4758759
0.33265135 0.01984179 0.41793537
0.23512778 -0.15922649 0.86966872
-0.52496183 -0.42101625 3.3858695
0.23683491 0.055496715 0.59114218
-0.54406083 0.034556419 0.7140274
-0.052362114 0.057785176 0.33856487
0.17477569 -0.23075001 1.2882848
-0.54731679 -0.1554299 1.0633445
-0.20477244 0.053182565 0.26898289
-0.36408839 0.056295432 0.6287322
0.33166924 0.023294799 0.41777205
-0.061305404 0.061522499 0.31444216
-0.001077503 0.054802857 0.41781378
-0.058304906 0.059489943 0.33055949
-0.83683085 -0.1594018 1.0616751
0.2155529 0.056547977 0.34804749
0.25919673 -0.21462679 1.2169414
-0.062951207 0.061838798 0.26121092
-0.53259611 0.04815606 0.85497689
-0.1742979 0.050717868 0.68254209
0.31694618 0.048037283 0.62280178
1.05505 -0.15330264 1.2387428
0.37447658 0.049041957 0.61154819
-0.79835248 -0.062253319 1.3734598
-0.18744627 0.043119133 0.49706841
0.22865203 -0.23719318 1.3586755
-0.50465202 -0.34800649 1.8604093
0.27599588 -0.21683633 1.1892362
1.0930651 -0.26581571 1.4845624
0.22802666 0.05928307 0.36998415
-0.19047973 0.046330445 0.57880497
0.41006532 0.042031854 0.75230622
-0.042399466 0.055339664 0.5738802
-0.67178714 -0.4088605 3.2951493
-0.42906073 -0.28649762 1.4749155
-0.877877 -0.083951421 1.2681224
0.31638613 -0.18199942 1.2930276
0.25607327 0.028793577 0.54365182
-0.43553993 -0.15760186 0.91609955
0.22151145 0.055838801 0.48855948
-0.47477111 -0.19540685 1.172112
0.45594868 -0.14579542 0.81518173
-0.5064925 0.026916139 1.1523874
0.26426753 0.0068727005 0.56614137
-0.037236631 0.053283513 0.56208825
4.4929962 -0.15327959 6.374579
0.31359509 -0.53126287 4.7787838
-0.52122545 0.024613855 0.67033434
-0.68803382 -0.09853483 1.399972
-0.17102602 0.014035756 0.49655032
-1.0804523 -0.021610925 3.487637
1.0129969 -0.033799171 1.4475455
0.19175756 0.060141057 0.25976634
0.27544138 -0.28105903 1.3102634
0.32387057 -0.027748602 0.41672897
-0.56743157 -0.022583557 1.124573
-0.10515633 0.033904281 0.95959353
0.089040488 0.058780394 0.50971746
0.67895675 -0.19164146 1.3058205
0.22797754 -0.48379719 4.5786324
1.4643531 -0.31204841 2.7928724
0.45181701 -0.12968247 1.6236258
0.34777096 0.030749647 0.85421944
0.25147435 0.045981787 0.8082993
-0.89639497 -0.083732165 1.1399624
-0.16166738 0.06636209 0.32995653
0.26048639 -0.14957286 1.3185072
0.25781241 -0.15276369 1.3269811
-0.41849253 -0.24665074 1.4907975
-0.50526857 0.023645932 0.6471951
0.14470884 0.056753166 0.48394561
0.22802266 -0.18412197 0.85250759
0.33783326 0.049934052 0.6610744
0.45418754 -0.12299358 1.2345498
-0.017983824 0.061498284 0.44298458
-0.33851811 -0.23001854 1.0668032
0.17087147 0.059804052 0.30282044
0.14939642 0.060020469 0.28747869
-0.5256443 0.033830788 0.68828058
-0.05242148 0.061111741 0.32390928
-0.061838895 0.061889738 0.31738162
0.072745442 0.059165359 0.28111601
0.21584365 0.059562974 0.2879715
0.23331639 0.054649793 0.30227494
-0.13217598 0.047529623 0.99336672
-0.58872485 -0.049679697 1.1078014
0.3366414 0.023357438 0.42541409
-0.49234059 0.049147788 0.82063341
0.7835325 -0.025169203 1.2628164
-0.49728045 0.052703429 0.77056694
0.67581701 0.037777372 1.0306482
-0.16804454 0.013595501 0.48632026
0.21825656 -0.19771469 1.3017304
-0.69567597 -0.1277765 1.3250589
0.21365628 -0.24481119 1.2889874
0.31973293 -0.027370283 0.41032791
0.058120549 0.03756975 0.32076168
0.28189346 0.03260272 1.5148177
0.44530323 -0.1499123 1.711153
-0.71683156 -0.28524783 3.0675678
0.46122238 -0.079316616 1.71135
0.1888645 -0.24612282 1.3859611
0.075510979 0.061403982 0.29608917
-0.38343367 -0.18325455 1.4802308
0.24537215 0.053143188 0.33347988
0.08739996 0.060531169 0.2601552
-0.082590699 0.057538718 0.51933599
0.3812314 0.040230006 0.70889425
0.30558172 0.050932087 0.497401
0.25924483 -0.178057 1.3238454
-0.04929325 0.05973652 0.33091807
-0.060613185 0.060395405 0.30771208
-0.5008018 -0.13844806 0.64383721
-0.48852006 -0.16249321 0.74667168
-0.62525165 -0.4752304 3.5764461
1.2568218 -0.07567092 2.5234451
-0.21229264 0.030712087 0.56357598
1.7947547 -0.065367378 2.6455946
0.32957497 0.042555451 0.41281176
0.32019433 0.037218258 0.41524243
-0.38199571 0.011101916 0.7586236
-0.45211175 -0.12755987 0.94342732
0.29441503 -0.50340593 4.4658194
0.26176628 0.050270125 0.31415677
0.25431874 0.03865768 0.55029869
0.30830464 -0.00737671 1.2568884
1.1651434 -0.02767962 2.2923803
-0.39533797 0.061552353 0.59936833
-0.075981379 0.046953153 0.5165062
0.063815206 0.0015996769 1.5589685
-0.15234715 -0.083206959 1.5429974
0.74710417 -0.29735175 5.3809304
-0.69416368 -0.46076348 3.7057462
0.41955712 -0.01759238 1.7890973
-0.89153135 -0.4262968 3.9512401
-0.71177149 -0.43534228 3.6547642
-0.5594511 -0.020784358 1.1191089
-0.64024043 -0.2902528 3.4736009
0.57379866 0.034135617 0.94756174
0.38229361 0.044370882 0.64076567
-0.84354866 -0.41236991 3.756485
-0.62297881 -0.51326638 3.8449593
-0.41809013 0.064916037 0.63355541
-0.49712804 -0.23735867 1.8385677
0.3771244 0.044776328 0.63122272
