# .PCD v0.7 - Point Cloud Data file format
VERSION 0.7
FIELDS x y z
SIZE 4 4 4
TYPE F F F
COUNT 1 1 1
WIDTH 542
HEIGHT 1
VIEWPOINT 0 0 0 1 0 0 0
POINTS 542
DATA ascii
1.9957557 -0.093152091 2.8146324
-0.10837764 -0.18767628 3.0668607
-0.10968006 -0.18638822 3.0690579
-0.1656217 -0.36699092 3.2970672
-0.10621959 -0.1844824 3.0577555
0.062571168 -0.05611667 1.5435853
1.0861371 -0.34862995 3.0332727
0.64244729 -0.045427665 1.7182584
0.012605846 -0.14616168 4.3724394
-0.21016896 -0.4036203 3.2709827
-0.22262949 -0.42264795 3.4667826
1.0715253 -0.17976424 2.8976502
-0.76654035 -0.465137 3.0260081
2.0435402 -0.089841448 3.1938515
0.99717551 -0.032650828 2.1314659
-0.17803746 -0.36425805 3.1420274
-0.85922331 -0.39753786 2.8801212
1.0655429 -0.29086077 2.7996054
0.94976991 -0.019025156 2.1416798
1.1883411 -0.24260938 2.3139906
-0.72010487 -0.43516833 3.067019
0.87156624 -0.24031314 1.7641044
1.1332476 -0.2711547 1.9632616
0.98059297 -0.067322642 1.1585493
-0.73203367 -0.40169474 3.1908584
0.17237329 0.019905189 0.93756104
-0.82980305 -0.076565489 1.7261844
0.16850066 0.048208199 0.87503767
0.1768446 -0.14017692 0.75851727
1.5490291 -0.065277815 2.1392636
0.75484496 -0.020551154 2.8069
0.32606101 -0.12982461 1.1714931
0.048211992 -0.34244111 2.7170172
0.30079281 -0.10210088 1.1715703
1.5415726 -0.070664793 2.1136274
1.7238212 -0.073817015 2.2888579
0.16782242 0.020161999 0.92291451
0.22030085 0.045320258 0.51727104
0.31416392 -0.1010574 1.2531767
0.14678788 0.042225763 0.93729877
3.258795 -0.17819348 5.4352961
0.36436158 -0.065573983 1.172996
0.17261869 -0.14993122 1.0988469
0.47797543 -0.057163507 1.4202209
-0.46790987 -0.37505072 4.1979351
1.4886646 -0.056285709 1.9791527
0.17035115 0.048515465 0.89027023
0.36521089 -0.073394872 1.1817236
-0.55632806 -0.074012488 2.7246871
0.090411782 0.052318424 0.67575622
2.6069572 -0.15074915 4.1079478
0.19374043 -0.15547055 0.75523067
0.35985965 -0.069239721 1.1566086
0.72285903 0.032043703 0.93238831
0.73391253 0.024815889 1.2210293
0.17468572 -0.15930268 0.75226808
1.048378 -0.026485836 1.9835601
-0.0100559 0.048839733 1.3784308
-0.78805715 -0.072610915 1.67065
0.32205957 0.023856608 0.77066231
2.2960281 -0.73733759 4.3840265
0.35486019 0.040712655 0.55545211
0.31189162 -0.028988404 0.88653946
0.47952265 -0.28711313 4.8266697
-0.77799398 -0.35246411 2.93012
1.131197 -0.030018123 1.9734855
-0.75726777 -0.44512877 3.1892624
-0.89770979 -0.41937909 2.959878
-0.013504803 -0.52551138 4.6018901
0.19431901 -0.1464752 0.76633072
0.072544038 -0.53065598 4.2898493
0.49205393 -0.29616365 4.9636259
-0.84004849 -0.42142814 2.9446459
0.35643619 -0.014794467 1.3695097
-0.89061648 -0.41052467 3.0541182
-0.82984549 -0.27405971 2.9627461
-1.0506647 -0.39024699 3.2070603
0.069984972 -0.52993715 4.3138776
-0.56123948 -0.27625579 3.48173
-0.79273719 -0.20892946 1.9808688
-0.86057955 -0.33526224 2.9279742
1.1288521 -0.030378593 1.9613395
1.1414375 -0.065059066 1.9093795
0.33112025 -0.115263 1.1699748
-1.2553551 -0.080854341 3.9499955
0.16801816 0.05524455 0.36505151
-0.0012622476 -0.49357456 4.2414689
1.0505159 -0.02509358 1.9804029
-0.6930992 -0.40318102 3.0299602
0.3537727 -0.14606151 1.4465203
-0.79973918 -0.2733624 3.0918536
-0.1908769 0.055208705 0.44513392
-0.76714212 -0.071480341 1.625742
1.1910977 -0.093009159 1.9074535
-0.77648228 -0.065825269 1.6236758
0.32469118 -0.13146773 1.1746244
0.22878486 0.029436192 1.0621796
-0.98261875 -0.30140245 2.942554
-0.25426155 -0.36794049 2.9705319
-0.74848062 -0.38092691 1.8888712
0.22043395 0.046127692 0.51546955
-0.77842945 -0.017103205 1.6290088
-0.69870645 -0.25059396 3.4256668
-0.63960928 -0.25155449 2.9223557
-0.73268634 -0.42618421 3.7594123
-0.53185314 -0.1747883 0.88289595
-0.94467014 -0.21705711 2.9689221
-0.98936635 -0.37775135 3.0085406
0.32059836 -0.13045511 1.1561794
-0.71505791 -0.40675408 3.6186333
-0.44156456 -0.064760484 2.018014
-0.18187857 0.058700256 0.44674397
-0.59228039 -0.16222274 0.87577724
-0.20642483 0.053455099 0.44393921
0.15015829 0.055720992 0.36852098
-0.86993033 -0.39439145 2.991272
0.22136915 0.046900738 0.51620913
-0.50516379 -0.16438119 0.83947182
0.76311213 0.03088182 1.1179051
0.39091951 0.01611696 1.2027812
0.41373008 -0.064469159 3.3545957
0.34660244 -0.050708935 1.146646
-0.73648471 -0.3731333 1.8465075
1.4238913 -0.032814965 2.0223312
1.4187372 -0.031083917 2.0158143
0.13039666 -0.23364279 4.3087106
0.082127512 0.057046779 0.48530173
-0.81169039 -0.036239013 1.6552272
0.29219753 0.041082017 0.3501761
-0.79699606 0.018451208 1.6266785
1.396081 -0.033046037 1.9750891
1.200264 -0.089755632 1.9080534
-0.78754455 -0.24974915 2.8670058
-0.64966613 -0.47500569 4.1706076
-0.59441561 0.0025860723 2.893084
-0.40210813 -0.071363278 2.386898
1.0334544 -0.066100143 2.0049095
-0.6261937 -0.17714611 1.380384
-0.84421176 -0.35314545 2.0279098
-0.75013047 -0.46316576 2.9779582
0.25410229 -0.29558772 3.9475565
0.24109709 -0.0058076065 0.854249
0.35883212 0.040694326 0.56713986
-0.19754261 0.050925538 0.57706356
-0.801961 0.01774128 1.6397843
-0.75800604 -0.2636219 1.9048223
0.43078756 -0.16256696 0.84149981
0.21617621 0.050542161 0.29457474
0.35844105 0.040887751 0.56566358
1.4621296 -0.0443362 1.9717627
0.43955302 -0.16667414 0.86057043
0.1526376 0.019220551 0.94814777
0.32727879 0.022686465 0.78475428
-0.68950993 -0.15631011 1.0626316
-0.20169562 0.051442422 0.48976111
-0.18480903 0.051944561 0.45638537
0.17590261 0.019472359 0.89818907
0.22490287 0.039900061 1.0191498
0.38697356 -0.075234294 1.149683
0.099915385 0.044988602 0.85602093
0.10263431 0.043804146 0.89387798
-0.772003 -0.19032833 2.8316221
0.18823332 -0.18930078 1.3454804
-0.46670187 -0.16606793 0.8237834
-0.057908177 0.056565545 0.36819983
1.0364776 -0.02613101 1.9722281
0.23801821 -0.021039961 1.2160654
-0.65706116 -0.3273817 3.8240108
0.71561456 0.032423332 0.91787672
0.076405525 0.056080952 0.36091256
-0.84513801 -0.35191572 2.0387816
0.38176531 -0.13725492 1.3289113
0.36507016 -0.12468648 1.154521
-0.18906617 0.055019215 0.44039202
0.32960409 0.028670618 0.74468136
0.35576463 -0.073590174 1.1556187
-0.9190641 -0.14860544 1.8724928
0.2897616 0.040446088 0.34597778
-0.4743771 0.057982914 0.85445499
-0.060226381 0.057419255 0.371593
0.35493106 -0.052818075 1.1662827
-0.051233172 0.055246219 0.45109653
-0.77188796 -0.22187769 1.9344325
0.17116022 -0.19151489 1.3625674
0.17440778 -0.13494389 0.73555064
-0.89954454 0.010234417 2.1086602
-0.74867696 -0.3817808 1.8895016
0.16979825 0.020610159 0.94538879
-0.81186849 -0.29999417 1.9321318
-0.70364887 -0.15910673 1.0817957
-0.79081827 -0.46709701 3.4611945
-0.6762026 -0.27728933 3.27214
-0.78981024 -0.072659776 1.664032
-0.50560743 0.054076418 0.70059586
-0.48987627 0.048001125 0.89383316
0.21177554 0.046834007 0.35370827
-0.20494455 0.054259926 0.44428062
0.3569268 0.022850016 0.77506971
0.33630753 -0.10519531 0.75226188
0.17794287 0.020232806 0.90672588
0.34908909 0.022907158 1.0991564
-0.09783271 0.054921016 0.38481092
0.40572566 -0.081372857 1.2133441
0.32026237 0.021749506 0.76075435
0.089821637 0.054218113 0.63547516
-0.81167823 -0.030916141 1.7108326
-0.67138177 -0.26344097 3.1592255
0.73327589 0.02878016 1.0799289
-0.79862958 -0.25586653 2.8680654
-0.099511862 0.057231329 0.4025712
-0.14854687 0.050629467 0.85506773
0.41283351 0.028097177 1.6540337
-0.17418605 0.050147906 0.72396326
-0.04008618 0.050988987 0.65414286
-0.93306762 -0.37172964 2.9945588
-0.73269254 -0.52910352 4.7525482
-0.83468848 -0.40749359 2.8637967
-0.10893375 0.060327359 0.27725863
0.42358279 0.037665807 0.84741926
0.21100646 0.0524121 0.25467348
-0.09648481 0.055331208 0.30883455
0.095770478 0.04502349 0.8022213
0.41733879 0.036822863 0.83428431
-0.99236983 -0.036847264 1.3814969
0.23900551 0.043557383 0.5336318
0.16745782 0.057072461 0.27557468
-0.37706131 0.061594114 0.4942975
0.36738038 0.035198711 0.61940885
0.21571833 0.045303397 0.50484824
0.3714233 0.04185703 0.59062171
0.087375343 0.052556828 0.6048038
-0.81257576 -0.037303142 1.6565924
0.36752397 -0.010911515 1.083271
-0.71745139 -0.44088399 2.8288193
-0.048990101 0.053428389 0.43161535
-0.75818688 -0.023335503 1.6013451
-0.10789114 0.052235879 0.99534702
-0.84419221 -0.31527245 2.0261626
1.0448565 -0.051943317 1.9770489
0.18254668 -0.1335227 0.81735706
-0.048568815 0.052897789 0.60436511
1.1729915 -0.031138284 1.9551177
-0.53858691 0.0053366851 2.3682613
-0.7177456 -0.38535216 3.0707769
-0.18119401 0.058845155 0.4601748
0.15068018 0.017665008 0.9567728
1.1636608 -0.1388526 2.1239586
-0.47015256 -0.1611179 0.83047342
-0.66021377 -0.36502755 2.9984818
-0.49188757 0.042187631 2.3907003
0.54081482 -0.12722385 0.85653067
-0.48367268 -0.15519966 2.6952944
-0.42127627 -0.1503371 2.8826604
-0.033537686 0.050137699 0.94441032
-0.96729702 -0.010387516 1.2724538
0.3260777 -0.13087562 0.77604818
-0.2289688 0.053233624 0.44463921
0.22176796 0.048489727 0.35071468
0.76283807 0.026653165 1.2736254
0.21830034 0.044053819 0.94184256
-0.85239917 -0.13590476 1.835331
1.075036 -0.072138742 1.8200212
-0.20472294 0.045786653 0.59205294
-0.56774229 -0.26430416 3.7509398
-0.83155948 -0.25513935 1.9471593
-0.62369293 -0.1491985 0.96218777
-0.81498402 -0.32518899 1.8167634
0.34419394 0.021372395 0.76684165
-0.13990945 0.053329311 0.83017397
-0.59162128 -0.049953125 3.4350886
1.1161501 -0.027259631 1.9331989
-0.77852088 -0.17952913 1.9021602
-0.14759058 0.04723499 1.055687
-0.46883506 -0.28693968 1.8127456
-0.83908194 -0.29147887 2.1351247
1.1149566 -0.076391533 1.9637866
-0.55196786 -0.11181323 0.93408489
1.0495389 -0.048964441 1.9805155
-0.17409396 0.055410333 0.61702442
0.19038463 0.06020578 0.31955576
0.14805859 0.060665682 0.42651892
0.21994871 -0.16256273 0.77232695
0.0701949 0.058469713 0.24784636
-0.81123286 -0.15433688 1.8561091
0.97450989 0.0073643457 1.9480653
-0.49497539 0.047787268 0.90440178
1.0598154 -0.090895973 2.0629501
0.85840636 0.041790217 1.1510811
0.33059442 -0.012592236 1.0112863
-0.76676971 -0.071590438 1.6303034
0.18093145 0.050482444 0.96033812
-0.025706738 0.0554782 0.35166287
-0.5047437 -0.16618219 0.83747721
-0.77049476 0.036898591 1.1751957
0.96662277 -0.05967246 1.7858639
-0.58134604 -0.27406645 3.8585606
1.1736991 -0.031833395 1.9627118
0.30526179 -0.041131496 0.70362377
-0.72678524 -0.36465964 4.5329251
-0.80464321 -0.46353042 3.0056682
0.51848674 -0.16332728 1.0424466
0.03296113 0.048963688 0.86724997
0.21421933 0.055329464 0.36948204
-0.46451241 -0.20672035 0.8783617
-0.0047491789 0.05872 0.38639927
0.18460673 0.056252018 0.33081317
0.21760267 0.049996547 0.29103494
-0.77350146 -0.15088828 2.9689646
0.098993421 0.053627513 0.51328516
0.41925579 0.036563657 0.83892107
0.29309577 0.041244604 0.35106945
0.47664911 -0.14212599 0.84032536
-0.18364328 0.059101254 0.4503665
0.32664931 -0.13038966 0.77776527
-0.19845927 0.052059945 0.58220506
0.3491509 -0.051235735 1.2516856
0.22292739 0.04888789 0.3952446
-0.14232916 0.052672133 0.82051611
-0.85347337 -0.32897481 1.9178934
0.16159797 -0.14311329 0.73828173
1.7714071 -0.40136051 2.3153758
0.15668416 -0.16750856 0.76589346
-1.0669732 -0.42400843 3.0774298
0.21545577 0.055481412 0.37272596
-0.65949386 -0.16300192 3.1099606
-0.58718455 -0.23913455 3.4481158
-0.5400632 -0.51140088 4.4606261
-0.58804011 -0.31453288 3.8648739
-0.59641069 0.021340592 2.4318891
0.45230407 -0.18122107 0.89688969
0.20099837 0.036898941 0.90006542
-0.22991782 0.053137727 0.44665051
-0.62735683 0.0283114 2.5408936
-0.69321984 0.013999874 1.805512
-0.53681695 -0.50427419 4.3839512
-0.50167572 -0.16421486 0.83105469
-0.99464792 -0.037642471 1.3841238
1.0072703 -0.021811107 1.9356337
-0.76368445 -0.024932196 1.6059976
-0.050312132 0.055627987 0.46402073
1.0781045 -0.025135426 1.8623428
-0.059798121 0.056570202 0.3609159
0.20947897 0.054152273 0.36061883
0.070178509 0.058340579 0.24678588
-0.78521878 -0.26732278 1.9660664
-0.84010416 -0.4549545 3.0692282
0.14792597 0.018413654 0.90078402
-1.0248063 -0.15618119 1.4744568
1.0410457 -0.21343359 2.3550467
-1.1288869 -0.035382427 1.4162278
-0.25101101 0.056219809 0.43198943
0.33668947 -0.1380038 0.90760469
0.45695925 -0.13488492 0.80256462
-0.6262762 0.00063139759 2.482955
0.21071744 0.052653726 0.25406742
0.51268047 0.027338607 0.88202858
0.17784327 -0.15481046 0.75799847
-0.026991248 0.056905329 0.36576939
-0.057980955 0.062052481 0.26156569
-0.11660975 0.062294818 0.31015038
0.31997913 0.022346178 0.76302409
0.17893672 0.057526499 0.28604198
2.6408913 -0.59080142 4.8636265
0.072534442 0.053374551 0.33880997
1.7766142 -0.40173671 2.3241472
1.951051 -0.11801672 2.5480924
-0.76863927 -0.27952623 2.0845613
-0.79769903 -0.24059319 2.8631759
0.32482022 -0.16976902 0.92894936
0.21170342 0.052557774 0.25563478
-0.02585116 0.053301901 0.33532929
-0.18338972 0.059314258 0.45100856
1.4487648 -0.050820552 1.8248649
0.10420895 0.049971268 0.86702013
-0.35342401 0.056176208 0.82217932
0.17896241 0.057314061 0.28543711
0.16859722 0.055532984 0.36377478
0.18841672 0.040525891 0.4365375
-0.52396971 -0.111885 0.83226204
0.17610168 -0.13262759 0.73786974
0.17730004 0.036605522 0.79011297
-0.47102714 0.05773814 0.85279608
0.30046576 -0.15529254 0.68295503
0.2177645 0.039161712 0.51820779
-0.33355397 0.052151971 0.88332129
-0.028255224 0.058723211 0.37917089
0.19292468 -0.14536075 0.76823616
-0.96259052 -0.15736291 1.3371096
0.071895301 0.053389832 0.35026288
0.60978776 0.02626471 1.3145881
0.46394467 -0.15250951 0.83623028
-0.096179366 0.056368239 0.38460588
0.073513329 0.052990511 0.35755777
1.1775172 -0.13969138 2.3858123
1.2728522 -0.10169347 2.0390282
1.2973244 -0.10143797 2.0746427
-0.77336341 -0.14026879 1.6852589
-0.13528484 -0.14546251 1.9478502
1.7307136 -0.06877131 2.3008742
1.8038793 -0.3483344 2.169703
-0.34749895 0.056427106 0.65028572
-0.8435784 -0.34411642 2.9491224
1.4730251 -0.067561746 1.8552418
-0.70282596 -0.35180455 1.8247938
-0.5062744 0.062869519 0.73677516
0.21161002 0.054623306 0.36457658
-0.22113365 0.051640205 0.43007445
-0.05325526 0.059892662 0.51015019
0.30056804 -0.083903983 1.1874352
0.79480821 0.024189753 1.2241306
-0.82878059 -0.14463149 1.9064131
0.17178398 0.056678876 0.37509632
-0.47008985 0.039310656 2.6033587
-0.11057645 0.061486825 0.2794466
0.3484959 -0.14701205 0.85214806
0.46848804 -0.0107427 1.5699868
-0.055599123 0.060455278 0.38397551
0.030053079 0.048362721 0.82392311
-0.77002424 -0.072239593 1.6063251
0.16103876 -0.14336053 0.73830414
0.77125353 0.028702876 2.1692109
0.43165636 0.056769282 0.54894209
0.077529073 0.058232054 0.29855871
0.4616521 -0.14061558 0.63486505
-0.71735054 -0.36461332 1.799562
0.21729088 0.046605758 0.5013833
1.3148859 -0.0011516195 1.5198889
-0.33368295 0.053553708 0.77055168
-0.10567409 0.060015649 0.34434819
-0.89555937 -0.389981 2.075326
0.21777987 0.0516956 0.29824853
1.1031933 -0.22340986 2.2531481
0.17170447 0.057606898 0.28332758
-0.51343876 0.062934697 0.93048096
-0.11062986 0.058692239 0.46490812
1.4600384 -0.053597406 1.9338384
0.069186449 0.058138944 0.24408174
1.110904 -0.24986449 2.2791529
0.20958346 0.044953 0.48116851
-0.24048418 0.053832285 0.41179013
-0.14951009 0.061312333 0.50916624
-0.19309145 0.051426619 0.4685564
-0.20830911 0.054455325 0.44531417
-0.79515785 -0.22325522 2.0076275
0.052547514 0.056044467 0.35169101
-1.0200543 -0.14264329 1.3581128
-1.0476873 -0.019643517 1.4571862
1.7972491 -0.04986874 2.1670656
-0.069138557 0.0011377763 0.085426569
-0.33197898 0.05487895 0.40337539
-0.81456035 -0.20406492 2.073226
0.21462226 0.052248657 0.2465353
-0.1011799 0.026772866 0.24465775
1.1832266 -0.18193522 2.4472575
-0.90187234 -0.32991195 1.9567032
2.061096 -0.11110038 2.7013111
1.6592898 -0.056483269 2.3252273
-0.06151697 0.058209687 0.37220788
-0.55772525 -0.16622964 0.77012825
-1.0106578 -0.14058036 1.344409
0.32407284 -0.12885988 0.72649288
-0.82620579 -0.20725781 3.0606718
0.43795443 -0.1413133 0.76482058
-0.70652086 -0.4241139 2.7464566
1.8286827 -0.054149464 2.2063665
0.078995466 0.054647394 0.47030091
-0.23874283 0.053296991 0.40857768
-0.47940361 -0.15455021 0.88049412
-0.48312855 -0.12864132 0.85325909
-0.50688136 -0.119257 0.8299346
-0.25064415 0.056537986 0.42801189
-0.53535962 -0.12282287 0.86606503
0.26166284 -0.0052065309 1.0335717
-0.073670477 0.055275522 0.31854939
-0.48325235 -0.1369479 0.86431122
0.29560602 -0.098985985 1.1594777
-0.099088073 0.05321946 0.85938168
0.21912873 0.038126819 0.56556749
-0.50933677 -0.13404061 0.74718952
0.22344613 -0.0071115997 0.28431988
1.9640415 -0.38613081 2.3665385
1.1612782 -0.032219075 1.930829
-0.48428226 -0.15955366 0.87748241
0.081671596 -0.16413382 1.3770752
0.43553042 -0.14139932 0.75996327
-0.69322723 0.019960789 2.7051029
-0.76559216 -0.022691468 1.6678839
-1.0385175 -0.050758891 1.5119214
-0.58486348 0.0018394645 2.8410573
-0.65301627 -0.24047244 3.1560826
-0.69140559 0.019171381 1.4633312
0.85332054 0.026313493 1.2435093
-0.81854635 -0.17134048 1.2630858
-0.72022349 -0.44920474 2.9643707
0.068218529 0.050972782 0.33295274
1.8700771 -0.36125922 2.2527022
0.4153204 -0.10034944 0.6236279
1.1758974 -0.027707824 1.9045444
1.7347283 -0.073400587 2.5402875
0.077394307 0.053712375 0.45438385
-0.11521059 0.064767256 0.29752755
-0.55248636 -0.11884083 0.89308643
1.3308671 -0.0015240852 1.5569115
0.45354837 -0.1458452 0.79412746
1.2970977 -0.35141242 2.369854
1.2140181 -0.055402674 1.885417
0.8008036 0.036123797 1.0471659
-0.039532185 0.051754907 0.6792767
-0.7302621 -0.022733307 1.584157
2.4169648 -0.33227503 3.3883424
-0.44670075 -0.050971769 2.1563926
0.17314148 -0.15880457 0.74494505
1.0494468 -0.024466125 1.6976361
-0.60564905 0.0018451344 2.9513707
-0.51385522 -0.12079132 0.84210825
1.8488703 -0.39151311 2.179193
2.0509644 -0.11027619 2.5899005
0.20995873 -0.15455642 0.72890806
-0.19544959 0.050943404 0.41223645
0.092763841 -0.20400366 1.6320858
-0.9158439 -0.43057936 3.0346637
0.31315553 -0.15161549 0.76256824
0.29619443 -0.13512927 1.1835566
0.07938081 0.059089735 0.39019465
0.30567253 0.068844564 0.51753163
1.9689789 -0.41622782 2.3313437
-0.054794192 0.015892783 0.16895819
0.25700772 -0.18276128 1.0607228
0.21828336 -0.0067326743 0.27291012
-1.1176074 -0.42824137 3.3315063
1.4938686 -0.063819528 1.8831639
-0.3749097 0.061589845 0.48910689
2.8330104 -0.42075485 3.9280596
-0.048021466 0.050946593 0.57789826
0.30765104 -0.12601376 0.82436323
-0.60974294 0.0080043878 2.7398911
0.51714873 -0.13928111 0.81776094
-0.79809862 -0.28934294 1.9831977
0.23450804 -0.17064908 0.96438265
-0.16129458 0.044938792 0.39418387
-0.60370153 -0.34007472 4.1195736
-0.56142455 -0.18005535 3.7394404
