# .PCD v0.7 - Point Cloud Data file format
VERSION 0.7
FIELDS x y z
SIZE 4 4 4
TYPE F F F
COUNT 1 1 1
WIDTH 488
HEIGHT 1
VIEWPOINT 0 0 0 1 0 0 0
POINTS 488
DATA ascii
2.0044031 -0.10118599 2.8783548
1.0084862 -0.071138352 1.7650731
-0.1006763 -0.20076257 3.1411259
-0.15678596 -0.38430747 3.3874018
-0.065422177 -0.004916627 1.5549753
-0.098027349 -0.19927503 3.1438329
-0.11636484 -0.37434998 3.3092272
2.1663094 0.35561711 4.0960484
-0.1142956 -0.0097867846 2.2622654
-0.16894448 -0.32561168 3.4650824
0.072118878 -0.055498336 1.5182445
0.31656283 -0.1744545 1.0449111
1.1601154 -0.24882883 2.5084345
-0.19768518 -0.41581863 3.3007596
-0.61811054 0.023639174 1.0609648
0.28730166 -0.18073055 1.0167582
-0.75194979 -0.47789299 3.0676539
1.2575916 -0.24718505 3.1043212
-0.84467721 -0.41009247 2.9229786
1.2134507 -0.25075382 2.134321
0.17189223 0.01442088 0.99097991
0.95117784 -0.026141532 2.1942313
1.203784 -0.25391638 2.4029291
-0.70984483 -0.45035046 3.1306007
0.68188083 -0.063261136 1.8657024
1.0309685 -0.30010775 2.4380591
1.1206374 -0.27266103 1.9746683
0.25738591 -0.043741208 1.2573969
-0.72254789 -0.41826281 3.2610734
0.175946 0.015276568 1.0122507
-0.82674074 -0.086926013 1.803314
-0.80077207 -0.27244005 3.5341117
0.17776978 -0.16233276 0.84172034
0.17183524 0.043786675 0.94877887
0.9410826 -0.37695089 2.0920393
0.27928615 -0.018366937 1.1735909
-0.78803468 -0.011969358 1.6790884
1.559798 -0.071764901 2.2119668
0.33033943 -0.13516192 1.239845
1.6580834 -0.33862811 3.1823127
1.816017 -0.13797697 3.0532897
0.055908203 -0.34350303 2.6687691
1.1818759 -0.10437161 3.0160639
0.30464232 -0.10750528 1.2380583
1.5794878 -0.078126028 2.2403328
1.7025192 -0.079307869 2.3003709
0.17122722 0.015562195 0.99488664
0.22219545 0.042415112 0.58468413
0.31985259 -0.10722427 1.3306987
-0.39510792 -0.037291247 0.50177097
0.074465811 0.059716076 0.32927871
-0.87427497 -0.051758822 1.7972624
0.96452498 -0.024687253 2.2304685
0.32679844 -0.038721178 0.81205463
0.36846709 -0.070611343 1.2411439
0.1720655 -0.15105169 1.1245005
0.037875473 0.044982299 0.99966598
-0.044087946 0.049086168 0.70855236
0.16955692 0.044727396 0.92946744
-0.44620723 -0.38735002 4.1692142
1.4952123 -0.061917614 2.0445144
0.17340881 0.044229545 0.9605248
0.36922097 -0.078452945 1.2491677
-0.53532624 -0.086572677 2.7154081
0.16641843 -0.15859349 0.80469847
0.37096828 -0.019217137 1.0974653
0.197115 -0.15949106 0.82442164
0.21342826 0.031305693 1.0151656
0.2822454 -0.20360972 1.7296054
0.36389256 -0.074103892 1.2244675
0.72826654 0.028823111 1.0038183
0.73891938 0.020337777 1.2905171
0.17760986 -0.16307175 0.81871581
0.91110659 0.07335934 2.0066617
1.05327 -0.033668812 2.0468028
-0.005802393 0.041840155 1.4477808
-0.78254926 -0.082595974 1.7390196
-0.78284502 -0.46809703 3.0061624
0.98173785 -0.037693333 1.9092395
0.35355854 0.038046386 0.61289907
-0.86188483 -0.41621926 3.0307591
0.30757487 -0.032593857 0.91962266
0.84418571 -0.028687309 1.6191108
0.49390924 -0.30749142 4.9006948
-0.74244809 -0.45790032 3.2305853
-0.88754058 -0.43444955 3.0237005
0.0018749237 -0.53857034 4.585804
1.3487198 -0.32983136 2.3966277
0.38246584 -0.07919763 1.2239792
0.085490942 -0.54957169 4.3557978
0.50529301 -0.31630319 5.0185661
-0.8125751 -0.42699379 2.931989
-0.88435042 -0.42847148 3.1360486
-0.8227011 -0.29056841 3.039696
-1.0438356 -0.408602 3.2861226
0.08351171 -0.55025989 4.394475
-0.51890051 -0.27687937 3.299638
1.2149787 -0.036843251 2.0140641
-0.75282073 -0.20824803 1.9437153
-0.8573432 -0.35246247 3.0186331
1.1500962 -0.039201144 2.062464
0.33629233 -0.12088825 1.2429221
-1.1966225 -0.098028675 3.8448141
0.17000997 0.053066827 0.43506145
0.011324883 -0.51022887 4.2847366
0.040586621 -0.015480321 0.33268881
-0.60699189 -0.21451999 2.1755359
1.0576023 -0.0319429 2.0491045
-0.68482113 -0.41937599 3.1032379
-0.81655669 -0.27947763 3.6206181
0.09774375 -0.22821227 2.1580784
-0.92941964 -0.41759986 3.0609462
-0.76222312 -0.081300989 1.6951153
-0.64571333 -0.16180077 0.94072461
1.2211274 -0.10136065 2.019592
0.072137356 0.056873892 0.31834674
0.32975483 -0.13719071 1.2478402
-0.92464638 -0.30132735 2.830385
-0.94397616 -0.40043104 3.0791914
0.61457407 0.022162013 1.4780295
-0.24216312 -0.37941375 3.0038364
-0.74172926 -0.3917352 1.9558771
0.31769252 -0.068339989 1.284261
0.22603154 0.043916773 0.59823346
-0.5279811 -0.1832626 0.91722322
0.31510705 0.033982106 0.38113165
1.1273657 -0.082793519 2.0391467
-0.67666221 -0.26393363 3.4266889
0.43730026 -0.16635919 0.92519259
-0.75287902 -0.34597751 2.9437912
-0.71706128 -0.44443861 3.8092153
-0.53787959 -0.18444674 0.97326207
0.34495878 -0.054219957 1.3714955
-0.69520855 0.0058259219 2.6514003
-0.053758323 0.052562095 0.43899703
-0.93762922 -0.23308328 3.0441015
0.2203967 0.041259494 0.57893515
-0.97076166 -0.38921168 3.0422447
0.32363653 -0.13521641 1.218673
-0.69903231 -0.42271087 3.6564786
-0.41344059 -0.071005285 1.9499958
-0.18071592 0.055344615 0.51760364
0.73090374 -0.13890742 1.1401498
0.40517879 -0.07022132 1.6066291
0.31174827 0.034159109 0.37209296
-0.19962186 0.048494339 0.4939754
-0.85958242 -0.40984884 3.0549781
0.22288764 0.044169717 0.58269691
-0.50560832 -0.17156231 0.91640115
-0.13815653 0.060500242 0.28961205
0.82581043 -0.21233484 1.904588
0.74150586 0.02612127 1.1366684
0.37751317 0.010851098 1.2047441
0.082929969 0.053946059 0.54581428
0.42023814 -0.077323809 3.3896148
0.35483927 -0.05612829 1.2313707
-0.72781003 -0.38259551 1.9072349
1.4281855 -0.039148081 2.0842779
-0.93857074 -0.22909331 3.0511477
-0.099057943 0.057665586 0.27331138
1.4229163 -0.0372351 2.0777004
0.1411432 -0.24671492 4.2615871
-1.0174116 -0.35368586 3.2328565
0.36237395 -0.015502159 1.3572452
-0.81433058 -0.046903569 1.7444513
0.29484296 0.039409321 0.42018485
1.3975353 -0.038777646 2.0327604
1.0279588 -0.045637745 2.1286471
-0.78733706 -0.26813754 2.9723399
0.32775831 -0.12240791 0.72845507
-0.61607599 -0.47917676 4.0788908
1.0683053 -0.068543449 2.1125715
-0.56965613 -0.011634525 2.8624432
0.240004 -0.026458632 1.2061503
1.4213758 -0.039334077 2.0659125
-0.52704722 -0.18387473 0.91346049
-0.050237983 0.052651118 0.52120852
0.31350458 0.027181702 0.37434673
-0.84711492 -0.36880887 2.1228268
-1.0551677 -0.40403545 3.3164575
0.26530337 -0.3124271 4.0091591
-0.77202046 -0.098661169 1.2261364
0.35752964 0.037808724 0.62663913
-0.80723715 0.0066846013 1.7343924
0.090106964 0.060049642 0.57448459
-0.76754153 -0.28119743 2.0207665
0.43717015 -0.16632067 0.91560674
0.21903086 0.049126573 0.3662715
0.35755026 0.038153693 0.62571311
0.44164103 -0.16928622 0.92337728
0.15551454 0.014616547 1.0145061
0.3285296 0.019042721 0.84788966
-0.67503452 -0.16273011 1.1089919
-0.18325174 0.048352484 0.52546477
0.17794901 0.014995353 0.95986485
0.38999414 -0.080058977 1.2138031
0.28735894 0.037302509 0.35117388
0.10502982 0.040702984 0.95053029
0.17110568 -0.19654496 1.3978016
0.10948843 0.039992183 1.0096605
0.19372511 -0.19649652 1.4204385
-0.46130753 -0.17087054 0.88808942
-0.057104647 0.054213293 0.44458365
1.0513567 -0.042204227 2.0638201
0.25768816 -0.029437844 1.3989079
-0.64566875 -0.34633034 3.8919003
0.71718818 0.029094592 0.98205256
-0.37490344 0.057439856 0.55874038
0.077416837 0.053199679 0.42532015
-0.84500492 -0.36632639 2.1253307
0.37213463 -0.13101512 1.2343218
-0.76861787 0.0081642121 1.6407669
-0.18707013 0.051544785 0.50791502
0.071288347 0.056463875 0.31525111
-0.46741086 -0.20201118 0.91754079
-0.055104136 0.057192411 0.31293464
-0.065234631 0.05873752 0.33056021
0.33245963 0.025350289 0.81330752
0.36119199 -0.079103634 1.2293875
0.22131521 0.049389321 0.3702867
0.20987147 0.055652812 0.26880455
-0.91634953 -0.16047247 1.9491737
0.29164112 0.038698662 0.41449308
-0.4761489 0.052495115 0.93468738
-0.05970788 0.055388585 0.44970059
-0.048826784 0.051485904 0.50736785
1.4658657 -0.060289983 2.0070388
0.13423049 0.051150668 0.47322989
0.17425495 -0.19613828 1.4149072
0.18637079 -0.14597264 0.85965991
0.3469336 -0.05992179 1.698138
-0.74353194 -0.39373282 1.9616477
0.17296541 0.015592054 1.0138524
-0.81254721 -0.31432337 2.0204761
2.7789073 -0.59892046 4.0128088
-0.71637845 -0.25786376 3.1915662
-0.68457305 -0.1631321 1.1179893
-0.70527339 -0.38901854 3.5831573
-0.78038406 -0.082474157 1.7214553
0.30345112 0.011966296 0.36298585
-0.50371069 0.048607055 0.77090168
-0.57297641 -0.19445345 0.86621928
-0.1464982 0.06144198 0.27105069
0.21034503 0.044487365 0.41455579
-0.18932009 0.049066268 0.80721116
-0.072745174 0.052931 0.37902617
-0.51354522 -0.1762993 0.86806846
-0.20463717 0.051123649 0.51858068
0.30024457 0.041679196 0.36540532
0.30908102 0.037259229 0.37304306
0.23634845 -0.17615026 1.1301787
0.18106067 0.015832637 0.97609115
0.29970521 0.013661051 0.36406374
0.40987217 -0.087223545 1.2813632
0.32219225 0.018480347 0.8261652
0.091574728 0.050388463 0.69949126
-0.79492605 -0.04140294 1.7536681
1.0799253 -0.27066094 2.0495546
-0.7872293 -0.2699171 2.9236677
-0.10297096 0.050497927 0.45705771
-0.14259589 0.044759061 0.89860082
0.38044763 0.020475917 1.548106
-0.18631268 0.04929579 0.8712256
-0.038242549 0.047633551 0.73464417
-0.91222882 -0.38227624 3.0185025
-0.70991254 -0.54440218 4.7438259
-0.058742553 0.061055955 0.26552749
0.43199098 0.034590818 0.92862964
0.21286154 0.050947119 0.32399535
0.10066086 0.041542239 0.89451432
0.41750956 0.032985099 0.89542174
-0.055365324 0.057201512 0.31570196
0.44493121 -0.1901104 0.97051215
-0.98877692 -0.045898814 1.452904
-0.48766732 -0.18196128 0.88465238
0.25091434 0.042383119 0.63201118
-0.21433663 0.044100348 0.70898175
0.46731162 -0.14978272 0.7321589
0.13253844 -0.10068056 0.54726958
0.21530837 0.048788093 0.31326604
0.40622985 -0.13021503 0.67156959
-0.3689419 0.056550458 0.55439043
1.4448321 -0.058858711 1.9676058
-0.058851182 0.061092868 0.26611185
-0.37011951 0.056647409 0.55479312
0.32087505 0.019681618 0.37447476
0.36893445 0.032410879 0.68543553
-0.20067167 0.049292888 0.49722314
-0.18310654 0.080084324 0.42153716
-0.19825268 0.046721999 0.5540452
0.22800314 0.044408858 0.60620975
0.37812543 0.039754987 0.66835546
0.091610312 0.050190669 0.69380403
-0.14060706 0.060840983 0.31702805
-0.063073903 0.056910835 0.3139565
1.5763748 -0.07778652 2.0477698
-0.81398523 -0.014691256 1.7466643
-0.80506957 -0.047601733 1.7199252
0.30122405 0.033021234 0.38738418
-0.64811039 -0.41645601 2.6358793
-0.0469414 0.050161045 0.49481368
-0.71019995 -0.032138716 1.5676615
0.65405262 -0.077292278 1.5379632
-0.82688594 -0.32251406 2.063689
1.0502008 -0.058749881 2.041106
-0.046665877 0.049332507 0.67675066
1.1688864 -0.037860889 2.0011995
-0.51223481 -0.0068281926 2.3304689
-0.69740033 -0.39430922 3.0795343
-0.86249685 -0.15135702 1.9539325
0.15617174 0.013120061 1.046747
1.1592536 -0.14091946 2.1572874
-0.46002984 -0.16456893 0.88237453
-0.66669047 -0.33997133 2.9752252
-0.20413095 -0.012269285 1.5973756
-0.46170008 -0.16518608 2.6640079
-0.38002145 -0.15131956 2.6739185
-0.71283925 -0.34493029 3.3271534
-0.030622602 0.044887386 1.0150497
-0.95459318 -0.019118823 1.3296311
0.32223672 -0.13164628 0.82341623
-0.2266295 0.049652733 0.51187038
0.22394198 0.046665553 0.42034912
0.7889092 0.022851644 1.3834293
-0.18397188 0.049689434 0.58483362
0.33664387 -0.13807894 0.86865401
0.21745032 0.038884751 0.98549438
-0.5582087 -0.1437529 0.91358876
-0.82203209 -0.14203084 1.8429081
0.36889708 -0.01041751 1.384083
1.1272031 -0.081776738 1.9731104
-0.45989954 0.052604165 0.77959085
0.90465415 -0.030939747 1.8785059
0.31276178 -0.07995832 0.36481738
-0.50365156 0.042389803 0.71579576
-0.34441662 0.048883095 0.9890902
-0.55756843 -0.28277448 3.818598
-0.81217194 -0.26233748 1.9811161
-0.17300093 0.051304094 0.69032788
0.32233 0.0079532787 0.37853813
-0.58875489 -0.15008165 0.97214293
0.30225915 -0.1591382 0.75137138
-0.86078668 -0.35833222 2.0170715
-0.15507078 0.067552418 0.30801034
0.34509861 0.018819544 0.82970715
0.32041663 -0.078340292 1.3168361
-0.14117754 0.049767561 0.93116546
1.0886474 -0.032425437 1.9358537
-0.14636958 0.042167481 1.1438987
0.18073577 0.056549057 0.23965597
-0.41963708 -0.26900899 1.6834586
1.3435794 -0.21839455 2.5114963
-0.055235744 0.055712219 0.2971096
0.67378688 -0.027492005 1.4312856
0.21852428 -0.16268867 0.82061458
-0.84000218 -0.30770043 2.2284362
1.1449431 -0.084861979 2.0756719
0.60557944 0.182206 1.0366762
-0.77058864 -0.35279143 3.0097287
1.0560267 -0.055492748 2.0473135
-0.1702708 0.05077821 0.6773634
0.1035583 0.051862407 0.85028529
0.94918835 -0.031688545 2.1027801
0.14324421 0.055637218 0.466259
-0.063181549 0.056879509 0.24821806
0.21748352 -0.16251269 0.81668186
0.072429061 0.05736129 0.3227787
-0.20241457 0.055738058 0.28674889
1.0341455 -0.28680128 2.4309237
-0.81125879 -0.16671437 1.9407208
0.35152864 0.019780584 0.81943607
-0.23876137 0.052181631 0.55112076
0.35922861 -0.14853458 0.6830523
1.1211743 -0.10297827 2.2539165
0.85940117 0.040007923 1.2123272
0.32526052 -0.16425851 0.8845861
0.31948793 0.036590107 0.4132731
-0.10346559 0.057645876 0.4246788
0.36582643 -0.02146988 1.198549
-0.76527536 -0.082091555 1.7087409
0.17717123 0.044254351 0.98684096
-0.024009705 0.051671397 0.40783238
-0.50805318 -0.17426139 0.92042136
-0.76025259 0.029484974 1.232095
-0.54319525 -0.13969564 0.88614058
-0.56153953 -0.28775525 3.8493273
-0.47516978 0.073624298 0.64098859
-0.53608537 -0.18414016 0.91362882
-0.10407671 0.060295742 0.28491998
1.1683581 -0.037864652 2.007262
-0.061322719 0.055749618 0.30687332
0.30104375 -0.04308613 0.75239468
-0.71583009 -0.38789055 4.6174049
0.46144742 -0.14541163 0.65710545
-0.20149916 0.055893734 0.28501391
0.32113034 0.018723669 0.37468743
0.31541961 0.008425625 0.37031794
-0.79224062 -0.47729504 3.0572088
0.49668634 -0.15914784 1.0455182
0.035071135 0.044125572 0.92263293
0.21290535 0.052650642 0.43104172
-0.47549886 -0.2195881 0.98035312
0.20323545 -0.1892973 0.97635436
-0.26437771 0.041049428 0.32700849
-0.0030908883 0.054863833 0.44327998
-0.13085073 0.05990256 0.31968617
0.07684201 0.056157079 0.35079718
0.46186817 -0.14841354 0.67674971
0.22120225 0.048738182 0.36365628
0.083042502 0.055819683 0.24222922
-0.55362445 0.025350306 0.7120502
-0.15866584 0.040483829 0.63261652
-0.35088539 0.054224707 0.48406148
-0.75970888 -0.16539952 3.0133135
0.39978915 -0.12665296 0.65695095
0.43754029 0.034095369 0.94348836
-0.53228009 0.028021116 0.73061872
0.29538393 0.039533697 0.42017627
0.45528334 -0.13991711 0.85722661
-0.18100059 0.055385567 0.51554918
-0.12496781 0.057398278 0.30221772
0.31252903 -0.12687829 0.7966094
-0.19443285 0.047033861 0.6412487
0.18909979 -0.17558101 1.3971679
0.34405899 -0.054098886 1.2771442
-0.14305282 0.049092479 0.91477561
-0.14015031 0.061006546 0.2671597
-0.15663332 0.064786196 0.28170061
-0.83773649 -0.33641002 1.9631865
0.16500384 -0.14730108 0.80823874
0.13422728 0.0557159 0.2422123
0.0853948 0.057109945 0.25053048
0.26875192 0.031121494 0.79399753
-0.61092937 -0.16052061 0.78657579
1.9043823 -0.076578662 2.8155782
1.7468836 -0.40026769 2.3322046
0.13337177 -0.1445294 0.6890707
-0.10670301 0.061661314 0.29374576
-0.51847154 0.0057523251 0.71835852
-1.0476153 -0.43694726 3.106333
0.2208817 0.054238059 0.44990635
-0.64758015 -0.17846096 3.1569912
0.12878162 0.054516412 0.31694984
-0.56934512 -0.25008485 3.4564264
-0.52010834 -0.52544034 4.4587278
-0.55149907 -0.31885335 3.7451627
0.3282032 -0.13258016 0.84334064
-0.58278668 0.0093237646 2.4621999
0.31315053 0.017654656 0.3771255
0.41002327 -0.13065088 0.6779983
-0.62162709 -0.15762265 0.78713036
0.33279455 0.039859124 0.46419859
0.12794787 0.05673122 0.25427318
-0.8040303 -0.13840604 1.8008072
0.13642985 0.056626786 0.24732447
-0.099574983 0.058385033 0.28008986
-0.23026466 0.049992837 0.5208292
-0.48197502 0.053838219 0.8966167
-0.13706386 0.058983922 0.30788612
-0.33574039 0.047204308 0.9640038
-0.20645452 0.057000242 0.29367542
-0.67635393 0.0050070658 1.839669
0.31769222 0.018156398 0.38284349
0.39692819 -0.1282593 0.6733315
-0.51796734 -0.5178982 4.3830757
0.29373187 -0.021389734 0.34899187
-0.49939615 -0.17071116 0.90179086
-0.98404801 -0.046906006 1.4436147
0.90193224 -0.024112169 1.7682869
-0.76354146 -0.032995459 1.6860936
-0.047387064 0.051210236 0.51425362
0.20596868 0.054685418 0.2627008
1.0675795 -0.030613732 1.89659
-0.056889951 0.052411035 0.41624856
0.20248526 0.050100211 0.40931749
0.20855945 0.055508435 0.26708293
-0.10788679 0.052758619 1.2087991
-1.129097 -0.047596153 1.4936225
-0.23311019 0.00086105242 0.47311068
-0.18377978 0.060852334 0.29602528
0.40931773 -0.22354427 1.3514688
0.34916645 -0.14587687 1.0032346
-0.057973891 0.05460231 0.44436193
-0.59816092 -0.14963254 0.77164412
-0.21964121 0.096195415 0.47839332
0.46582985 -0.14194249 0.88241315
-0.38746083 0.059828773 0.52199459
0.36218959 0.03855563 0.63064885
