# .PCD v0.7 - Point Cloud Data file format
VERSION 0.7
FIELDS x y z
SIZE 4 4 4
TYPE F F F
COUNT 1 1 1
WIDTH 379
HEIGHT 1
VIEWPOINT 0 0 0 1 0 0 0
POINTS 379
DATA ascii
0.62722844 -0.11118212 1.1403825
0.64158148 -0.13509418 1.1407924
0.93916202 -0.22412191 1.2434366
-0.61100107 0.043048065 1.0273283
0.21418586 0.056441277 0.42904443
-0.20557326 -0.053995848 0.37543815
0.73353428 -0.1701666 1.1357872
-0.95218593 -0.079521842 1.5597351
0.63784337 -0.13448019 1.1323819
0.56817222 -0.036506873 1.0355186
-0.99891293 -0.076687753 1.4509764
2.7319992 -0.53453618 3.457413
-1.3341495 -0.097543702 2.1194525
0.36122584 0.028364927 1.2592053
-0.91344345 -0.017906651 1.8378422
0.84138095 -0.12003406 1.2013593
2.7996898 -0.65225446 4.0825548
0.21025632 -0.24276417 1.3457241
0.72572291 -0.18510631 1.1340668
0.32980901 -0.14866565 1.1455853
0.71486092 -0.1339284 1.1185005
-0.20429882 -0.055138823 0.37133497
0.51108581 -0.16798005 1.2672527
0.33837473 -0.14821894 1.1782
0.24252455 0.052163847 0.98042697
0.57793003 -0.0022464395 2.5534248
-0.8377555 -0.031396631 1.9080043
0.84258896 -0.12085859 1.2039192
0.21910937 0.056146022 0.36696595
0.82258689 -0.1904463 1.1949334
0.38764131 -0.16272274 1.4252501
0.59022868 -0.20100757 1.5001256
0.85131067 -0.15864435 1.1739111
0.8138895 -0.19215788 1.1806581
-0.89110285 -0.014804934 1.7964103
0.41656384 0.040339507 0.79064816
-0.20305994 -0.023639269 0.38172609
0.29440621 0.02814234 0.40881079
0.36593068 0.024214894 1.5083227
3.6527133 -0.35825926 4.8924098
-0.14210512 0.053084742 0.38088721
0.85201323 -0.16533735 1.1807818
-0.60185403 0.046930913 1.0167327
0.3883737 0.046877172 0.80280143
0.2359644 -0.12435447 1.1442037
-0.84660405 -0.14824739 2.1543736
0.14397289 0.058605518 0.53198475
-0.90623271 -0.017664678 1.8241601
-0.90728438 -0.01945157 1.8201842
-0.87890553 -0.10684959 2.090337
0.63214469 -0.19353808 3.0668159
0.80709034 -0.18579236 1.2373915
0.15754971 0.06238484 0.31974226
-0.87582695 -0.10739671 2.0782578
0.19758748 -0.34828454 1.5105312
-0.86299062 0.041652337 2.1165783
0.34906554 0.04438081 0.76276296
-0.79487282 0.0052364524 2.0234318
0.18360369 0.060456008 0.60989136
0.21164767 0.058343723 0.2706123
-0.13499196 0.050243452 0.76824373
-0.86644667 -0.11262893 2.0292578
0.80268061 -0.15763952 1.1673651
0.15324223 0.055777796 0.74722916
0.39074099 0.042153087 0.86751932
-0.87320006 -0.11005304 2.0619984
0.66974235 -0.015439431 2.2395318
0.47460252 -0.078793384 2.5526013
0.30095905 -0.19132577 1.8353741
-0.90157998 -0.11652251 2.1192489
0.94004536 -0.22500283 1.2443419
0.31162694 -0.14159633 1.4122765
-0.20272774 -0.06359157 0.76092416
0.59412998 -0.19590698 1.4438307
-0.21005091 0.042429585 0.37113982
0.60707253 -0.19886924 1.4982612
-0.20518295 0.00074708415 0.7658878
-0.20514514 0.056421358 0.32250255
-0.20803466 0.057832118 0.29057831
0.25215131 -0.12963353 1.7321591
0.35224265 -0.17711397 1.0495121
0.36217687 -0.17524877 1.5667415
-1.0285981 -0.10972974 2.0018058
0.3290717 -0.066114262 2.2547963
0.074937984 0.054235116 0.69046897
0.6007418 -0.19734833 1.4620988
0.59747124 -0.20861587 1.68137
0.62860489 -0.20986198 1.5564082
-0.055337694 0.053539645 0.62998229
-0.10637029 0.047397513 0.33976585
-0.88029212 -0.027813178 2.0924187
-0.20042533 -0.023497593 0.37485224
-0.91361493 0.045777831 1.926378
-0.20708503 0.033086769 0.78147501
0.29735887 0.04612463 1.54656
-0.21609449 -0.02107564 0.38758451
-0.54753518 -0.19224109 0.85050648
-0.19227622 0.056009367 0.33515316
-0.19573356 0.0089845322 0.75823694
0.20826457 -0.064574428 1.176425
-0.89786255 0.040151592 2.2164533
0.27853373 0.040650327 1.3981867
0.14224651 0.059974395 0.55707651
0.22170545 0.042424951 1.614841
-0.19036441 -0.051221646 0.74897546
-0.19223545 0.05574267 0.33495396
-0.11321851 0.051078904 0.46781915
-0.21084411 0.050481539 0.72251242
0.4015885 0.039498925 0.74521011
0.19414483 0.043876756 1.4114146
0.28996989 -0.18594849 1.77514
-0.19111915 0.055149663 0.33162171
-0.21260923 -0.019560777 0.38615507
0.21486978 0.056112546 0.42851657
0.56802714 -0.0099231517 3.2802699
0.2107363 0.058269341 0.26872265
0.82508892 -0.048592288 1.8461764
-0.85293412 -0.038347878 1.9152656
0.67406303 -0.10434303 1.3632014
-0.062939808 0.058959357 0.49688584
-0.19619752 -0.039419752 0.37775308
0.21323855 0.055651076 0.4251619
-0.19348668 0.021087147 0.39435238
-0.069271527 0.059083264 0.41124147
-0.126406 0.049166437 0.33223397
-0.14379135 0.053977419 0.38769263
0.30672893 0.016211253 0.39179498
0.54892868 -0.088966213 1.2666616
-0.19433613 0.021423006 0.39642662
-0.20457847 0.0563302 0.32148105
-0.84903455 0.016179282 1.7247918
-0.0050976975 -0.41612226 2.6248865
-0.20160966 -0.064253375 0.75560278
-0.61099833 -0.18263063 1.9681346
0.51808119 -0.14838944 1.0425999
0.2124082 0.056895386 0.2600565
-0.18248351 0.050335661 0.43052453
-1.3138758 -0.13540415 1.9851987
-0.71786541 -0.15770227 1.0063341
-0.12146867 0.046506204 0.69976538
0.19362842 -0.20782399 1.1671908
-0.69321543 -0.14609487 0.86526376
-0.20345969 0.048246138 0.38281971
-0.62053126 -0.17608139 0.91982812
-1.2109483 -0.26343906 2.116281
-0.10483237 0.054689489 0.43799299
-0.99369967 -0.14389054 1.7499785
0.34692273 0.028434373 0.91017681
-0.07081572 0.060372014 0.41737622
-0.1389917 -0.13482511 0.75292975
0.4083302 -0.13966639 1.6480355
-0.58204824 0.021382557 0.71631461
-0.21031033 0.043485317 0.37252158
-0.71310133 -0.12983522 1.0146592
0.29771277 0.050400749 0.37822598
-0.53301239 -0.20635641 0.89174503
-0.68500388 -0.2059924 2.0080178
-0.066514835 0.062363055 0.27050114
0.22319485 0.05470074 0.55771989
0.34035435 0.050162397 0.54424065
-0.43959919 0.062690184 0.8192299
-1.1123152 -0.014258358 1.6574051
-1.3718525 -0.060250189 2.0949183
0.35322073 -0.17899865 1.0539951
-0.20074521 -0.0071760705 1.2022014
-0.11560937 0.058825169 0.66927963
-0.43720254 0.0355567 1.5396745
-0.69684935 -0.15252821 0.96841389
-0.065866388 0.061806411 0.26703161
-0.69783205 -0.12799314 0.9879325
0.27946025 0.05317707 0.48276442
0.31022176 0.021268371 0.39196497
0.37635058 0.036647718 0.70028681
-0.71642852 -0.17495793 0.99346381
-0.10145133 0.055959083 0.30154449
-0.21810912 0.018224146 0.3837319
-0.0709197 0.060354918 0.41297215
0.20405756 -0.14415875 0.82730788
0.30444872 0.0507969 0.38320655
-0.0045497073 -0.40487942 2.5743773
0.14777635 0.054950386 0.71984142
0.47274372 0.040784717 0.79429406
0.27037853 -0.19287121 1.6941237
0.066554591 0.059076779 0.46631163
0.18081911 0.05232222 1.1295018
2.0555162 -0.35976851 2.4207647
-0.0035530133 -0.39483097 2.519664
-0.073891252 0.06184426 0.25412697
0.13805209 0.060251296 0.30641681
-0.15177999 0.056005631 1.4258335
0.20745815 -0.18939243 1.2004426
-0.11509619 0.052592348 0.48639554
-0.21921673 0.00045507122 0.82990867
0.45899898 -0.1367588 0.79364902
0.21140887 0.055860046 0.42161387
0.20052843 -0.17267977 0.99954599
0.46381253 -0.14891912 1.88257
-0.65066749 -0.18146631 0.93202263
-0.19832712 -0.039438747 0.77931982
0.30066559 0.028103821 0.49735957
0.059353448 0.058972664 0.25993556
-0.10278543 0.051970426 0.46299249
0.38062888 0.044161532 1.050966
0.38454321 0.043676171 0.70323914
0.21104299 0.056778803 0.25791705
0.31088877 0.022346973 0.39339727
0.62918007 -0.14135699 1.1716394
-0.22796132 -0.36082956 2.4750977
-0.21091887 -0.039800704 0.3825044
0.29918945 -0.18829423 1.7273216
-0.96178138 -0.10638104 1.6288195
-0.19710682 -0.060784642 0.36964184
-0.23790251 0.057496663 0.30187649
-0.071865238 0.060948517 0.41553086
-0.23061068 0.05677852 0.32543415
-0.20699592 0.057117261 0.32602257
-0.21994111 0.049680788 0.37297064
-0.15784015 0.057278879 0.3052004
-0.46921036 0.035764873 1.6543198
-0.096763916 0.057380773 0.29930228
0.2040588 0.048126675 1.492008
-0.65421015 -0.19388305 0.92972082
0.065052055 0.060754936 0.42986137
-0.21999115 -0.083012201 0.81081039
-0.2588881 0.051725093 0.64526683
-0.21168713 -0.040058412 0.38404912
-0.13920785 0.052623641 0.37132877
-0.19333841 -0.053815693 0.40131992
-0.23588638 0.056906451 0.29784089
0.21619992 0.059041228 0.54201478
-0.83003008 -0.14529429 2.1121464
0.29211968 -0.031003717 2.7462096
-0.15796942 0.057266004 0.3056106
-0.20939673 0.038504563 0.79237789
-0.1912805 0.05591118 0.33317691
-0.97375304 -0.05875795 1.6806405
0.22448017 -0.19554967 1.1494808
0.40649194 -0.13233788 1.6331298
-0.046733815 0.060470834 0.33021313
-0.19536416 0.050910193 0.44123989
-0.0090453764 0.052138835 0.400662
-0.6464619 -0.19163489 0.91709381
0.14327799 0.058800653 0.53218061
-0.11546787 0.052764449 0.60592228
0.20878233 -0.22484648 1.2794831
0.41275153 0.021805119 1.3076665
0.69873112 -0.17343992 1.1490364
0.21325924 -0.24644414 1.5370448
0.79111522 -0.037091065 2.4730453
-0.21169183 -0.019672263 0.38331598
-0.026281893 0.058937211 0.46312565
-0.602121 -0.17938079 0.9280135
0.26741809 -0.16589914 1.0257754
0.52059799 -0.032371398 0.96146113
0.45223606 0.045496661 0.54991585
-0.75303286 -0.13955313 1.0073698
0.39125416 0.042070996 0.86778647
0.066053845 0.059358306 0.46709532
0.13263839 0.056876779 0.28704268
-0.6840046 -0.16107258 0.96108395
-0.21387054 -0.14260903 0.69543856
-0.51482677 -0.04584042 1.7041698
-0.060074385 0.057709455 0.4832148
-0.68989301 -0.1532734 0.89505154
-0.57744193 -0.17279738 0.88583606
-0.64115095 -0.16439931 0.87003785
-0.16852307 0.046204794 0.76490229
-0.22077858 -0.084148429 0.81376511
-0.23560825 0.056301527 0.29651171
-0.1056109 0.057667229 0.31101996
0.28208017 0.053880677 0.48879892
-0.59039164 -0.17762789 0.92648476
0.26539284 0.050585452 0.63546461
0.28963029 0.050891206 0.63441759
-0.51290667 0.070249937 0.75390309
-0.71000165 -0.14507075 1.0012503
-0.04593404 0.058825746 0.31990546
0.21878447 0.055865716 0.36512905
-0.60912466 0.05056271 0.83027202
-0.60560602 -0.15645188 0.92837495
-0.14998311 0.012705073 0.47298926
-0.10384031 0.056245908 0.28684074
0.25927806 0.049742393 0.61835986
-0.064026535 0.054421842 0.36363369
0.22409858 0.05960685 0.38571876
0.03718194 0.065277219 0.33320516
0.44637877 0.038915556 0.7541675
-0.19815525 0.0013012891 0.37870795
-0.10607114 0.056459781 0.45039493
0.47595221 0.04129773 0.81022328
-0.75913823 -0.18122485 0.93897897
1.0344257 -0.2595315 1.3255
-0.35191667 0.048082229 0.92449051
-0.6574887 -0.19450228 0.93671781
-0.017717049 0.061353181 0.33518344
-0.5788278 -0.19809389 1.9059463
-0.21853164 0.050813392 0.36895782
-0.70596677 -0.14345352 0.99742454
0.24372447 0.045850899 0.57678145
-0.21078932 0.043008991 0.37408847
0.065308586 0.057590041 0.51037306
0.40582463 0.045477379 0.74663287
-0.10597197 0.057256237 0.2945841
-0.58252048 -0.17560551 0.9150607
-0.20754883 -0.035423961 0.3812111
-0.11174422 0.05671493 0.62587994
-0.66019714 -0.14769925 0.83317727
-0.14689793 0.059506606 0.31654149
0.031247552 0.055608768 0.40658683
-0.18895902 0.053934913 0.36993521
-1.0033529 -0.10111658 1.7209675
0.80106282 -0.018720295 1.4228883
-0.59513593 -0.18375504 0.93245119
-0.19323322 0.056116849 0.33753186
-0.61044455 -0.16192277 0.94663042
-0.20638324 -0.02180618 0.3809368
-0.18929131 -0.076773554 0.35654634
0.57520574 0.032647643 1.1945739
-0.15502952 0.054001652 0.51160616
-0.20528455 0.056308813 0.32788509
0.17515163 0.058730178 0.57205421
0.27854362 0.053051688 0.48102897
0.65083849 -0.15387462 1.1220822
0.29889929 0.038405225 0.44630069
0.40739825 0.036439419 0.82317573
0.20815241 0.057379425 0.28206986
0.2326089 -0.1833726 0.99880713
-0.6739397 -0.11471988 0.84625942
-0.57482719 -0.14310563 0.86854976
-0.10515449 0.056751247 0.2914229
0.066425219 0.058952332 0.46259028
0.031865519 0.057554498 0.42454642
0.18129677 0.059772845 0.58815819
0.26379064 -0.16418299 1.0187364
0.21367252 0.069646597 0.84273177
-0.456058 0.035528626 1.6006649
-0.16291659 0.053350307 0.50029486
-0.2238317 0.05016388 0.68563575
-0.1573424 0.052157175 0.38169974
0.68035126 -0.14189672 1.2161574
0.31261137 0.021576203 0.39429063
0.32085863 -0.16754253 1.3049006
0.37469095 0.02259627 1.2008569
0.40043491 -0.17728196 1.5429206
-0.098295458 0.060476344 0.45359856
0.32269669 -0.18895784 2.4155409
0.29499549 0.028427742 0.48773605
-0.81421679 -0.13872474 2.0648267
-0.12954189 0.049848888 0.78112012
-0.20830609 0.018853951 1.0851772
-0.89804637 -0.031255372 2.1497331
-0.068930149 0.062465999 0.34011108
0.36291549 -0.18011208 1.5865777
0.3071143 0.016047474 0.39255279
0.21725959 0.05418165 0.54772562
0.59738868 -0.16095875 1.2131217
0.76997554 -0.18461286 1.1682262
0.069568194 0.051098969 0.63631338
-0.85816342 -0.23252279 2.0693488
0.76030892 -0.18151516 1.1505508
0.27760801 -0.2063579 1.7866728
2.8049166 -0.13681142 4.8147826
-0.2061352 0.035763398 0.78112453
2.1666625 -0.096363246 3.8222477
0.41177881 -0.23124671 2.5484478
0.33120719 -0.10728709 0.6423611
-0.21963169 0.048932228 0.37356323
-0.58370578 -0.069913439 1.6751695
-0.54853463 -0.11944389 0.93369716
0.83517742 -0.0402398 1.4320633
-0.18200125 -0.33377039 2.6282759
-0.20916609 -0.20878175 2.3788862
0.95183909 -0.060635734 1.7341666
-0.10686521 -0.32443306 2.7938128
-0.78782719 -0.047067698 1.3399119
-0.65360314 0.037036151 1.633311
-0.12696646 0.051026229 1.4240358
0.59925568 -0.02858926 0.85453361
0.61399746 -0.015340638 3.5096476
