# .PCD v0.7 - Point Cloud Data file format
VERSION 0.7
FIELDS x y z
SIZE 4 4 4
TYPE F F F
COUNT 1 1 1
WIDTH 558
HEIGHT 1
VIEWPOINT 0 0 0 1 0 0 0
POINTS 558
DATA ascii
0.76315808 -0.054740414 0.94083238
0.99189961 -0.05193302 1.5062289
0.62636137 -0.0020181127 1.497653
2.4582758 -0.11762971 3.9307749
0.73953426 -0.044964224 1.015146
1.8798492 -0.08794301 2.6522143
-0.24909917 -0.33107346 1.8763695
-0.46083847 -0.0029541273 1.5355566
0.37727082 -0.20022532 2.085336
1.3178242 -0.0872247 2.9286048
-0.55469549 0.002927985 0.96452665
0.40718484 -0.16625413 1.3131828
-0.28283811 -0.21700746 1.4058604
-0.2121937 -0.32058731 1.95979
-0.24595737 -0.26182571 1.6731181
-0.28643584 -0.25790009 1.3876052
-0.2194511 -0.31509367 1.8683109
0.4012737 -0.21388122 4.0383749
0.30618989 -0.015627746 1.9929924
-0.22186568 -0.34888712 2.0027306
0.2562505 -0.17297623 1.3687198
0.28571177 -0.034089394 2.7438891
-0.54623604 -0.036070239 0.96395063
0.63912737 -0.0042310376 0.78112793
-0.29455748 -0.19674951 1.3696976
-0.55437195 0.0017533787 0.96371412
0.22541985 -0.023964263 1.892875
-0.56659079 0.031012598 0.98244572
-0.56412089 0.030284381 0.97717094
0.59813291 -0.10689656 3.6203368
-0.31012192 -0.25692493 1.3522048
-0.57298714 0.020677514 0.90689754
0.42204198 -0.22293758 4.3168688
0.4235402 -0.42152733 4.8408031
-0.2220079 -0.28192157 2.0705073
-0.4759523 0.043632664 1.2300525
-0.21461043 -0.25412384 2.2760947
-0.50128657 -0.14859852 1.5418766
0.32143068 -0.16160887 1.1827662
0.52082568 -0.12433646 0.60913444
0.26843813 -0.033797763 3.186568
-0.46149269 -0.18562865 1.1222563
0.44238892 -0.23260659 4.5517254
-0.47228494 0.013161886 1.4828107
-0.16921458 0.04389137 0.96719098
-0.65704387 -0.13787416 0.83313155
-0.61277962 0.051543426 0.85158324
-0.4732205 0.020814249 1.4868143
-0.49634489 0.017632775 1.4616797
-0.65658474 -0.13712782 0.83157635
-0.25074238 -0.23401755 1.5673192
-0.63452435 -0.17707396 0.83680558
-0.3079246 -0.24227461 1.3686974
0.34157982 0.024069803 0.54937983
-0.62249744 -0.16020924 0.82920432
0.40526193 0.0054799672 2.1389966
-0.61151338 0.050403893 0.85440087
-0.68370426 -0.16535133 0.83837414
-0.59510869 -0.16167995 0.83267212
-0.47582486 0.011706857 1.462744
-0.6103605 -0.12417067 0.85407734
-0.44952646 -0.18292487 1.0935335
0.5049687 -0.20876828 2.9622476
-0.28710315 -0.38342705 2.0005076
-0.26295015 -0.26501432 1.5371442
0.33673546 0.047895063 0.39552855
-0.51734537 0.026914552 1.197736
-0.36886197 0.054493628 0.9276154
-0.49256733 0.022531543 1.1610734
0.31865713 -0.16055599 1.1679571
-0.52275348 -0.12294311 1.5588367
-0.42593309 0.032663018 1.5366399
-0.52002835 -0.12251189 1.5513792
-0.29816985 -0.23305014 1.8612497
-0.38965079 -0.086400345 2.0836642
-0.39028695 0.058541913 0.67779064
-0.51733512 -0.1948202 1.0353761
-0.52293241 0.017859813 1.542748
-0.5155707 -0.11984213 1.5346854
-0.51950145 0.017081536 1.5302229
-0.47205016 -0.18850368 1.1502497
-0.59074962 -0.060177438 1.9647293
-0.34013811 -0.19947284 1.4069922
-0.74010253 -0.092006736 2.2163858
0.052266933 0.048435461 0.97246933
-0.2357668 -0.3550975 2.1864612
-0.62400103 -0.1603477 0.83419013
0.71560073 0.019742742 1.4144576
-0.20625877 0.050789475 0.51225138
0.13186473 0.056942265 0.47271323
-0.10527296 0.034029778 0.39964199
-0.74891746 -0.092661545 2.2463
-0.56559938 -0.059881166 2.2848947
-0.44128987 0.0085924603 1.7447834
-0.48387089 -0.0030459911 2.3582065
-0.31717706 -0.16517395 2.4212053
-0.22377825 -0.1088945 1.6071479
-0.5914672 -0.14352056 2.6901457
-0.56571853 0.023302978 0.95326233
-0.41128811 -0.20311376 1.3498745
0.79413927 0.010471636 1.5057259
0.20017964 0.059092052 0.35617304
-0.45475522 -0.12149914 1.5103056
-0.75463653 -0.098712288 2.0820658
-0.46526536 -0.0030133296 1.5300186
-0.74519551 -0.093574673 2.2308834
-0.16832575 0.045457132 0.99683261
-0.38215747 -0.18595043 2.0921311
0.2696377 -0.2483111 1.3973918
0.22607312 -0.22006953 2.2946727
-0.29372093 -0.23405465 1.8391242
-0.23519471 0.049923681 0.47142887
-0.52379847 0.0043935459 1.3684013
-0.39526939 0.031568371 1.7957306
-0.45313796 -0.023318633 3.2377799
-0.44927755 -0.10011877 3.187206
-0.3422839 -0.19161749 1.3876789
0.43885615 0.024385184 1.3312452
-0.53344661 0.014686853 1.2866347
0.39286667 -0.016282663 1.5171072
-0.42440513 -0.16056716 1.3763454
-0.56366974 -0.00090387091 1.1794286
0.6797241 0.0020580478 1.0550277
-0.51555645 0.044332244 0.92440462
0.440754 0.0061797388 1.3684995
-0.40064529 -0.16135484 2.3452075
0.036775075 0.049191613 0.82803631
-0.36874011 0.054710381 0.78978777
0.13825315 0.057351597 0.41859031
-0.56393015 0.0088910181 1.1641552
0.63888311 -0.055290312 0.85102344
0.31127346 -0.14990026 1.1557662
0.40781772 -0.16557801 1.3129525
-0.46977845 0.011316312 1.4832013
-0.11869771 -0.12349949 1.4517686
0.7271415 -0.059878208 1.095247
-0.25161859 -0.18598324 2.4887187
1.4990753 -0.13182929 1.8308041
-0.35217562 -0.19806862 1.4408238
-0.53860712 -0.059527025 0.96506143
-0.49257353 0.022562027 1.2510331
0.67508101 0.0023427811 1.0446353
0.36638981 -0.28111455 1.9810646
-0.3186363 -0.25124946 1.4094548
0.44226915 -0.17100346 1.1772346
-0.4338235 -0.1697278 1.4216614
-0.39248902 0.059378754 0.55958438
-0.38765857 0.058538195 0.67207575
-0.18958369 0.052921325 0.54980087
0.082195394 0.054657444 0.51532125
-0.55272633 0.0013031177 0.96251917
0.24976406 0.048657559 0.87412119
0.15619555 -0.018919732 2.0027251
0.4418079 -0.16782016 1.9982531
-0.24541783 -0.22482389 2.1219015
-0.55670357 0.0047345087 0.96780515
-0.55246848 0.051091339 0.83251977
-0.20018786 0.054566015 0.35023022
-0.57412624 0.030092828 1.0032728
0.31622118 0.026723668 0.55477452
0.21417308 0.057392519 0.2997911
-0.54258001 0.020827297 1.1637375
-0.45654127 -0.19190618 1.1853042
0.072994031 0.058904994 0.35984731
-0.52927655 -0.1084993 0.9523778
-0.54707909 -0.23031148 1.4867296
-0.53180665 -0.10933956 0.95834804
-0.44829491 -0.19658566 1.0768092
0.3729966 -0.20069361 1.1950028
-0.18325794 0.054411992 0.8222611
-0.4649761 0.00080357864 1.5133975
-0.064982392 0.057417728 0.50294805
-0.68867886 -0.16290134 0.88817406
-0.28470892 -0.25496265 1.3775303
0.41535783 0.0045457408 1.3697844
-0.26306555 -0.29906201 2.0576293
-0.28573033 -0.21866944 1.4071512
-0.20611519 -0.29349285 1.923969
-0.23996937 -0.24952674 1.9775763
0.22034371 -0.033360407 3.0243409
0.44670251 0.042497974 0.65508723
0.71176291 0.02071478 1.3222573
-0.39108631 0.059573296 0.55381107
-0.41723463 -0.15786085 1.3482728
-0.58583343 -0.12764913 0.85786152
0.32198465 -0.2729618 1.763587
-0.27542973 -0.31066692 1.8646123
0.20276374 0.059540682 0.35881734
0.15225282 0.05673914 0.47835279
0.22052065 -0.14181951 1.3455763
-0.56295633 -0.00069151632 1.1796679
0.63762379 -0.0033695996 0.77861333
-0.37346259 0.055820953 0.80227184
-0.1674298 0.046686426 1.0081143
0.24700266 -0.26116586 1.3348351
0.21206954 0.058597796 0.32570195
-0.22588781 -0.28121904 2.4641426
0.34004891 0.040902294 0.53753757
-0.31769991 -0.24644476 1.3039465
-0.26654929 -0.28470218 1.4684951
0.21124274 0.059147611 0.3520658
-0.55923033 0.0048070811 1.7577627
0.38133144 -0.23517939 1.8775768
0.080576561 0.054825991 0.48724508
-0.53524816 0.014809472 1.2881954
0.59736913 -0.10557572 0.77939963
0.33870748 -0.15740359 1.2972851
-0.29686406 -0.26505962 1.3954744
0.57807541 -0.1143548 3.0814612
1.2068452 -0.059426323 3.4155891
-0.30039498 -0.40825331 2.0925145
0.24680445 0.047581516 0.29787302
-0.5739305 -0.1258269 0.83925939
0.46915054 -0.027413584 1.9517262
0.31005457 0.034462031 0.55010605
-0.2060973 0.057300832 0.36504269
-0.20907471 0.051307943 0.52513981
-0.48661652 0.013076976 1.4264746
0.071661763 0.058345187 0.35576105
0.11730545 0.060970806 0.28222728
-0.56567168 0.05175966 0.85875535
-0.18751761 0.060217079 0.3356483
0.201547 0.057246961 0.33570528
-0.61101818 0.059707128 0.83890629
0.36254632 0.019678809 1.1196945
0.58956766 -0.11015458 0.769701
-0.39561918 -0.23010129 1.3504269
1.5604212 -0.28734148 4.2652349
-0.52123511 0.055241436 0.8950901
0.21102399 0.053287312 0.28496718
0.46610752 -0.14331704 1.5848191
-0.58199942 0.00066446699 1.2000332
-0.59122932 0.057022907 0.85412693
0.39211193 -0.18742406 1.1325226
-0.78561556 -0.085114233 1.8894217
-0.51563603 -0.12173427 1.5321736
0.31880465 -0.19909486 1.212194
-0.19411114 0.058148529 0.27876401
0.16316304 0.053068306 0.61810231
-0.32957348 -0.33844915 1.5024526
0.49886671 -0.17239916 2.1051679
0.21962196 0.034464918 1.2655654
0.33104983 -0.24842206 2.1486039
0.44181675 0.01009066 1.3672223
0.2891978 -0.20840371 1.2767305
-0.54517913 0.0074654464 1.731663
-0.19303656 0.052446622 0.62946558
-0.41262832 -0.1796633 1.0708382
0.41141605 0.038203895 0.98825192
0.54393911 0.038105246 0.7365396
0.54999191 0.023274943 0.90378451
-0.55552167 0.030133907 0.95895576
5.6792974 0.76172978 7.0968313
-0.83865792 -0.17930183 1.4917223
0.13202587 0.057604566 0.47541451
0.21649566 0.056056663 0.49280977
0.12632206 0.057785541 0.25129294
-0.62912542 0.052630488 0.87460661
0.53194743 0.038960077 0.72131634
0.37354717 0.045311742 0.45823479
-0.26228085 -0.2815451 1.4450357
0.27297133 0.050155114 0.39819479
-0.62643445 0.052558988 0.87227702
-0.53419244 -0.10960684 0.9631393
-0.046001144 0.051051207 0.52555847
-0.17711368 0.052614454 0.89065146
-0.67911053 -0.19049081 0.86418366
-0.4538649 -0.17029095 1.4754584
-0.41845551 0.063336045 0.64934587
0.67544305 0.0037485734 1.0468307
0.36875904 -0.2037814 1.2209737
-0.51852441 0.045629941 0.93235993
0.44771788 0.026840713 1.3590159
-0.49281928 -0.20179161 1.0918226
-0.37900987 -0.21044567 1.0071137
-0.18919763 0.060389861 0.3396728
-0.55914652 0.0096373074 1.1530089
0.53854305 -0.18682659 2.2717402
0.32770833 0.037365928 0.57142615
0.32742354 0.022467846 0.57389736
-0.40641469 -0.22299609 1.4650395
-0.54463851 -0.035704918 0.96259427
0.41784731 0.038993113 0.59831858
0.368541 0.034813851 0.84256363
-0.46086553 -0.22350463 1.0560143
-0.27152529 -0.36171487 1.8773122
-0.84993577 0.039427936 1.0562642
-0.096118949 0.053383298 0.86585379
-0.04497572 0.054506376 0.78148627
0.31650501 0.035600919 0.54413795
0.053968884 0.050086111 0.99160957
0.40885401 0.0080863647 1.3683434
-0.44349703 -0.19153959 1.1134832
-0.17000496 -0.18819776 1.744302
0.5167138 0.03930819 0.61117649
-0.57380426 -0.0032223444 1.1665127
-0.33429515 -0.17108601 1.6848981
-0.19120705 0.055315517 0.40701056
0.34857005 -0.22275969 1.5224717
-0.061002225 0.056546293 0.33258462
1.485999 -0.14829424 1.7476268
0.32424369 0.022647658 0.56970263
-0.25156602 -0.19481942 1.4683566
0.48038533 -0.033054654 0.59901977
-0.046198912 0.058962286 0.92514586
-0.29665267 -0.19875544 1.3805723
0.62132943 -0.12562519 1.7015939
0.34707573 -0.26601985 4.0458994
-0.33112463 -0.18847811 3.148114
0.21613362 -0.35215801 3.7551486
0.14896613 0.059162311 0.26787519
0.4239724 0.044147398 0.54535818
-0.9423126 -0.091843411 1.3815029
0.63506866 -0.0028721038 0.77579141
0.32218018 4.401803e-05 0.55640793
0.32531115 0.03510968 0.56226802
0.21328309 0.059536606 0.35387802
0.21069175 0.053409111 0.42933178
-0.22796896 0.053822048 0.31153631
0.23796853 0.063739225 0.53339386
-0.85580623 0.039772633 1.0757008
0.67288029 -0.0016106907 0.96076679
0.080167823 0.05535784 0.47849894
-0.82737827 0.037628926 1.0279202
0.52275747 0.0399267 0.62082314
0.24321198 0.050179891 0.47728133
0.13078722 0.056577045 0.46557164
-0.21318933 0.052863911 0.53725719
-0.43882623 -0.18699938 1.1012866
0.12862206 0.055426158 0.45610428
0.070398889 0.056975819 0.34443378
-0.20118749 0.048085455 0.59713578
0.43999165 -0.16232106 1.2577453
0.18257356 0.049413703 0.93631744
-0.58548319 0.055327974 0.84692144
0.72326392 -0.063847959 2.1254342
0.41328704 -0.12266677 1.3313003
0.42706883 0.02425486 1.3697441
0.21622902 0.054293729 0.62148476
0.26534516 -0.21621314 1.2225513
0.32565552 -0.21850207 1.2526622
-0.1940054 0.050955616 0.43232942
0.32299724 0.031164182 0.56600332
0.3337799 -0.15494436 1.2456033
0.21921524 0.054011762 0.32528734
-0.066797487 0.060703047 0.55100751
1.6226102 -0.27894878 3.788399
0.015350111 0.056485895 0.44792128
-0.030841939 0.052483745 0.84281087
-0.41570863 -0.20593208 1.3732791
-0.38802311 -0.21265346 1.3868606
0.26320595 -0.28832 1.3358662
0.54662627 -0.15746242 2.0278909
0.39201424 -0.22927514 1.2671123
-0.35461795 -0.22612208 1.3758631
-0.40584049 -0.22358936 1.4651468
-0.59001017 0.056404505 0.85396051
0.016672723 0.055436902 0.44023323
-0.049838178 0.055224672 0.59639597
1.278108 -0.36225274 3.4359863
-0.37761125 0.029484682 1.8670733
0.54849511 -0.12563473 2.1172361
-0.6726079 -0.055763826 2.791002
0.31656635 -0.16097894 1.7996607
-0.28533295 -0.3011848 1.4298458
1.7899655 -0.42415082 4.8088427
-0.27008197 -0.3872827 2.0692205
0.15243575 0.040032607 0.75649476
-0.12425857 -0.01393922 0.97156668
0.32061169 -0.0085557438 1.4269412
1.5000066 -0.33228651 3.7842658
-0.44870284 -0.12098899 1.4863269
-0.46577641 -0.07101462 1.5133121
0.63402736 -0.34605911 5.2954664
0.6929875 -0.17624074 0.93517947
0.4422088 0.020370204 0.71436453
-0.61641693 -0.15835211 0.82309079
1.1562868 -0.33379418 3.1381562
-0.20459983 0.055499788 0.32183194
-0.11245402 0.060685869 0.31001997
0.20279041 0.06023141 0.37040138
0.63256526 -0.16275105 0.83820891
-0.18812692 0.06032737 0.45170641
-0.048504822 0.058944911 0.83500719
-0.13610426 -0.14238912 1.6829133
-0.30673656 -0.25287873 1.3365529
-0.46262774 0.0088476734 1.6173708
-0.20206571 0.056554355 0.24651885
0.45820835 0.032364838 0.97824812
-0.39112163 0.030047705 1.7748904
-0.53047639 -0.17570919 0.8309803
0.11696748 0.045237631 0.94600916
0.27064985 0.05222014 0.33540893
-0.20525035 0.057426624 0.46368599
-0.41161546 0.062757321 0.71261358
-0.57899988 0.052545294 0.88208961
-0.20602843 0.053222898 0.4657793
-0.44241253 -0.17163509 1.3920717
0.2619817 -0.29109684 1.3299189
-0.21144485 0.053072438 0.41855168
0.32121953 0.020040063 0.55874157
-0.61584747 -0.17376503 0.81161571
0.33969268 -0.22291672 1.2087715
-0.55644023 0.039980493 0.8486886
0.3337197 0.020861499 0.55565429
0.31712267 -0.21187639 1.2078424
0.33903193 -0.14450836 1.2087042
0.070105352 0.057332594 0.34769177
0.12398262 0.061780103 0.28733325
0.19898638 0.059019964 0.36111712
0.18341663 0.050067853 0.94055939
-0.49056211 -0.16630924 1.4992411
0.12918657 0.036078546 1.0537181
0.424126 -0.16175491 1.877877
-0.40221444 0.023013208 1.6349423
-0.20693716 0.05574017 0.29859519
0.38900191 0.027360134 1.36397
0.39266011 0.035546921 2.3943675
-0.56636322 -0.18754551 0.89266086
-0.20464072 0.052788593 0.46204281
-0.81485438 -0.092550337 1.7983298
-0.21577132 0.05103096 0.44515991
-0.024170138 0.057947546 1.1764362
0.36259142 -0.15715355 0.67738223
-0.28426853 -0.38131624 1.981432
-0.43183234 -0.2099289 1.1472516
0.36369577 -0.25864035 1.9929194
0.33463684 -0.14616367 0.71349931
0.42531717 0.042861626 0.6052506
-0.4867554 -0.21439478 1.426368
0.68232036 -0.0083498284 1.105412
1.0666655 -0.2679722 2.1187549
0.25139129 0.046264712 0.78114843
-0.45662817 -0.12324236 1.5158775
0.87062842 -0.066385694 1.0492365
-0.5901053 -0.19976956 0.97008085
0.54125792 0.041467369 0.64585471
-0.28792572 0.044245578 0.40927935
0.78378332 -0.2043823 0.89195561
0.31800124 -0.21230325 1.2028153
-0.07918147 0.048595645 0.87837267
-0.57374489 -0.23370349 1.5142255
0.63098466 0.063914172 0.83268213
-0.22441247 -0.20087147 1.8837123
0.25640839 0.048530914 0.53764582
0.12601498 -0.021067325 0.63441229
-0.47163376 -0.20733765 1.3767967
-0.18826509 0.06056333 0.33709788
0.34043163 0.025126139 0.56044292
0.34455597 0.021882826 0.56831574
0.2964128 0.021643221 0.51272249
0.39899617 0.039658666 0.55992436
0.78305036 -0.050944515 1.172308
0.79994047 -0.03456419 1.1593707
-0.25209492 -0.16412175 1.7434087
0.36292633 -0.010807157 0.64793992
0.35879561 -0.43216911 4.5426836
0.3430644 -0.43348333 4.4376249
0.40717047 -0.21213552 1.1474106
0.34211504 -0.22449297 1.2187126
0.25206396 0.046746157 0.78401995
-0.52307343 0.053536564 1.037492
-0.12405986 -0.18415681 0.80338717
-0.0094664171 0.046117742 0.98135543
-0.55464649 0.042819206 0.88691354
-0.4892011 -0.20059681 1.0839932
0.28195587 -0.26049373 1.2322934
-0.86459875 0.048859872 1.0698521
0.39274687 -0.13982871 0.73583603
-0.21012545 0.045553382 0.84205794
0.21111396 0.054918252 0.29428124
0.290463 0.048309535 0.45181918
-1.7951697 -0.084552243 2.7846859
-0.80294013 0.057217345 1.0152071
0.82058609 -0.031295773 1.9084237
0.25815248 0.052126035 0.34626889
0.24268681 0.050474335 0.47542572
1.1139878 -0.27196291 2.2063353
-0.56963909 -0.16896817 0.82151413
0.29684693 -0.20623472 1.1788931
-0.44568291 -0.21147156 1.0229266
-0.093952782 0.027368004 0.16885996
-0.20666605 0.048811182 0.59705257
0.3015371 -0.30128044 1.6060882
-0.21509176 0.056121796 0.28636289
-0.20306328 -0.32030031 1.9099841
0.22096983 0.054484785 0.32570505
-0.47741577 0.050851591 0.8144691
0.10042495 0.052066006 0.73411751
-0.206337 0.058606569 0.29514647
-0.65554857 -0.13607541 0.82996821
-0.20080465 -0.18855715 1.1979222
0.072789587 0.059374031 0.36408329
0.26127806 0.044023059 0.98946619
0.099485837 0.040082984 0.29206991
0.36564979 -0.20596319 1.2240477
-0.44603184 -0.12145033 1.484273
-0.56498498 0.029709443 0.97628713
-0.15943763 0.047408961 0.75022268
-0.49277815 -0.1830231 1.0836771
-0.31550989 -0.00605659 2.2171721
-0.23206487 -0.21341377 2.007993
-0.60179847 -0.20319667 0.98898935
-0.44055501 -0.27652162 1.4755788
-0.33991781 0.086507112 0.88446045
0.30652013 0.019871503 0.53222942
0.43050903 0.043007422 0.61260509
0.29089859 0.050032701 1.1179154
-0.83985376 0.058349088 1.0646913
0.21242997 0.059267152 0.32665801
-0.81856775 0.058987867 1.0361989
-0.064105414 0.059653167 0.36577439
-0.58411235 0.031705014 0.85942984
0.7565679 -0.031626604 1.1164281
1.1395878 -0.24562666 2.2978075
-0.59782833 -0.15550089 0.83693242
0.36963621 -0.12924114 0.7436974
-0.41719577 -0.17406362 1.0776095
1.013561 -0.29848474 2.6346481
0.36470646 -0.16257739 0.73457837
0.16967839 0.05539687 0.64702201
1.2014428 -0.25341198 2.4420278
-0.61448562 0.049567074 0.86090231
0.39458823 0.0093047405 2.0988026
-0.063658886 0.058770232 0.3547399
0.40694851 0.0033807419 1.3210332
-0.23588938 0.0514284 0.4392283
0.60939234 -0.054990701 0.94220996
0.67118043 -0.17470187 0.89030623
-0.76313275 -0.11397565 2.0211124
0.34552222 -0.20910394 1.2125807
0.39177591 0.041405782 0.60972905
0.21480531 0.056094483 0.43839478
0.14742178 0.06025476 0.30774975
0.33377001 -0.16390207 1.4093752
0.014980488 0.059192687 0.47491837
-0.19563064 0.056808621 0.29578471
-0.19779187 0.054169729 0.64677906
-0.50398207 -0.19145486 1.0453815
-0.061017342 0.06167629 0.66551495
-0.26793984 -0.34639028 1.927691
1.1965607 -0.091473378 4.1518879
1.095437 -0.32083791 2.8338015
0.359256 -0.13833484 0.75424552
0.44965169 -0.086899944 3.9416435
-0.85415757 0.0056676213 1.0550492
0.37686983 -0.16695237 1.580019
0.20746639 0.061243739 0.3170979
0.16017142 0.060049899 0.51075244
0.23784986 0.049417764 0.57029748
0.072245382 0.048658796 0.43557024
-0.53448588 -0.058547519 0.9571712
0.33463421 0.039747957 0.5678823
-0.57981586 0.04803193 0.96262431
-0.50885195 0.041472975 0.965415
0.19298109 0.047987804 0.84030628
-0.52485359 0.016284728 1.3610189
0.062826775 0.051366806 0.2973702
