# .PCD v0.7 - Point Cloud Data file format
VERSION 0.7
FIELDS x y z
SIZE 4 4 4
TYPE F F F
COUNT 1 1 1
WIDTH 499
HEIGHT 1
VIEWPOINT 0 0 0 1 0 0 0
POINTS 499
DATA ascii
2.2296381 -0.096800849 3.1105642
1.3697276 -0.080684036 2.007338
0.11124952 -0.20529254 3.658906
0.071464434 -0.38400868 3.8631058
0.1137435 -0.20729707 3.737431
0.29928273 -0.18842731 2.1298943
-0.31525683 -0.2172702 1.2200072
0.11207362 -0.18918705 3.67908
-0.50865692 -0.067938209 1.1514578
0.80204111 -0.058850702 1.3218997
0.1027977 -0.36954701 3.6960464
-0.89459294 -0.084197477 1.1984003
-0.52414376 -0.16888966 1.255851
-0.68825275 -0.0059306063 2.4205122
0.038983837 -0.020338014 3.1764569
0.061804011 -0.33790305 4.1020527
0.011273995 -0.0086746402 2.0649672
0.76799428 -0.05687983 2.275022
-0.083035216 -0.44721091 4.342958
0.80313075 -0.069864973 2.3274074
1.3797419 -0.26083919 3.1649961
-0.48288256 0.044817187 0.95470023
0.46991724 -0.1290397 1.7011886
0.22803141 -0.17298222 1.2751389
-0.64699548 -0.020974848 2.7349291
0.77968132 -0.056212995 2.3344913
0.22248615 0.03499449 1.3316934
0.21976979 0.040314715 1.3089421
0.24711771 -0.2601344 1.3294079
1.9307367 0.23431939 2.8973789
0.31563681 -0.17473516 5.1292405
0.026351228 -0.42332017 3.8726668
0.022943929 -0.44580472 4.0895357
0.7396003 -0.014372353 1.2751856
0.28066051 0.027202575 1.5467696
0.93207473 -0.070508361 3.6082792
0.32104546 -0.14961798 3.3077493
-0.32327282 -0.30587256 3.6203041
-0.52247131 -0.47319004 3.5245862
0.6633594 0.03240177 1.0844467
-0.555282 0.028472563 0.97297406
-0.79098612 -0.046129387 1.6345205
-1.8221269 -0.16696441 2.8766532
-0.7484135 -0.063139006 1.4675364
0.62737775 0.033478972 0.97072911
0.9621926 -0.26368454 1.4874883
1.9437602 -0.53784001 5.7538633
-0.5009228 -0.44291106 3.9362421
-0.69130164 -0.18792588 1.3645668
1.1799133 -0.21737352 2.1741557
0.25621945 0.0073532797 1.5633917
-0.79529077 -0.047446605 1.6308312
-0.6530714 -0.094692454 2.3624868
0.72575402 -0.025887948 2.4120445
1.1549487 -0.075290099 2.1202679
-0.486036 -0.45371073 3.6539869
1.1118293 -0.080740124 1.9539709
0.99979228 -0.26135522 1.3632927
0.21223529 -0.24292067 1.349051
-0.77612346 -0.072551817 1.4490085
-0.50795925 0.044714168 0.92410135
0.36020201 0.014252054 0.93520617
-0.96168238 -0.16700147 1.9128847
1.163059 -0.23383263 1.607554
0.23021843 0.052850436 0.55677533
0.99512351 -0.18181194 1.3542039
-0.85227507 -0.084333479 1.5260167
0.42349529 -0.12278163 1.5266089
0.085036024 0.056644615 0.4429369
-0.82214648 -0.020033114 1.8229227
-0.9046362 -0.072417989 2.1621475
0.34150505 0.021012506 0.50435472
1.170791 -0.23726717 1.6154017
-0.8179844 -0.095285282 1.5108376
0.98332214 -0.17865835 1.3228152
1.2661262 -0.27214873 2.4960661
-0.67963922 -0.15007003 1.516222
1.0907731 -0.068784937 1.7687039
-0.38707304 -0.15591581 1.2227297
-0.51940602 -0.44331861 4.0239553
0.26643354 0.0082185548 1.6323624
0.098273054 -0.0017216671 1.1442885
0.80858892 -0.063955978 1.3315129
1.1722846 -0.23575142 1.6143489
0.47284257 -0.15039921 1.2060416
0.24547984 -0.16101794 0.93815637
0.80134523 -0.03836808 1.2676988
1.0020832 -0.13294812 1.4582634
0.23157199 -0.0095920675 1.6810732
0.42196572 -0.013812453 1.2769945
-0.85068649 -0.08240658 1.5242057
0.25304312 -0.20945641 1.2879694
0.19168039 -0.23565656 1.3728328
0.34254652 0.037585273 0.49065042
-0.41612601 -0.14613795 0.72762513
-0.4796229 0.044181541 0.94406605
1.0533738 -0.28571528 1.5285287
0.34714431 0.035077658 0.50296497
-0.36110866 0.054242034 0.72356796
1.0970024 -0.34829262 1.523067
0.27241266 -0.19640754 0.89770412
1.0004992 -0.26137772 1.4615068
0.25433594 0.03662141 1.528018
2.3761184 -0.12137571 3.6111903
1.3728502 -0.46340433 3.339941
0.48461467 -0.15382153 1.2574887
-0.73211217 -0.077446699 1.4327826
0.1524293 0.057034489 0.3649087
-0.84672767 -0.082347095 1.5084558
-0.42064309 -0.19933245 0.93874002
0.29609305 -0.24803597 1.7077079
0.21701948 0.05895729 0.28471351
-0.35803592 -0.2077256 1.2562125
-0.43456274 -0.16528121 1.0286818
0.22548492 0.054455597 0.43406105
0.21503229 0.056472305 0.31253004
0.98950261 -0.16322513 1.3238065
-0.78596896 -0.21429226 1.4833951
-0.77255851 -0.073145717 1.4286003
0.38374597 0.017465221 1.0227208
-0.48695588 -0.26656583 2.2727895
0.24765332 -0.28964949 1.4090462
0.26562482 -0.28747413 1.3338759
0.24235971 -0.18285899 1.3888702
0.15450494 0.057704493 0.37142611
0.25989032 -0.15347569 1.4241171
-0.048053786 0.058002971 0.39896584
1.3348581 -0.049932111 1.8477497
0.33813328 0.040668126 0.50074601
1.1709862 -0.25830764 1.4949389
-0.49011678 0.044006214 0.98447251
-0.63263828 -0.077928573 1.205765
0.26891881 -0.26305515 1.3601522
0.43088561 -0.14189395 1.8070831
0.34752065 0.014464019 1.7989326
0.2535705 -0.16160253 1.3984122
1.7742636 -0.1205336 3.0384622
-0.19536577 0.043902002 0.63028455
-0.19696383 0.044347871 0.63370395
1.0606039 -0.16497397 1.3092966
0.43051511 -0.12441576 1.5309396
-0.34550208 -0.16300987 1.1017416
1.0617855 -0.2852875 1.5380354
0.47784275 -0.14980328 1.2167256
-0.12717475 -0.12125027 1.3984067
0.16400851 -0.23275164 2.0403466
-0.67669684 -0.1795896 1.3257389
1.1520529 -0.23177013 1.5104194
1.2231612 -0.058699127 1.6242666
0.26189095 -0.27037582 1.2836978
0.22276218 -0.23329145 1.4611406
0.37997395 -0.15017538 1.1287932
0.23032506 0.053084366 0.55566669
0.20393403 -0.21315247 1.3587463
-0.037160501 0.052683786 0.59654713
0.36092669 -0.28955522 1.8702054
-0.56936675 0.027556228 0.75593376
0.88355953 -0.17624316 1.298244
-0.50694823 0.044747107 0.73190141
1.0196016 -0.23104864 1.4873028
1.2370479 -0.15844263 1.4701233
0.98777723 -0.16318195 1.3240871
1.6054592 -0.38899192 2.961926
-0.49815357 0.0122193 1.1219323
-0.53082681 0.028721046 1.0697789
0.44944781 0.0026882179 1.5891604
1.1277583 -0.2273432 1.4791279
-0.75291842 -0.063445285 1.3919926
0.43166637 -0.14289178 1.816134
0.2091641 -0.21074603 1.3686676
1.7822633 -0.07328701 2.811718
-0.5705052 0.012439337 1.2861779
0.29006696 0.036321845 1.1888528
-0.092599615 0.058446605 0.36106372
-0.68506432 -0.1813428 1.3406758
-0.36003608 0.054328956 0.72377372
-0.11778079 0.059736848 0.26691484
1.0348856 -0.16311772 1.3000305
1.0009135 -0.16511005 1.2907679
0.48712993 -0.14905013 1.0300469
0.23352398 -0.24645993 1.3621273
-0.55283177 -0.12460475 0.70384264
1.1959723 -0.056922879 1.5819077
0.084785029 0.056827892 0.44753289
0.7914288 -0.070532143 1.3132112
-0.16692977 0.05366997 0.72914052
0.1102296 0.049277291 0.81716061
-0.3886295 -0.19685483 2.0588951
-0.020849869 0.04772155 0.78986335
-0.039868638 0.053550102 0.60851669
-0.72687364 -0.067685157 2.3849115
0.081704244 0.057830334 0.33860493
-0.089107409 0.05759687 0.3317728
0.080808505 0.057255302 0.33565354
1.0801679 -0.16057894 1.3341582
0.34048903 0.014951098 0.4929409
0.47000092 0.038216148 0.58135438
0.22600068 0.054819264 0.43592882
0.3038407 0.045942988 0.69304991
-0.21514605 0.032078549 0.64128542
0.22468098 0.054527286 0.43052363
0.67154998 0.03134089 1.0694532
-0.73634952 -0.059190217 1.4397373
0.16102071 0.055533409 0.52394128
-0.78079873 -0.068319157 1.4609356
-0.36674011 0.056107894 0.65290713
-0.55336314 -0.12424676 0.70618701
0.43820751 -0.082834959 1.6022987
0.28452194 -0.060327258 0.68567014
-0.57086974 0.027423803 0.76042175
-0.84127885 -0.04603922 1.7541299
0.11539032 0.048986629 0.87490058
-0.65932161 0.015974233 1.6963749
0.13505067 0.044389315 1.0859787
0.408481 -0.045878541 1.4054489
0.45071024 -0.072788477 1.7264018
-0.73101872 -0.11569285 1.6525955
0.65553224 -0.025135145 0.8334496
-0.072187498 0.050690413 0.61488008
0.64389449 -0.08384335 2.2140369
-0.67729986 0.058160938 1.5188537
-0.79776007 -0.075181499 1.3439684
-0.3633855 0.05477345 0.71826386
0.62253433 0.034042288 1.3615477
0.12275644 0.036279373 1.5807838
0.67049682 0.035460483 1.4770751
-0.19569813 0.055334892 0.33452129
0.15442501 0.057528771 0.37002611
1.1197345 -0.18802431 1.4109125
0.23584707 0.053732842 0.40589762
0.33519441 -0.11588345 0.51887059
0.22600044 0.054342039 0.43472934
0.26641822 -0.19461314 1.0299895
-0.16646115 0.057951465 0.36207533
0.23383202 -0.26638398 1.3323057
0.45722336 -0.16954355 1.1505034
-0.38397717 -0.29898497 1.5523753
-0.57991201 -0.11382967 0.71392179
0.26292104 -0.15330808 1.4412775
1.5649614 -0.51671726 3.1151404
0.023363665 0.037072524 1.1950965
1.1574056 -0.23613831 1.5205255
0.33424526 0.017219901 0.51214433
0.50738484 0.04269528 0.63410163
-0.69510722 -0.093198806 1.4257469
0.22851153 0.052006856 0.38875151
-0.17102547 0.051975202 0.72667265
-0.057028159 0.058453724 0.34763408
-0.045397773 0.057449549 0.44618654
0.11010499 0.059013378 0.2892704
0.98554826 -0.15621002 1.3951626
-0.72960913 -0.061885189 1.3493159
-0.45366335 0.043300968 1.1149418
-0.17478459 0.061213858 0.25806975
1.2621312 -0.033416148 2.4151344
0.1508611 0.056886204 0.36114621
0.40092021 0.020176146 1.3842769
0.24783029 0.037279025 1.487411
0.46188432 0.019983485 1.4701433
1.1708261 -0.24788457 1.4481268
-0.039157346 0.051993385 0.58708334
1.0741839 -0.14313382 1.4701757
-0.53422529 -0.14463249 0.73138285
0.44746506 -0.0094933398 0.94166279
-0.1057602 -0.26221311 2.9425969
0.48113346 -0.078859404 1.8665051
0.67858881 -0.0049181096 0.84644079
-0.19421034 0.043698549 0.61890674
0.33552396 -0.16198754 0.84472585
-0.5028978 0.040453847 0.83080053
1.0952129 -0.11161275 1.2976775
-0.11374669 0.059796147 0.30372214
0.26095414 0.038059894 1.5695987
0.2325718 0.053175688 0.39754677
-0.5055294 0.054321747 0.64245534
-0.64886755 -0.22185284 2.9855895
0.23488124 -0.19733396 1.2756515
-0.69536489 -0.18270087 1.3601377
0.21783294 0.058130447 0.31479311
1.0804362 -0.15997507 1.3264208
-0.046860203 0.057563722 0.3982954
0.22700651 -0.23447052 2.405406
0.420358 -0.062166501 1.6992316
-0.13244508 0.060292069 0.28685951
-0.52888274 0.025514033 0.97115445
0.47326535 -0.083872885 1.8261256
-0.57397681 0.028143425 0.76707888
-0.1964138 0.055702578 0.33731556
0.30969685 -0.17329679 0.83162642
-0.092934415 0.060354631 0.3532002
-0.84775108 -0.083477274 1.2164714
0.86976397 0.026371172 1.6779141
0.21897312 0.058208436 0.31798005
0.26025462 -0.17139789 1.3200469
-0.54226851 0.039759897 0.83680987
-0.10610645 0.058893558 0.32245922
-0.48807919 -0.010681599 1.1271508
1.0545297 -0.10748543 1.2477374
0.85791725 0.026007699 1.649354
0.14640658 0.054995455 0.4525063
0.42574883 -0.13657372 1.7618861
-0.368276 0.057705704 0.49046922
-0.048021033 0.057536885 0.33280635
-0.52654946 0.034285672 1.0453463
0.31277275 -0.043603998 0.78243947
0.164463 0.041314121 1.3462942
1.1310622 -0.17216234 1.3997321
-0.057725295 0.059014671 0.35085487
0.36508518 0.0214877 0.95153832
0.28268224 0.0274872 1.5585308
1.2896675 -0.038635571 2.5648527
-0.86046475 -0.08505325 1.2387948
0.27707368 -0.29787454 1.3866417
1.2297206 -0.26214352 1.5377102
1.3200541 -0.033482771 2.5376921
0.082051918 0.05497238 0.41937971
0.66352773 -0.0047411695 0.82344389
0.65828639 -0.18928306 1.1105392
0.34174091 0.015959933 0.50460553
2.8654878 -0.14300199 4.5526271
1.4086013 -0.076373249 1.8140602
0.24276377 -0.166463 1.3873551
-0.51569784 0.037609573 0.79393411
0.2419066 0.053477511 0.43308783
-0.65342683 -0.10617813 1.4534874
-0.16941969 0.058884807 0.36766219
-0.20955919 0.054988183 0.42475367
0.30499756 -0.18384339 0.83796096
-0.69375831 -0.1504143 1.4201574
-0.21946876 0.031430028 0.65520406
-0.050596401 0.053004086 0.60095167
0.27784872 -0.21259469 1.2085154
0.43616849 0.030314999 1.0754204
-0.12978999 0.058988649 0.27907395
1.1185107 -0.18206239 1.7017727
0.9856481 -0.22473642 1.5237885
0.32776439 -0.091717198 0.4928987
-0.67895013 -0.16533642 1.4351687
0.35544074 0.043133803 0.74515367
0.096712843 0.054530215 0.63573694
0.28215051 -0.16699405 1.5528002
-0.042751029 0.055779133 0.6325736
-0.49652666 0.013002478 1.1219077
-0.41007507 -0.16758847 1.1350815
0.22658928 0.050649364 0.34921813
-0.54798669 0.029529093 1.1068287
-0.1657332 0.057984058 0.36123204
-0.72086483 -0.17272294 1.2291751
0.23409702 -0.20165536 1.3766701
0.4614836 -0.12201236 2.0501089
0.28418189 -0.17308855 1.4587908
0.2162471 0.057585716 0.32163978
0.10069509 0.054436594 0.69007397
0.15174247 0.058059093 0.39754844
0.10037665 0.054179288 0.68475294
-0.12414302 0.059360422 0.30150032
0.24178042 0.05188128 0.66451216
0.50299531 -0.14212333 0.96689224
0.49887955 -0.13787965 0.94423628
0.44865447 -0.12825494 1.6141677
-0.01573129 0.050787937 0.93979526
0.29984248 0.025380751 1.5906682
-0.50139189 0.021296326 0.7407341
0.27450681 0.037557106 0.6435585
-0.35624903 0.055796817 0.47020912
0.2259381 0.057331435 0.40569329
0.22057231 0.059271466 0.25462389
0.7358706 -0.024939369 0.97392535
-0.18660776 0.052927423 0.43617749
0.26673281 0.042366374 0.38814592
-0.12496866 0.059949342 0.30474424
0.3383075 0.040356614 0.50378108
0.4709025 -0.082246706 1.8245811
0.26454592 -0.25849277 1.330982
-0.50343424 -0.16927008 0.76088095
-0.5420326 0.025243515 1.0050619
0.32370162 -0.057169471 1.1793199
0.30099243 -0.17728767 0.91098905
0.3482663 -0.052413534 1.399353
0.021180406 0.059302334 0.2909174
0.047271743 0.034596123 1.4181757
0.19590177 -0.23308229 1.3841453
1.2793068 -0.10370077 2.8463526
1.0965137 -0.12469459 1.3437166
-0.73110539 -0.076673776 1.3051188
-0.047671899 0.056793623 0.38313675
-0.44606 -0.18862922 1.2451468
-0.49082929 -0.14137679 0.87389565
1.0420814 -0.16839913 1.5839057
-0.36833 0.055253059 0.73539305
0.92226362 0.01548616 1.9263053
0.0028353184 0.054449458 0.52321267
-0.21758701 0.030512316 0.64784002
0.33132041 0.02605531 0.50857472
1.3171905 -0.081649289 2.5682263
1.157106 -0.23394838 1.5212588
0.32345897 0.037410598 0.47512841
-0.48623908 -0.15925784 2.2089925
-0.65556818 -0.19991887 1.3779376
1.0900623 -0.15801421 1.3566327
0.87112796 -0.038931254 1.1619353
-0.19644259 0.05535854 0.33471513
-0.046501383 0.057983421 0.40374327
-0.63477188 -0.12015726 1.3053837
-0.58366781 -0.16525315 1.0506327
0.99449807 -0.26267746 1.3224325
-0.67525893 -0.17643759 1.3201258
-0.18379633 0.060257271 0.35770226
0.25784999 -0.20882586 1.2993212
-0.054919466 0.05674855 0.33407903
0.16491647 0.069558904 0.38243437
-0.048292652 0.061584126 0.49533916
-0.21468087 0.048302814 0.49844098
0.082749054 0.055557624 0.43683553
-0.12271626 0.060304098 0.25875711
0.39201438 0.037476029 0.77973843
0.22144122 0.053913407 0.42976809
-0.10122319 0.063600749 0.34527254
1.1587316 -0.23278812 1.5078669
0.079756513 0.056429632 0.32355475
1.1251918 -0.091220513 1.3067837
-0.48267239 -0.13850039 0.71903968
0.32216769 0.021213498 0.48978424
-0.052666292 0.05410013 0.31122088
-0.045329168 0.05427257 0.3124702
0.26283604 0.044479482 0.853127
0.22463198 0.054674629 0.43087029
-0.75003016 -0.18338506 1.1924379
-0.86298639 -0.086217374 1.4806585
-0.098066494 0.061210033 0.33163977
-0.31088513 0.047667041 0.55823159
-0.048441008 0.062218141 0.50118089
0.25965744 -0.048263002 0.62993431
-0.56323689 0.022335935 0.89156651
-0.36413318 0.054907989 0.73588777
-0.5824613 -0.11407122 0.71710038
-0.39185399 -0.32561848 1.5610442
-0.54096109 0.021930467 0.67237663
-0.50737792 -0.16972697 0.76744461
-0.12625755 0.058525905 0.33245778
-0.1577058 0.05067027 0.68153071
0.0090072006 0.05438029 0.52652907
-0.32728189 0.047568548 0.87944984
-0.51435941 0.022609271 0.76300025
-0.14081411 0.06359233 0.30570126
-0.16821794 0.064641759 0.2865963
0.16556205 0.057285458 0.45827198
1.1140511 -0.19691475 1.414937
0.32752085 -0.11637421 0.5119555
0.15346952 0.057624105 0.37058854
0.31263161 -0.17527287 1.2828975
0.59359866 0.025503624 1.1605165
0.35484517 -0.17036133 0.89578843
0.10030816 0.045370489 0.73240519
0.28976989 0.043228418 0.40220094
0.81919503 0.025731497 1.5566497
-0.04587464 0.054548841 0.31562591
0.23672403 0.051220607 0.38219666
0.19336762 -0.23906437 1.3873084
-0.11919652 0.060178276 0.27288556
0.090264216 0.056338567 0.44797039
-0.52896816 0.026498502 0.89389157
0.29201078 0.043383025 0.40511227
-0.10319747 0.05769442 0.31609249
-0.17699705 0.041298825 0.57872796
1.1166152 -0.35270634 1.5510397
0.45222086 0.040916495 0.57453918
1.1138661 -0.12334591 1.3718104
0.34185076 -0.01446772 0.44055963
-0.59381402 -0.18131883 1.5873647
0.22837467 -0.25472981 1.3350666
0.15393673 0.059692666 0.30767846
-0.76976329 -0.14920056 1.5010614
0.15908588 0.064405724 0.33203197
0.1591882 0.064885795 0.33359742
1.1035438 -0.24237657 1.3788736
0.27162045 -0.15214738 0.97497225
-0.50482523 0.013212292 1.1384892
-0.077281699 0.050563917 0.7101655
0.25161982 -0.16816366 1.3783684
0.10023366 0.054520354 0.6872952
1.1120445 0.070665538 2.6967068
-0.3569842 -0.27272534 1.4246025
0.18276782 0.056149907 0.55446529
1.1753491 -0.032853607 2.5152221
-0.70642453 -0.155146 1.5002418
0.0098439008 -0.001803644 0.38077211
-0.73491192 0.061299223 1.5733676
-0.59552556 -0.50228608 3.7741642
0.23486049 -0.19643712 1.4445367
-0.10510428 0.063555643 0.40083265
1.0115546 -0.16624777 1.3076222
0.33837306 -0.17572586 0.82935429
-0.052343205 0.051879946 0.59249353
-0.061257616 0.046428658 0.59565139
-0.5508638 -0.17972627 2.5231705
0.38764703 -0.038521122 1.3284774
-0.45928442 -0.25903711 1.9806685
-0.68094063 -0.10169126 2.4941416
