# .PCD v0.7 - Point Cloud Data file format
VERSION 0.7
FIELDS x y z
SIZE 4 4 4
TYPE F F F
COUNT 1 1 1
WIDTH 558
HEIGHT 1
VIEWPOINT 0 0 0 1 0 0 0
POINTS 558
DATA ascii
0.21844327 0.046157971 0.53234398
-0.94033277 -0.093830444 1.2300137
-0.9393152 -0.094521999 1.2240173
-0.93494642 -0.16173734 1.2186934
-0.92938423 -0.21843052 1.2341839
0.71291828 -0.053964615 1.1681999
0.37291333 -0.072998859 1.712226
-0.96048236 -0.016688371 1.2769488
-0.92629254 0.01854975 1.2897505
0.71514201 -0.042332433 0.96739304
-0.67722905 -0.1698602 1.1335903
2.4773769 -0.13635579 4.0884986
-0.7296828 -0.16957347 1.1870848
0.73246634 -0.054997869 1.1999906
0.77404821 -0.055706382 1.3253535
0.20863307 -0.18789716 0.92197144
0.23024832 -0.17606533 0.88942468
0.64984334 -0.11094984 0.90449274
-0.66788912 -0.19303606 1.145934
-0.54123306 0.046815529 0.88326132
-0.95726526 -0.019333975 1.276579
-0.92235672 -0.21826224 1.2154154
-0.67087257 -0.16821547 1.1184059
-0.68987453 -0.2189444 1.094242
-0.90465176 -0.17864968 1.4037331
-0.91446078 0.054878548 1.2338232
-0.26822448 -0.26674873 1.673493
-0.31475738 -0.20505708 1.6709229
-0.79068649 -0.24989103 1.3115898
-0.53967535 -0.0009749271 1.2478303
-0.60663366 -0.14464533 1.0017496
-0.239519 -0.23298056 1.9729916
-0.30389687 -0.38093048 1.7677606
-0.88465333 -0.18025099 1.5210317
0.42865086 -0.17407309 1.5836295
-0.17473727 0.060437441 0.38600588
-0.23010638 -0.32499975 1.5927624
-0.26514071 -0.22489505 1.7141694
-0.18290074 -0.32440516 2.218183
-0.26760849 -0.26506379 1.6822344
-0.19997346 -0.32507834 2.1702604
-0.19039743 -0.31914508 2.123929
0.45516512 -0.22389342 4.2642555
-0.75024104 -0.19088145 1.1676673
0.75138962 -0.051977307 1.2507664
-0.93652499 -0.25840491 1.2099131
-0.73108363 -0.23075972 1.1570431
-0.51193452 0.0041242279 1.1388286
0.21889262 0.052191198 0.59794152
-0.24055207 0.018933859 0.75902665
-0.53116918 -0.039022319 1.2464453
0.65314925 -0.012121087 1.0443722
-0.29153278 -0.45550904 2.4029646
-0.94095385 -0.096919686 1.222519
-0.24325705 -0.34455323 1.7011906
-0.27518713 -0.20284151 1.6589717
-0.9188472 -0.28103405 1.3728873
0.33702123 0.0078173857 0.75827301
-0.53888607 -0.0015592333 1.2455047
-0.42134038 -0.24808715 1.598631
-0.23408082 0.029162699 0.35109341
-0.54980373 0.027646113 1.2616879
-0.95975769 -0.020916956 1.2868296
-0.93527865 -0.0098614637 1.2932678
0.69873893 0.004853623 1.3898991
-0.54757261 0.026796723 1.2563955
-0.36057743 0.051912677 1.0923637
0.50908148 -0.092166968 2.9775481
-0.2661505 -0.26575762 1.679803
-0.3104625 -0.23477112 1.4727901
0.49286249 -0.23980983 4.6873622
-0.19315043 -0.30744711 2.5571175
-0.20959374 -0.28047445 2.2908831
0.49649909 -0.43827733 5.1616912
-0.227828 -0.35087159 2.2333159
1.6666466 -0.083989993 2.1430426
1.0647899 -0.083409749 1.6744455
-0.19547322 -0.29101375 2.3867249
-0.46359721 0.040379785 1.5409385
-0.61603868 -0.17771426 1.1042124
-0.55924034 0.017553169 1.1951493
-1.0365567 0.057556748 1.3004543
-0.53728223 0.00057553314 1.2340189
-0.47943613 -0.1532913 1.8288256
0.34697491 -0.1717464 1.4868392
-0.64252853 -0.1403968 1.1136914
-0.34587476 -0.23028757 1.0644826
-0.58723223 -0.13718987 1.1801924
-0.439441 -0.18829291 1.3834714
-0.52856219 -0.066139489 2.5541377
0.33693865 0.04407914 0.57815945
-0.38258538 -0.17183594 2.7602758
0.51662445 -0.24962319 4.9231892
-0.45404437 0.0085598333 1.7871569
-0.2032079 -0.28781208 2.407712
0.5787133 -0.055790536 0.9393872
-0.30623826 -0.22048326 1.9980284
-0.32964489 -0.2503567 1.5380317
0.57781637 -0.29088449 4.3134861
-0.15044378 0.038706228 1.2135054
0.94308531 0.099318229 1.7638668
-0.64293969 -0.14057584 1.1130887
-0.36942652 0.025956301 2.1079478
-0.58569777 0.048446931 1.1053938
-0.44886211 0.016548136 1.760831
0.075706035 0.053480998 0.54460704
-0.64337409 -0.13995861 1.1140789
-0.22901675 -0.24155422 1.8635336
-0.62306166 -0.18031678 1.1226994
0.0024880916 0.056096539 0.43692148
-0.29165432 -0.25142035 1.6779002
-0.58708024 -0.047333479 0.90700257
-0.23414615 0.052063033 0.33904254
0.47920284 -0.20101739 1.1224216
-0.61169791 -0.1636533 1.1167024
0.43137497 -0.17649546 1.5954796
-0.18813628 0.05561848 0.28266275
-0.29582414 -0.3961702 1.9768544
0.43948659 -0.0031425469 2.4157872
-0.95361114 -0.29568246 1.5077163
-0.0035830885 -0.39528126 1.7195402
-0.59964478 0.048434556 1.1427592
-0.67958808 -0.17934158 1.1185249
0.314455 0.04949604 0.36950839
0.32441989 0.025301803 0.39881349
-0.56714892 0.059017032 0.96055377
-0.96104765 -0.021471543 1.2902099
-0.11206728 0.058025673 0.41946185
-0.44053546 0.0063203592 1.6882418
-0.61508989 -0.16435577 1.12214
-0.93660831 0.022887245 1.2681025
-0.60135829 -0.12810969 1.1477219
0.27880496 -0.24217768 1.571659
-0.44526753 -0.19298607 1.4251968
-0.47397837 0.003934931 1.5602111
0.75800896 -0.047248825 1.1552092
0.71454 0.073542446 0.97993982
-0.90765142 -0.17457336 1.4107929
-0.95138407 -0.29136968 1.4364897
-0.71114874 -0.18694784 1.1231469
-0.72143972 -0.19038738 1.140926
-0.76194632 -0.20078951 1.198682
0.056021824 0.043602929 1.1609911
0.57452738 -0.22933812 3.4121971
-0.25987965 -0.39121875 2.2919364
-0.92815125 -0.21936397 1.2118722
0.49948511 -0.22464618 4.7498865
0.22288457 0.053888146 0.60544574
-0.57111275 0.034508914 0.85595238
-0.12218437 0.060387813 0.41263366
-0.67768049 -0.19934782 1.1368009
0.22631082 0.051025175 0.73637831
-0.37428913 0.054791741 0.9361974
-0.12008779 0.061347544 0.4265027
0.1391975 0.057904817 0.43035412
-0.66347969 -0.14486195 1.1717104
0.87422442 -0.1170418 1.2634524
0.078568935 0.056704871 0.55070698
-0.067353114 0.059456907 0.40665388
-0.0074545816 0.058329895 0.29234171
0.13745852 0.053524822 0.54544079
0.55721557 -0.18423085 1.9966353
-0.55618405 -0.037169509 0.87375534
-0.44844356 0.02554542 1.3443197
0.38291973 -0.22141874 1.435707
0.34037054 -0.16830099 1.451986
-0.50341082 -0.1285751 1.8584749
-0.40091619 0.028059848 1.8101946
-0.49395022 -0.12602076 1.8212026
-0.91503477 -0.17996643 1.3414818
-0.46674839 0.040535271 1.5546108
0.053808063 0.043178923 1.1136056
-0.26725182 -0.23568304 2.1045547
-0.71521032 -0.16650875 1.1599857
-0.35977575 -0.092576168 2.3730402
-0.91512167 -0.21723489 1.3407372
-0.59731567 0.054080207 0.77772343
-0.24422756 0.051282108 0.59555018
-0.19806805 0.054889314 0.35734332
-0.24606594 0.024861982 0.34125686
-0.37717441 0.054966278 0.9532367
-0.24184719 0.049141999 0.65445888
-0.11321057 0.058450393 0.37834024
-0.17412038 0.060986355 0.29304779
0.31837544 0.004102625 0.79459107
-0.65879798 -0.14757735 1.1631874
0.14289089 0.05728583 0.46136105
0.13751554 0.054065894 0.54467595
-0.0017513409 0.059311204 0.30492008
-0.27175274 -0.41532299 1.7961699
-0.48037824 0.015264273 1.7439188
-0.49810919 -0.12521066 1.8407491
-0.4813616 0.013620757 1.7479056
0.35332316 -0.2301269 1.4665033
-0.32092211 -0.20554285 1.6990167
-0.42267296 -0.18675335 1.3375622
0.15640275 0.068387143 0.33535302
-0.59473479 -0.25055605 2.1046433
-0.70984328 -0.09653499 2.5097175
0.34861806 -0.19254118 1.6149675
0.28730097 -0.25269973 1.6406556
-0.16423139 0.04821831 1.4098138
-0.2970306 -0.32080555 1.6893119
0.069359332 0.04280499 1.2503906
-0.21810713 -0.38675866 2.6618376
0.46721557 -0.37979665 4.465703
0.2263101 0.052743342 0.28337729
-0.61438584 -0.16422722 1.1243871
0.48280713 0.036980636 0.57908976
-0.10835119 0.060007744 0.28560948
-0.18891588 0.054663315 0.35312772
-0.24239805 0.055409908 0.33876956
0.31263629 0.041682094 0.42539263
-0.23784897 0.026654895 0.35867369
-0.61520827 0.056410439 0.77120054
-0.91764438 -0.17420444 1.3500465
0.36078992 -0.16311753 0.94550788
-0.6210767 -0.18138653 1.1259979
-0.43892437 -0.23992006 1.0653189
-0.13386947 0.059084706 0.41725075
-0.38699239 -0.20474143 1.0275129
1.530539 -0.15334953 2.0836673
0.69780099 0.020245664 1.4089602
-0.89575875 -0.15980008 1.1826109
-0.1935409 0.046146393 0.77453268
-0.73514819 -0.17567569 1.1687354
-0.18579261 0.051609162 0.67256224
-0.071731441 0.058140904 0.37924886
1.2069516 -0.15695719 1.6203471
-0.69392455 -0.20862977 0.92985094
-0.19301236 0.055796608 0.57194936
0.28069374 -0.24256499 1.584268
-0.727777 -0.098845527 2.5782509
-0.51898742 -0.063958846 2.4923015
-0.10905458 0.055765845 0.39741623
-0.38966417 -0.0064112414 2.2395716
-0.23945862 -0.1437919 2.2262187
-0.93723559 -0.16299167 1.2212023
-0.14538524 -0.079332896 1.284398
-0.34988835 -0.039709389 2.46134
-0.54369402 0.019586522 1.2158583
0.4542096 0.015991952 1.5733017
-0.0055858865 0.055348299 0.39667547
-0.49500278 0.068608567 1.6352404
0.2088746 0.053872678 0.62773955
-0.47597846 0.013643855 1.7278477
-0.45461681 -0.13299401 1.8997318
-0.72845006 -0.10165876 2.3812995
0.20127587 0.056544632 0.44609082
-0.36822605 -0.21414194 1.057531
-0.19848111 0.055258133 0.35856473
-0.1840881 0.055877484 0.42715681
-0.48126271 -0.18683028 1.1552891
-0.70868075 -0.097873107 2.5002141
0.21069232 0.049801722 0.56799662
-0.16109051 0.04307447 1.3800853
-0.13728355 0.061086342 0.37372613
0.31311685 -0.08180432 0.38837409
0.28554505 -0.24884079 1.6287092
0.22478843 -0.20036714 2.1549387
-0.14793071 -0.083543152 1.3022255
-0.26534307 -0.23919512 2.1069026
-0.7037164 -0.25096783 1.1653694
-0.22778293 0.046771973 0.75688303
-0.065508202 0.05464825 0.51302373
0.0032816827 0.057414219 0.45491385
-0.20047396 0.054959528 0.32442427
-0.50837672 -0.20634225 1.3437227
-0.50174737 0.00073821843 1.6473547
-0.36880288 0.02741982 2.089921
-0.38816229 -0.02726086 3.342948
-0.39154586 -0.10268701 3.3368487
0.12949562 0.050283 0.50855124
-0.57915545 -0.037277557 0.87578142
0.30696258 0.00098154508 0.38876915
-0.080266058 0.051733676 0.41289139
-0.3173925 -0.19382674 1.644004
0.06524995 0.059465714 0.29532743
-0.72152507 -0.1913178 1.1388382
-0.052930735 0.049292333 0.51589668
-0.55273175 0.028984088 1.271571
-0.33689624 -0.21788862 1.334237
0.44239599 0.016434133 1.5271167
-0.51729095 0.010815075 1.5826877
0.48375079 -0.14547737 0.94298518
0.29849631 0.040571563 0.40428805
-0.1213603 0.061097309 0.41936266
-0.069242612 0.060117729 0.40130889
0.22238965 0.048678979 0.58601177
-0.18935782 -0.39425334 1.754083
0.30808726 -0.07195913 0.39113784
-0.19791541 0.055066839 0.31975186
0.067300573 0.060979672 0.30401564
-0.24136943 0.05199106 0.33340251
-0.42000946 0.06422209 0.5084902
0.31148466 -0.065045774 0.39138103
1.4876286 -0.12265696 2.0475698
-0.10998221 0.061095811 0.29217064
-0.20567366 0.059405774 0.63554704
-0.22394851 -0.022550398 0.34609842
-1.0385356 -0.076188087 1.2838937
0.1340543 0.05829449 0.32683527
0.14095446 0.058123015 0.37082934
-0.40472221 -0.1662924 1.6639806
-0.55305612 -0.004760094 1.4857646
0.23586494 0.051388327 0.78995192
-0.5429436 0.055513613 1.2735411
0.13624632 0.059966736 0.2561034
-0.24260846 0.052103318 0.33503771
-0.18075013 0.059298769 0.47331822
-0.41199467 -0.19425943 1.7765075
0.70165634 -0.0074951649 1.3268186
-0.41540354 -0.22624512 1.049492
-0.20149121 0.05589512 0.32670379
0.13762577 0.054683365 0.54067886
-0.49642262 0.040515788 1.1959609
-0.066211358 0.059517726 0.28490329
-0.0091154575 0.060364328 0.30212581
0.30946067 -0.065099873 0.3870436
0.05457285 0.055147715 0.50478637
0.4839344 -0.0020585768 1.7188441
-0.17941552 0.058579162 0.46780539
-0.50908542 0.0070084203 1.5364338
-0.25050181 0.052091435 0.60974562
0.051334068 0.044020437 1.1007525
0.40696386 -0.160239 0.97250998
-0.35524616 0.051078293 1.0695406
-0.0049899369 0.060356013 0.4520216
0.3192116 0.021337613 0.79803908
0.43441081 -0.17425962 2.5297956
-0.55533123 0.0059745256 1.4761387
-0.17469254 0.053064086 0.39378822
0.3020345 -0.1960119 1.0288957
0.3599557 -0.13370061 0.87887228
-0.10176408 0.026160615 0.6662823
-0.13099942 0.058481589 0.41260207
-0.45898023 0.063028112 0.60892999
0.64042187 -0.062611587 1.0842208
0.32735121 -0.15469167 1.4131435
0.45237839 0.0071081668 1.5540384
0.43015036 -0.17323589 1.5865945
-0.45164385 0.0082439454 1.7862858
3.0231829 0.33895341 5.7014542
0.31541345 -0.07331223 0.40257597
-0.42211732 -0.19608499 1.5295814
0.35946193 -0.051779561 3.9687715
0.46093926 -0.35853457 4.8666406
-0.1996302 -0.17732176 2.5287395
0.30706355 0.0046849102 0.37808084
0.28231454 0.044283245 0.55932844
1.5301728 -0.14398439 2.087328
-0.19454917 0.054595441 0.3132385
-0.19094998 0.051640607 0.35348773
0.2262318 0.052550994 0.3310535
-0.07111156 0.058075145 0.37640405
-0.16895607 -0.24121515 1.2270685
0.21172069 0.054806501 0.28280473
-0.17403467 0.061235949 0.2924639
0.29541492 0.0482338 0.57633674
0.38178328 0.0440039 0.58001173
-0.33671817 -0.33057675 1.6836191
-0.51191819 -0.21276174 1.06385
-0.33327147 -0.20453258 1.7342218
-0.52188241 -0.062337376 1.2447673
-0.26849011 -0.22934826 1.7322909
0.55652881 -0.14005518 2.418128
-0.41856858 0.062940419 0.77444303
-0.10738757 0.03266415 0.75812638
-0.28967181 0.04407654 0.49292386
-0.37363312 -0.19720145 0.98090017
0.83189988 0.10324448 1.242853
-0.93153155 -0.17880988 1.2976962
-0.54708481 -0.18897364 1.12633
-0.46168593 0.018030506 1.4934567
-0.2438654 0.021242255 0.3671751
-0.068214864 0.061597444 0.29809391
0.20953794 0.054286726 0.27809691
0.13275579 0.057865672 0.32389557
-0.56310821 -0.24674891 1.8934191
0.078731701 0.060793675 0.26255107
-0.065720327 0.056248672 0.54043067
0.2037103 -0.19961633 0.90678108
-0.18778694 0.05573862 0.28311086
0.34294397 0.02146833 0.86314476
-0.19034266 0.055251166 0.35882735
0.68386877 -0.006838074 1.2896572
-0.49274698 0.041879527 1.1868724
-0.11621162 0.059782684 0.37947989
0.36094773 0.036640085 0.83648455
0.31302911 0.037236564 0.40647757
-0.22627887 0.052759919 0.32784367
0.31521812 -0.23277466 1.7633497
-0.19760177 0.05404482 0.36923921
0.15543687 0.059124961 0.38211894
-0.17754897 0.052870084 0.4359957
0.13841403 -0.02456197 0.77522528
0.37669444 0.043372523 0.57119906
-0.075668342 0.061125539 0.29512274
-0.27891275 -0.24017115 1.5730304
-0.085780531 0.069513142 0.49349213
0.45177758 -0.17671953 1.4128121
-0.59577131 -0.18650526 1.0870103
-0.41348356 -0.17312616 1.7055386
-0.39407453 0.057846464 0.8701278
-0.18015178 0.0626119 0.39249074
1.0422546 0.060937636 1.960955
-0.38320532 0.05642508 0.97360098
0.31703421 0.046776295 0.56126988
0.50958908 0.034043215 0.83042538
-0.47697434 -0.22719179 1.0387925
0.66428065 0.020826595 1.3413726
-0.11101115 0.057893515 0.42141604
0.16225322 0.059446454 0.31936264
-0.24101508 0.05248981 0.50296748
-0.50801039 -0.22813945 1.0215293
-0.58107519 0.066019028 0.85206234
-0.3843579 -0.20349683 1.0152823
0.21376182 0.055507571 0.64686906
-0.34240985 -0.23013435 1.0535721
1.5964876 -0.14607367 2.1462679
0.091094688 0.047762875 0.78188026
0.092756718 0.049479872 0.78630316
-0.52711487 -0.0027005002 1.2187978
0.26701328 0.043291334 1.152769
0.14874838 0.061524928 0.3983705
-0.91422021 -0.26737657 1.1890184
0.17458859 -0.023468642 2.0822206
0.47635052 -0.17114933 2.3129025
-0.57415414 -0.047673739 0.88013852
0.35741058 0.041874204 0.60394228
0.4312059 0.017028814 1.4855355
-0.73276567 -0.20872504 1.1321658
0.065180987 0.06016238 0.29720879
0.069111437 0.058085591 0.40356636
-0.5521332 0.0079268413 1.4750739
-0.078841388 0.047106445 0.37107062
-0.066318892 0.059202559 0.28445184
-0.55875826 0.0013282187 1.4799577
-0.53818786 0.0022733044 1.2447985
-0.19048384 0.055578448 0.35998237
-0.23454663 0.045200035 0.34837568
-0.24274012 -0.01972538 0.33846438
0.54583406 0.03193612 0.99932826
-0.12275134 0.064706229 0.38111532
0.077150509 0.055229306 0.52043021
-0.95828259 -0.018713558 1.2839042
-0.49662396 0.048795812 1.3242754
0.34415171 0.019686237 0.80748045
-0.38809925 0.056526862 0.8523916
-0.059992835 0.059253536 0.55299604
-0.14724787 0.062660195 0.27388239
-0.23418453 0.053935073 0.48966324
-0.18480708 0.057053454 0.39177668
-0.56628954 -0.24987794 1.2558814
-0.65178788 0.043992512 1.2889956
-0.32710791 -0.263715 1.1668767
0.44673565 -0.028254507 0.73560941
-0.1891816 0.056297541 0.28606987
0.13909072 0.055439971 0.44623709
-0.48022482 -0.18821062 1.110366
0.12372881 0.055096567 0.39141726
0.16248067 0.051820017 0.75178897
0.13787852 0.056797378 0.3584187
-0.19401571 0.054403894 0.34865415
-0.064701691 0.058405176 0.40015733
-0.13763286 0.059277192 0.26237452
-0.19223075 0.046024822 0.77003729
-0.008931905 0.056579649 0.27143335
0.29927143 -0.020550476 0.37721598
-0.12006748 0.062242962 0.29819489
-0.056750223 0.05101499 0.40317094
-0.25019416 0.053318132 0.34829938
0.21783674 -0.19294246 0.94488609
-0.59138048 0.038249232 0.80007112
0.30864421 -0.087948844 0.39087546
0.42349496 0.031026894 1.2313372
0.070842072 0.059757754 0.41621172
-0.16845299 0.044481359 0.5401212
-0.18253934 0.055831224 0.42451632
-0.14846331 0.062653825 0.37552404
0.068738565 0.05822096 0.39396954
0.5590471 0.031504657 0.84359825
-0.50879633 0.023405883 1.1611892
-0.11755627 0.061552972 0.35805905
-0.064256988 0.056802742 0.38454342
0.48943493 -0.046555914 0.78763592
0.14073989 0.060413904 0.2930553
-0.20330256 0.052502021 0.54273975
-0.1144546 0.059419118 0.27836764
-0.24572256 0.051441818 0.59852827
0.3051219 0.020489885 0.76234472
0.32182351 0.047419555 0.57029855
0.066824481 0.046693787 0.46713591
-0.61004806 0.049141344 1.2937754
0.1404853 0.060006343 0.29116833
-0.11926377 0.061763749 0.29386771
0.31352988 0.045971267 0.5828222
-0.18136163 0.055819213 0.38229847
0.12841697 0.060542509 0.27818215
0.22642939 0.053953521 0.58437216
-0.22338286 0.056573637 0.27248645
0.34470817 0.047740549 0.49189997
0.14507672 0.0612555 0.27765751
-0.51552284 0.01721593 1.4196581
0.13999327 0.057657853 0.36532521
0.21980929 0.051102653 0.32824278
-0.43790513 0.065829344 0.80829275
0.2170009 0.056277625 0.28937137
0.22638018 0.053796671 0.28597558
0.35131779 0.042104803 0.59466875
-0.16958833 0.052025013 0.39998782
0.22132853 0.051927637 0.33099055
0.44799039 0.033728842 0.76640332
-0.0024011135 0.05530715 0.41256583
0.0052638501 0.058448903 0.44844007
-0.23290274 0.053926997 0.33886027
-0.19041269 0.044358127 1.0215322
0.077156305 0.051305622 0.58729756
-0.028418884 0.053161077 0.4133091
-0.52568316 0.054752298 0.86857045
-0.68482041 -0.20127524 1.1481482
-0.57193041 -0.13192029 1.1434933
0.084132373 0.056238465 0.66054857
-0.50828278 -0.11059005 1.2185744
0.24227123 -0.0079084933 1.1466862
-0.49458089 -0.21971771 1.6603082
-0.5148164 -0.11134187 1.2333087
-0.32204014 -0.23088984 1.3250355
-0.15408377 0.054853842 0.31283724
-0.41750875 -0.19967796 1.6626991
0.38925639 -0.20540881 1.4488131
-0.34936506 -0.27117333 1.7164625
0.42067605 0.015496676 1.8907512
-0.057784244 0.055894017 0.82870519
0.20876481 0.055833228 0.49704325
-0.2427949 -0.020089669 0.33854437
0.36202863 -0.1540342 1.491836
-0.65031183 -0.16161177 1.1216151
-0.051199563 0.050734304 0.75753176
-0.60217559 -0.20600474 1.0703007
0.20398377 0.02080645 1.3055936
-0.0025128052 0.049507726 0.35900474
-0.26590726 -0.26124245 1.6676315
0.44709659 -0.0025779419 1.678455
-0.2502647 -0.32803833 2.5282993
-0.21748024 -0.3286925 1.9764954
0.56871557 0.032261979 0.85030854
-0.16920711 0.048238009 1.3782946
-0.67470586 -0.091369778 2.3746295
0.23230733 -0.22944607 1.2700709
-0.43326089 -0.17884332 1.7880498
-0.26418152 -0.22303118 1.6795903
-0.11277822 -0.39557058 1.7620317
-0.5804323 0.016283676 1.2016722
-0.92666006 -0.16298249 1.2205759
1.1727427 0.14388683 2.3222227
0.24987289 -0.040154323 3.0648522
0.27363253 0.045517068 0.608513
