# .PCD v0.7 - Point Cloud Data file format
VERSION 0.7
FIELDS x y z
SIZE 4 4 4
TYPE F F F
COUNT 1 1 1
WIDTH 399
HEIGHT 1
VIEWPOINT 0 0 0 1 0 0 0
POINTS 399
DATA ascii
0.63558251 -0.10528548 1.2344069
0.95692289 -0.21883096 1.3525338
-0.93105811 -0.012254508 1.769978
-0.7248944 -0.058009017 1.227247
-0.58937085 0.0038205874 0.74525481
-0.8568424 -0.10137246 1.1752992
0.21811824 0.058030188 0.52408367
0.32655102 0.025686283 0.90188271
-0.72706127 -0.16218624 1.0374289
-0.80296141 -0.22439921 1.2994628
0.64328283 -0.12822339 1.2132926
-0.76852429 -0.18824317 1.0654037
-0.83715093 -0.18921085 1.0387039
-0.79668081 -0.18286338 1.0407143
-0.20283729 -0.054114968 0.47664529
-0.8253417 -0.16634053 1.0516248
-0.59101009 0.0069024623 0.81077081
-0.65375292 -0.1797359 0.89301854
0.66093183 -0.13412249 1.268573
0.65829736 -0.0018364596 1.3240192
-0.62239623 -0.17020044 0.88519853
-0.74957889 -0.1599495 1.0054729
-0.84336179 -0.18049502 1.0773213
-0.22248113 0.056650247 0.42430681
-1.3130945 -0.09206865 2.2070684
0.98056334 -0.2682029 1.3916748
0.53072262 -0.034467638 1.5404506
0.37185207 0.034873009 1.3654635
0.3274684 0.032737847 1.2053366
-0.90628117 -0.013011495 1.9487367
0.8546837 -0.11372959 1.3029823
-0.76375759 -0.16123779 1.0316126
0.74486244 -0.18225525 1.2512503
-0.85807872 -0.083449647 1.1637933
-0.56919014 0.0061563761 0.76381236
0.37431985 0.032855988 1.3576202
-0.24210632 0.057263102 0.37022561
-0.20170894 -0.054509096 0.47216982
0.45658255 -0.12375659 0.76193029
0.5278672 -0.16386996 1.3882668
-0.72832942 -0.16163316 1.0286951
0.34408665 -0.14129035 1.2593582
0.066549882 0.058127433 0.53634828
0.21819243 0.057999987 0.33272374
-0.95455337 -0.12390555 1.9085727
0.23567836 0.044796165 1.676008
0.24950138 0.056844857 1.0773509
0.67325765 0.0055513871 3.039398
0.86759388 -0.031126011 1.3393092
0.21334025 0.061270528 0.3591615
0.36759496 -0.16227102 0.75813466
0.8512702 -0.11418064 1.2966032
0.22350411 0.057651483 0.46470279
-0.87887043 -0.10322397 1.2047632
0.84945691 -0.15304048 1.2546406
0.86156583 -0.15239693 1.2697432
-0.89506882 -0.014451396 1.9195905
0.32876593 0.021384083 0.52295035
0.42703977 0.044686906 0.89650208
-0.20174059 -0.023882788 0.48837513
-0.92867923 -0.098490141 1.8894606
-1.2072057 -0.24911276 2.2450485
0.24799207 -0.011139318 0.32845151
0.27338648 0.044935785 1.4127393
0.067133829 0.061122444 0.35508549
-0.93118072 -0.093392529 1.9196298
0.066420987 0.060650244 0.34900367
0.85927999 -0.15931755 1.2713344
-0.58611608 0.0068275686 0.7759797
-0.60035115 0.04949218 1.1277332
0.95694518 -0.070993066 1.3280284
-0.20865974 0.058033887 0.31145829
-0.20621726 0.057666734 0.33586931
-0.052233186 0.056872889 0.75227171
-0.7972424 -0.13582495 2.142978
0.21404685 0.05940247 0.36390483
-0.49218965 -0.18524843 1.0840769
0.95961636 -0.18621521 1.3136585
0.14870018 0.060706154 0.62950367
-0.13992633 0.05409161 0.48376232
-0.93665665 -0.10810329 1.9378521
-0.90037227 -0.014627742 1.9314699
-0.1985127 0.037557341 0.86853927
0.35671815 -0.15755354 1.3222651
-0.89706975 -0.086958833 1.9057195
0.1638326 0.064597897 0.42546588
2.1496701 -0.3338508 2.5116198
0.19903055 -0.32755008 1.5304704
0.35776722 0.048228249 0.86604613
-0.20561816 -0.091522604 0.44543988
-0.98462403 0.035826087 1.7736316
-0.79529434 -0.13215265 1.0451076
0.51174241 0.048542019 0.61512858
-0.79876411 -0.13774848 2.1440089
0.33725795 0.021493243 1.3099959
0.77810848 -0.043927953 1.9770417
0.21584563 0.059485231 0.36851484
0.13782595 0.059218306 0.6211217
2.1269312 -0.35602087 2.4703612
-0.12835777 0.051926516 0.85327083
3.2228539 -0.60753638 4.24403
-0.2291019 0.054555673 0.38508838
0.39849615 0.046426363 0.96620196
-0.19909829 -0.023323275 0.47707146
3.5044742 -0.57710993 4.420155
1.0853623 -0.048921406 2.5078344
0.85072112 -0.11024603 1.2972698
-0.88776696 -0.010006022 1.920608
0.47631291 -0.065162964 2.565239
-0.14349523 0.059554368 0.32405502
-0.59865707 -0.2114919 1.0050089
0.49658176 -0.016249038 0.67089635
0.32169068 -0.18792436 1.9949305
-0.19445363 0.055720095 0.43461341
0.31156588 -0.13110739 1.4532785
-0.19910166 -0.062350027 0.8704955
-0.85811186 -0.10081688 1.1798117
-0.21042538 -0.056181204 0.50580126
0.56842303 0.013685768 0.68223864
-0.20756525 0.042665504 0.47065276
-0.5164268 -0.20670739 1.0051417
0.60960215 -0.19068407 1.5709381
-0.19993985 0.0028724414 0.86508435
-0.19937092 0.055729158 0.41226429
0.3774685 -0.16283448 1.3903296
0.082059264 -0.19206613 0.87679106
-0.061225567 0.060581662 0.55933481
-0.20438744 0.057554889 0.38613874
0.36750066 -0.17046818 1.6694686
0.30742311 -0.1436654 2.2032721
-0.12217182 0.049502686 0.81996292
-0.19954786 0.058098719 0.36249834
-0.2432532 0.057186496 0.3753013
-0.24106754 0.057662282 0.37138444
-0.19509716 -0.061226912 0.47250241
0.353993 -0.16952461 1.1229451
0.37742215 -0.16992339 1.6865206
-0.14429541 0.060039137 0.32553673
-1.0340743 -0.10707666 2.1469536
0.22043172 0.060577981 0.63966113
0.22324562 0.058069833 0.46427268
0.41655383 0.048672818 0.49999291
0.25127992 -0.1695722 1.594527
0.63745189 -0.20084429 1.6447134
-0.049878076 0.054627825 0.71172351
-0.19690824 -0.023262534 0.4728449
-0.53687561 -0.19049631 0.9415099
-0.2044515 0.035627864 0.89549822
-0.27874833 0.0042567956 1.1971219
-0.51512259 -0.20581992 1.0014968
-0.13347325 0.05585416 0.29230243
0.810866 -0.048399337 2.0378644
0.29539055 0.049936362 1.5593266
-0.067810476 0.064407766 0.31583548
-0.20781013 -0.021262683 0.47338146
-0.54530394 -0.19236746 0.95966333
-0.18929127 0.056241438 0.43310028
0.48666331 0.047365524 0.56766981
-0.188445 0.010946045 0.84538358
-0.04689765 -0.17864987 0.86023992
-0.0068406239 0.057862975 0.5562517
-0.13865373 0.057720605 0.31097376
0.4290995 0.045900073 0.6074329
0.28741086 0.046985492 1.4928777
-0.90603399 0.0021144641 1.8812895
-0.11117725 0.056858793 0.30860716
0.15171787 0.064060837 0.68243462
0.23202354 0.048284784 1.7112191
-0.20334563 0.05695324 0.3834731
-0.14165184 0.059035935 0.31672269
-0.63360184 0.056909259 0.80716354
-0.18829443 0.055673961 0.42957801
0.10073756 0.06116521 0.2557708
-0.51635367 -0.21979667 1.0153377
-0.16573976 0.059751563 0.31252694
0.55107951 -0.14505416 1.4170194
-0.11164226 0.057006381 0.30878037
-0.57568616 -0.18041936 1.0060866
-0.19011721 0.051112931 0.53259486
0.2601842 0.055481222 0.32684541
-0.40893111 -0.18365201 0.85276073
-0.19249725 0.051549837 0.54087883
0.34797153 0.047779284 0.84115177
0.20731935 0.0507356 1.5452261
0.30364925 -0.17938475 1.8873835
-0.18593721 0.054649808 0.422921
-0.20937833 -0.061491042 0.90915936
1.1761427 -0.23261973 1.606962
-0.44540527 -0.14828759 0.94787234
-1.0217625 -0.14668801 1.9258077
-0.5858354 0.007574853 0.77327842
0.21945649 0.057912439 0.52561289
-0.5874368 0.0026754444 0.74084634
0.565736 0.0037700241 3.2410517
-0.21304587 0.059917901 0.32260048
0.21266386 0.058990546 0.36139274
-0.53772217 -0.19060476 0.94152695
-0.16501427 0.059337419 0.31062329
0.21979196 0.056144807 0.45482606
-0.062648982 0.060627677 0.34260905
0.29172936 -0.01165447 0.50675541
0.80179781 -0.048760839 2.0143952
-0.27416277 0.06069275 0.39402598
-0.7199952 -0.13320284 1.0010042
0.27144292 0.048742272 0.61564344
-0.072980151 0.062123068 0.26449358
-0.063372672 0.061860476 0.35849565
-0.86050665 -0.10033996 1.1759682
-0.23936656 -0.22846867 1.0325005
-0.95352733 -0.11140445 1.9650834
-0.26477015 0.059329685 0.35277247
-0.059573997 0.060415477 0.60636264
0.68039507 -0.097216211 1.4497037
-0.20409188 0.042735249 0.46140987
-0.060808238 0.062102012 0.61992747
-0.16565223 0.059531637 0.31283653
0.024529688 0.059843834 0.27569377
-1.0441945 -0.15073693 1.973485
-0.19297604 -0.039268684 0.47684389
-0.46681473 0.068347491 0.67061347
-0.25946832 0.056652702 0.37152243
-0.64636999 0.061282929 0.79347974
-0.97397614 0.021755466 1.9540961
0.50532842 -0.088165306 1.044003
0.21831413 0.057545807 0.5241217
-0.24441016 -0.22554591 1.0352683
-0.56403321 -0.21591963 1.0087137
-0.18940672 0.021749908 0.49031562
-0.065451205 0.059729487 0.50623626
-0.13117874 0.05366607 0.46621031
0.25834778 0.055517092 0.32400256
-0.068282127 0.064934023 0.31878024
-0.19263849 -0.03945278 0.4750976
-0.14025134 0.054477531 0.48448461
0.31451041 0.018157024 0.49447268
-0.71953648 -0.1331867 0.99868542
-0.14602178 0.05794394 0.36286187
-0.10570629 0.055863887 0.25142634
-0.59660059 0.0027356003 0.75338823
-0.54495192 -0.21994239 1.0639648
-0.44365641 0.064639993 0.63578206
0.52372998 -0.077542983 1.2660391
0.42348307 0.051265262 0.96790558
-0.19285837 0.022283651 0.50139087
-0.2049192 0.057497263 0.33327121
0.19227944 0.044557475 0.83854431
-0.23603606 0.056998886 0.40135258
-0.57468647 0.0069754571 0.75665349
-0.84203094 0.020922819 1.8341763
-1.2897521 -0.17208898 2.5239573
0.85900044 -0.038428903 2.0123749
-0.94121206 0.084248871 2.4328296
-0.92249322 0.080316953 2.3609407
-0.93363255 -0.032412246 1.8140445
-0.1958636 -0.062012672 0.85307437
-0.19646305 0.054543924 0.40650505
-0.98904461 -0.12136952 2.049387
-0.60674798 -0.17844324 2.1006577
0.54573369 -0.15106684 1.1878896
0.2155955 0.057664707 0.3554343
-1.3582662 -0.29750085 2.5487063
0.062971726 0.058144536 0.29876608
-0.16956013 0.048501987 0.496903
-0.60541159 0.033289976 1.3226933
-0.48441795 -0.13691583 0.78790349
-0.93247879 -0.011501694 1.7728767
-0.71495742 -0.1571075 1.1150582
-0.10470769 0.043872602 0.69979793
0.20147827 -0.20260404 1.2599933
0.25592855 -0.17477529 1.636615
-0.1986632 0.048282877 0.47565645
-0.82005841 -0.1615468 1.0439751
-0.1592972 0.056375537 0.31125933
0.12152351 0.047440078 0.27566648
-0.62010539 -0.17669594 1.0326123
0.4167555 0.048341274 0.52454203
0.21424998 0.056872912 0.32595503
-0.10056128 0.055385858 0.38781434
0.21828966 0.062601253 0.37053317
0.65614653 -0.023576086 2.8815188
-0.10138348 0.055617083 0.53694648
0.16026065 0.063014381 0.41158503
-0.9468857 -0.13474916 1.7788587
-0.10787658 0.054790318 0.29320592
-0.92605627 -0.10462017 1.9242449
0.34072351 0.031787973 0.96454984
-0.17542124 -0.067004569 0.48315507
-0.20434277 0.05745782 0.33253771
-0.1453687 0.051982135 0.27319461
-0.06316112 0.057184447 0.47650558
-0.22876364 0.053294308 0.32824481
-1.0178608 -0.14651969 1.9212418
-0.15992546 -0.15985544 1.0584977
0.4198558 -0.13236058 1.7465286
-0.57253659 0.021919059 0.80922312
-0.81697953 -0.02516203 1.9046586
1.0364645 -0.26823032 1.4158556
-0.20563821 0.043245338 0.46659166
0.070704922 0.064053692 0.37131125
0.066982731 0.061773293 0.36334932
0.47933698 0.047573544 0.55811185
0.31275061 0.053998068 0.49357408
-0.53086996 -0.20633553 1.0018687
0.24124525 -0.21785864 1.7191222
-0.67219198 -0.19929701 2.106272
-0.057883803 0.057068072 0.32783699
-0.41224334 -0.14095134 0.92827016
-0.084378034 0.059253328 0.30646408
0.33027717 0.050675936 0.60869974
-0.12883389 0.054579243 0.91107088
-0.16272031 0.058685381 0.30550528
-1.0452433 -0.01139489 1.6625905
-1.1904064 -0.039600804 1.9170306
0.24946581 -0.21781926 1.6752737
-0.21389493 -0.10747056 0.47956556
0.37684005 -0.18121906 1.2037623
0.28044778 -0.0050143837 0.32171142
-0.18787843 -0.0038160919 1.2614741
-0.4399865 0.041216016 1.6957026
-0.69927245 -0.15280499 1.0862041
-0.06332767 0.062460728 0.36702758
-0.26399618 0.059945557 0.34143615
-0.069915354 0.060763828 0.3184129
-0.085298747 0.059581321 0.3101725
-0.31491232 0.075979471 0.41067308
2.7614141 -0.095058337 5.0188255
-0.11187021 0.057466637 0.31303811
0.5300585 -0.1738908 1.3652248
-0.63168228 -0.17292979 2.0517857
0.27336797 -0.0065766876 0.97886389
0.29828292 0.055211835 0.35921448
-0.25254899 0.00084294705 1.1135867
0.31270695 0.022826089 0.48421675
0.75568265 -0.045301884 1.8975039
-0.59534615 -0.21510063 0.98554808
0.29563928 0.052011557 0.6704604
0.37868792 0.039802883 0.78778237
-0.7069881 -0.17272973 1.0906255
-0.069427252 0.060141314 0.31632715
-0.21895871 0.058740553 0.30234689
0.70961779 -0.011076724 1.7314076
-0.20546404 0.018415181 0.45763856
-0.068618312 0.062388062 0.52333659
0.03499734 0.062719487 0.30883187
0.20793629 -0.13896136 0.91022187
-0.13647698 0.054702356 0.3356061
0.11518361 0.065103039 0.38261443
0.15598822 0.058754049 0.83287376
0.070606276 0.064285912 0.37175155
0.46769172 0.043901876 0.86529094
-0.096430868 0.058858447 0.25810909
0.37072846 0.031824086 1.3412287
0.26834461 -0.17688777 1.6976104
-0.75673878 -0.18239702 1.0467632
0.072662905 0.062246189 0.58380598
0.18501544 0.056394435 1.1996622
-0.92520708 -0.092759021 1.9016056
2.1401093 -0.35610384 2.5964854
0.01287755 -0.3873612 2.6388693
0.82679856 -0.047445055 1.9745889
1.0308169 -0.27604532 1.4181457
-0.67105013 -0.19341053 0.99413759
0.35166997 0.053699479 0.65109271
-0.13655004 0.058447294 1.4441392
0.20333654 -0.17297825 1.2099121
-0.10339408 0.054773923 0.24426162
-0.10949898 0.053064652 0.57401103
-1.0039148 -0.26803893 2.040858
-0.86651754 0.01913074 1.8870933
-0.63097298 0.055589888 0.80450588
-0.24367929 0.0025431183 1.077765
0.44935068 -0.1289915 0.85405475
0.013485577 -0.38313249 2.5964017
-0.65699977 -0.16240007 0.89979404
-0.85089815 -0.083374269 1.7972944
-0.88961196 -0.11894517 1.1328568
-0.069948331 0.065375358 0.32063836
0.0029577501 0.062036529 0.30916697
0.017608773 0.060814314 0.34184843
-0.65693963 0.058468711 0.84168607
0.2177379 0.057836063 0.52398771
0.2066991 -0.16737056 1.0874598
-0.66986227 -0.11622084 0.97220653
0.21536258 0.057872653 0.32880169
0.47625402 -0.14269689 1.9796722
-0.63741034 -0.17832419 1.0211635
-1.0993609 -0.011199946 1.7567034
0.067126617 0.058269098 0.53764397
-0.62389886 -0.17458199 0.9947378
-0.20917995 0.059238564 0.40903777
0.30189615 -0.069569662 0.48534185
-0.69225407 -0.16931003 1.063025
-0.69397932 -0.11504174 0.90033716
-0.65770161 -0.20555915 1.0332084
-0.16793546 0.073298395 0.47286481
-0.044846214 -0.16917133 0.80405205
-0.19450837 -0.074722633 0.54737908
0.45585123 0.042847313 1.1773553
-0.099646538 0.055732422 0.53238016
