# .PCD v0.7 - Point Cloud Data file format
VERSION 0.7
FIELDS x y z
SIZE 4 4 4
TYPE F F F
COUNT 1 1 1
WIDTH 697
HEIGHT 1
VIEWPOINT 0 0 0 1 0 0 0
POINTS 697
DATA ascii
0.36264014 -0.082204536 0.65350008
0.34594715 0.019198656 0.72570467
0.12009043 0.049494565 0.44739056
-0.18137765 0.06041548 0.26515079
-0.11599731 0.057493515 0.44346619
0.28592652 -0.092313558 0.67495346
0.12138969 0.021884998 0.40392065
0.14790368 0.055241622 0.31825161
0.24236643 0.047481842 0.30273056
-0.20298934 0.10213341 0.67562437
0.75372684 0.012737304 1.1176348
-0.94064605 -0.23016194 1.5840025
0.80704904 0.01356056 1.15277
1.083882 -0.071657434 1.5254984
1.2239408 -0.27898952 1.8710604
0.15403217 0.055603124 0.37999725
-0.99039924 -0.30089518 1.908946
0.15430397 0.02607779 0.39737225
0.11937219 0.029085629 0.53224707
0.15295756 0.053217489 0.39831018
0.31683511 -0.1198031 0.68449163
-0.40566188 0.061326999 0.50951672
1.2117701 -0.33412334 1.9089246
-0.17731607 0.056893438 0.47017956
0.12621051 0.032866269 0.4194355
-0.90914595 -0.234532 1.694829
1.4365448 -0.34359598 1.7317104
0.021920085 0.053671226 0.43238735
-1.2834834 -0.42929932 2.7474833
0.56266201 -0.14492668 2.1832528
-1.3228731 -0.45172039 2.8010082
1.2196789 -0.2685729 1.9775515
-1.2469357 -0.2645396 2.6377563
1.762131 -0.37183639 2.3915219
1.5276736 -0.26234719 1.9458122
-1.2382063 -0.27606446 2.5585375
-0.85938573 -0.15319981 2.4789157
0.41247582 0.03083488 0.62657881
-0.87808287 -0.36494729 2.4782825
0.53326225 -0.3854557 2.3905501
-0.82240808 -0.26273248 2.4033418
-0.037797332 0.052170172 0.76620388
1.6659527 -0.050379459 1.9777708
-0.7068857 -0.11981268 3.4553938
0.58275223 -0.3408998 3.6529984
-0.42301744 -0.032608498 2.0229111
-0.14342445 0.058826946 0.25893354
0.28263772 0.045043685 0.41449022
0.018969655 0.054584939 0.50869226
0.24551105 0.048101909 0.30743551
0.1272077 0.054767676 0.23819113
-0.14475477 0.059529796 0.26226187
0.33970904 -0.0037027858 0.71549654
0.46828306 0.036455419 0.80899811
-0.052937984 0.059967712 0.2585144
-0.19478798 0.050659128 0.41662598
-0.02912879 0.0012014993 0.046519756
-0.053313375 0.058592685 0.32144117
-0.19945395 0.055732094 0.3588376
0.21284842 0.051431555 0.27478027
0.3337307 0.030557655 0.69698429
0.97154546 -0.081890419 1.4964156
0.39604759 0.031184632 0.65022516
0.34542936 0.016986825 0.67936611
1.1699332 -0.35801595 1.8650537
0.0079962015 0.056035452 0.44660282
-0.81136715 -0.027291644 1.1486201
0.0070828199 0.056547154 0.3257184
0.23096645 0.03892222 0.39760017
-0.18595368 0.060268484 0.28265405
0.21402711 0.058147989 0.26508832
0.21305847 0.052777052 0.46639967
0.76121688 0.011101201 0.8803134
0.11799276 0.036864057 0.44089842
0.23307282 0.049881332 0.32015324
-1.0489551 -0.24557978 1.5832334
0.29236847 -0.10599029 0.6522646
0.24465275 0.047756903 0.30630732
0.13730019 0.030898191 0.47282124
-0.23282421 0.052175842 0.37968779
0.26338011 0.051483922 0.34081221
0.14748996 0.054753054 0.41304398
-0.17695755 0.04758101 0.75617313
-0.368958 0.058124855 0.54303169
0.076860905 0.054411635 0.39922237
-0.84715331 -0.14797495 1.3218307
-0.17302191 0.057067454 0.47643995
0.337313 -0.10871691 0.65793276
0.10331833 0.052368831 0.69233656
-0.65872622 -0.16471289 1.2445936
0.76891947 -0.45280552 1.9932165
-0.81984472 0.019250426 1.175693
1.1449989 -0.021744359 1.4679594
0.12776631 0.028411591 0.40116787
0.3302328 -0.040224988 0.67724895
-0.17200756 0.067702942 0.35134506
0.11256737 0.044556029 0.8152833
0.26747072 0.016048294 0.55532312
0.69236386 0.020989053 1.2654886
1.0772995 -0.10898627 1.8836236
1.4605514 -0.28221241 2.1164217
-0.99979961 -0.29048356 2.5508838
-1.1307638 -0.4138588 2.4763765
1.4903351 -0.31841686 2.1161942
0.16644871 0.027547808 0.40059519
1.1835636 -0.022810068 1.5618839
1.1328797 -0.3413423 1.7740388
0.54806566 -0.21136507 2.1491504
-0.95798326 -0.16333497 1.3206668
-0.87759209 -0.25993022 1.6035013
1.6275326 -0.40641913 2.4011517
-0.78915548 -0.43009156 2.5087757
-0.13973433 -0.20261724 1.6937141
0.14269394 -0.00056923181 0.36970234
2.4571075 -0.52751291 3.437377
-1.2990587 -0.44046381 2.7879424
0.17330724 0.029199315 0.4040122
2.0577059 -0.054279376 2.4451666
-0.75706899 -0.26520434 2.5592852
0.55127013 -0.38474074 2.207448
0.3438344 -0.036064241 0.65971613
-0.74789345 -0.15140903 3.3926458
0.33481497 -0.035151687 0.64852571
1.3549169 -0.17403215 2.2872157
-0.94661367 -0.45480761 3.6718755
0.56849957 -0.23349503 2.7773099
-0.37430292 0.024460811 2.5994072
0.34143502 0.014684159 0.67161322
-0.27899241 -0.22850266 2.5399561
0.60624075 -0.22609317 1.5814295
1.5404224 -0.099983692 2.3579493
-0.19249916 -0.18580513 2.528945
-0.25993335 -0.37151706 2.8283238
-0.24244905 -0.39226142 3.1485329
0.77117729 -0.022041488 1.7087407
0.59650469 -0.041042101 1.2168489
-0.85937417 0.0056948699 1.5182834
-0.16790259 -0.32759538 3.9889655
0.75690341 -0.01183062 1.4516745
-0.30373621 -0.40834561 2.7968082
-0.86093795 -0.47455308 2.5569863
1.8777055 -0.10399041 2.5620666
1.1473314 -0.2277565 2.5132885
-0.23697084 -0.33290878 2.2416906
-0.82894897 -0.068098694 1.1324768
-0.81163394 -0.40093458 2.6286216
-0.86243403 -0.2475504 2.7414727
0.63532197 -0.014817219 2.0884814
-0.040977478 -0.44945145 3.1793318
0.98726368 -0.081173912 2.3386831
1.0787423 -0.087986991 2.4377007
0.1427477 0.026501251 0.40899277
0.64151001 -0.025174271 2.0982008
0.68483162 -0.01113594 0.8871913
1.1101285 -0.024221923 1.4765186
-0.59694636 -0.38514474 3.7589598
0.14885354 0.055233352 0.40687704
0.33021653 -0.065521479 0.6689744
-0.67563105 -0.086615428 2.4352899
1.0631703 -0.023332808 1.4666009
0.32918429 -0.061865564 0.66316366
1.0869293 -0.069103032 1.4692502
0.98714805 -0.019817103 1.4945374
-0.83352351 -0.071601331 1.1521544
-0.88611913 -0.45720348 2.4602556
0.34186947 -0.29120314 4.320343
-0.86493695 -0.35864797 2.4352145
1.0625167 -0.022980515 1.4707179
0.27254361 -0.080272973 0.71480513
-1.0080323 -0.43675429 2.5370221
-0.14053595 -0.5239166 4.0389686
1.2958832 -0.31855655 1.9146352
-0.046089888 -0.52824074 3.7343073
0.34820795 -0.29756135 4.4068956
-0.97622776 -0.41438925 2.5328012
-0.91536939 -0.27693948 2.4525189
-1.1513176 -0.40134794 2.7194018
-0.04815197 -0.52941233 3.7766509
-0.87867785 -0.37274855 4.3122215
1.1458633 -0.024356414 1.4623132
-0.96557248 -0.34960741 2.493999
-0.12033379 -0.49769983 3.7438512
-0.79147756 -0.41399583 2.5786409
-0.87363243 -0.25313175 2.8037448
-0.876176 -0.27216682 2.5316806
-1.16006 -0.332966 2.7138057
-1.0400211 -0.39039019 2.4975281
-0.38792902 -0.40219104 2.8648305
-0.83660328 -0.019511141 1.1590691
-0.78557646 -0.3926377 2.9497619
0.29363072 -0.037998531 0.71442175
-1.1208307 -0.40411672 2.6388187
-0.5287689 -0.068249241 1.6678338
0.28224528 -0.051849756 2.3563585
0.010204554 -0.24274203 3.9187021
-1.091096 -0.33233449 2.5618725
1.1318357 -0.082760185 1.4094505
-0.53866518 0.040812559 1.2864413
0.42382967 -0.097324073 0.99713898
0.20388722 -0.011769515 0.60708189
1.6633762 -0.72201127 4.8401594
0.96677828 -0.059859063 1.5040102
0.35626769 -0.082976311 0.63818645
-0.86213374 -0.48246947 2.5755181
0.14274478 -0.29490218 3.4096317
-0.84229255 0.019155242 1.1129026
-0.79171979 0.015031546 1.1438003
0.15261048 0.026225843 0.39804029
0.35611713 -0.068421423 0.65544271
-0.81339085 -0.35315672 3.5792184
0.33387882 -0.11755654 0.65764427
0.32512587 -0.066735536 0.66177893
-0.97644401 -0.1493119 1.3630309
0.32109845 -0.045934152 0.65825129
-1.0806329 0.010128129 1.8851442
0.14034718 0.026462406 0.40370083
-0.87911797 -0.30217096 1.4460196
-0.81650925 -0.24613643 2.6283798
-0.81785131 -0.43483853 2.6533842
-0.82147229 -0.29389024 3.0008473
0.15350705 0.02646899 0.39968014
1.1212828 -0.25701353 1.7221003
-0.90136659 -0.26509464 2.4350376
-0.17123592 0.057007492 0.3652153
-0.90573347 -0.56238025 4.4714203
-0.95927393 -0.43210831 2.5156622
-0.81622207 -0.0217149 1.1166658
0.98433685 -0.044857826 1.4904418
-0.80437934 -0.38933101 2.5569859
-0.80262542 0.012178238 1.2264128
-0.73269975 -0.20760147 3.1043873
-0.96852136 -0.36145124 2.5759158
1.0877482 -0.070025668 1.4723268
1.0612376 -0.020279203 1.4599657
-0.85218072 -0.18343221 1.4374776
-0.18042421 0.053620741 0.58897543
1.2665477 -0.20770702 1.9782524
-0.89668381 -0.35406083 2.5654178
0.99503779 -0.042915221 1.5069976
-0.87035453 -0.1555689 1.3560057
-0.81948566 -0.070813715 1.1308227
-0.86416352 -0.15443885 2.4795628
0.14955389 -0.16353518 0.82738447
-1.2762184 -0.47971275 2.8992081
-0.75851321 -0.26733536 3.3442183
-0.73291123 -0.57153934 4.4430504
-0.85909832 -0.39569116 4.333868
-0.76062441 0.029684324 2.268003
-0.71712375 -0.55626118 4.2864609
-0.83841336 -0.024349783 1.152112
-0.85565305 -0.27297476 1.4887118
-0.92983973 -0.4608821 2.56704
-0.9295038 -0.27265149 1.628355
-1.2816927 -0.43678489 2.7428493
-0.91484058 -0.39437988 2.4918213
0.079286873 0.054986723 0.33045816
-0.2934705 -0.2276572 2.6347613
0.26854712 -0.077146932 0.67533159
0.16232252 0.05389243 0.37370443
-0.81176913 -0.024215121 1.1519818
0.16181391 0.053768262 0.37418032
-0.97166216 -0.33697352 1.4700441
0.15172404 0.055200789 0.36438751
-0.80761027 0.018310536 2.335969
-0.80842721 -0.021215264 1.1448526
-0.49443352 0.040286172 0.89232016
-0.52592468 -0.053511705 1.7397246
-1.166098 -0.42292929 2.6789355
-0.8807683 -0.25332233 1.4183478
-0.68645418 -0.19082853 3.3544192
-0.87113023 -0.14192995 1.3660922
0.1474722 0.054577596 0.40461445
0.16017729 0.0536911 0.37077284
-0.10956699 0.055377349 0.439466
-0.82031262 -0.39445081 4.2105947
-0.88595963 -0.23537168 1.4101124
0.12013316 0.043625683 0.56027651
0.13899589 0.055432156 0.40631866
0.12172765 0.043720223 0.56413221
-0.057474554 0.05599783 0.31745005
-0.83880627 -0.24540788 3.0023146
-0.85808897 -0.016619746 4.0817175
-0.56534505 -0.37879136 3.6064324
1.1263853 -0.05057979 1.4534101
0.29974699 -0.047312159 0.67353106
0.16561013 0.026381977 0.40037394
0.16577274 0.027368696 0.40081739
-0.9801935 -0.56482011 4.5657892
0.32562447 -0.067334458 0.66517544
0.009342432 0.054579183 0.31362152
0.30043083 -0.1058322 0.80928087
1.0908593 -0.069889992 1.4704633
-0.82392359 0.025123402 1.1434417
0.193896 0.05291494 0.4407196
-0.86287916 -0.28970084 1.4990506
-0.11011237 0.056450166 0.45428944
1.8653164 -0.024693061 2.1898432
1.1240554 -0.04518922 1.4590559
-0.55750871 -0.38111186 3.6112418
0.35682893 -0.069051072 0.65772867
-0.1175245 0.058055922 0.31910563
-0.93282604 -0.33931118 1.5605478
-0.84432065 -0.073844016 1.1367683
-1.2387594 -0.46780494 2.8072476
-0.27473855 -0.374255 2.773519
-1.1025268 0.02705143 1.5149684
-0.16003567 0.059543658 0.33324862
-1.0055171 -0.43723795 2.5339785
-0.036034405 0.050184831 0.71572876
0.55356205 0.020317737 1.1912069
0.29928148 -0.04736929 0.67288494
-1.002913 -0.30414218 1.4140344
0.2133624 0.052490607 0.46765232
-0.86442173 -0.20548871 1.5427189
0.0079623461 0.055461809 0.32285404
0.53197658 -0.29853466 2.465661
-1.2380303 -0.46605554 2.8044815
-0.79617155 -0.41104436 2.6164374
-0.037549376 0.048883319 0.66838598
0.34909558 -0.064419866 0.6420002
0.12208849 0.016941486 0.53471851
1.3728105 -0.26439694 1.9978371
-0.66482592 -0.097737417 3.5625792
-0.74383771 -0.3849732 3.9772291
1.4377735 -0.33148196 1.724607
-0.14955968 0.050225772 0.77698231
-0.4778263 -0.045787487 2.9301019
-0.47940117 -0.24872091 3.0181999
-1.0061007 -0.21789584 2.4024115
1.1358883 -0.082012579 1.4134445
-0.84767091 -0.16976413 1.3964453
0.078210175 0.054418057 0.3123579
0.12202978 0.016627127 0.52698994
0.59789479 -0.19380069 1.3118806
0.28604722 0.043779425 0.50059986
-0.81836867 -0.078147456 1.1695714
0.092726469 0.050650902 0.66545773
-0.85253513 -0.26426813 2.4692216
1.2967724 -0.33843318 1.868268
0.12859178 0.043855052 0.42223406
-0.77256775 0.026168328 1.0621762
-0.49918044 0.026302356 2.1369681
0.10182548 0.052123863 0.66499662
-0.55309713 -0.36527267 3.4971128
-1.0408187 -0.23747095 1.3959503
-0.9928019 -0.3009516 1.4007893
-0.49777842 -0.052370969 1.1748195
0.29892987 -0.068070501 0.68337393
0.1216144 0.023128288 0.40777826
0.15389568 0.026508512 0.39761162
-0.052928507 0.053697847 0.72251701
-1.1046138 -0.18739785 1.4219875
-1.1439395 -0.19110382 2.5276699
-1.0370648 0.0083757825 1.3935318
0.15025002 -0.14106837 0.8253026
-0.33015609 -0.42996666 2.8614798
-0.74970746 -0.40255409 2.5995579
0.33143592 -0.13023947 0.66770315
-0.11799335 0.058167197 0.31768227
1.1290442 -0.083719581 1.4064283
0.18798196 0.056238391 0.28423119
0.046244025 -0.15451184 0.85313797
-1.0226903 -0.27511647 1.4949574
-0.76841247 -0.059958089 3.4062638
-1.27238 -0.17338316 2.7692947
0.48174345 0.037527025 0.89457798
0.15494353 0.055503376 0.38132286
-0.48727936 0.025460713 2.4750814
0.14863259 0.054809071 0.41505432
0.62516999 -0.4384692 2.2633877
1.149273 -0.3384994 1.8952193
-0.1073491 0.055351499 0.44401169
-0.12630236 0.05575522 0.43327236
0.67601287 -0.39254379 4.5487652
0.042036116 -0.18713886 0.88228941
-0.60176289 -0.0043108091 2.8440847
0.22926563 0.047436643 0.34795427
-0.96559894 -0.035610821 1.338903
-1.0146037 -0.21274832 1.5046549
1.1054974 -0.023519348 1.470746
-0.76905179 -0.06159829 3.3981509
-0.20126951 0.049767755 0.38683414
0.33393586 -0.11714002 0.65644503
0.30585366 -0.09221074 0.65500641
-0.54655921 -0.37635466 3.5600028
0.33652109 -0.0646054 0.65653753
-0.30298084 -0.020375844 0.72373581
-0.76416671 -0.069140956 1.1094651
0.14238191 0.02849251 0.4142189
0.19033033 0.052852497 0.42506361
0.17393088 0.022755006 0.40758514
-0.94449687 -0.3426981 1.4898763
0.23729163 0.036168519 0.31712914
-1.0062906 -0.30734241 1.4388328
1.1767422 -0.30141184 1.8449984
0.34447914 0.031302705 0.68255138
-1.0433322 -0.18995832 1.4218769
-0.052500665 0.056600198 0.31273365
-1.2144607 -0.44297361 2.6663585
0.014183402 0.05615817 0.32079172
-0.44925815 -0.19989613 2.7387671
-0.75067806 -0.40134579 2.6105428
-0.96268785 -0.15219302 1.5766969
0.97115159 -0.36774677 1.8486156
-0.86969256 -0.30212772 1.4555917
0.14743435 0.021077758 0.40469217
1.1929263 -0.24298134 1.9640269
-0.1849755 0.060012065 0.28264976
-0.81897163 -0.016917672 1.1098518
0.080573618 0.055747811 0.31956196
-0.95173204 -0.30658436 1.4530702
-0.13560569 0.0425971 1.0445313
0.2832706 -0.14515026 2.8158526
-0.75171316 -0.19912715 3.0618243
1.501645 -0.3041279 1.769599
0.578794 -0.038291197 1.1866937
0.12318462 0.051615514 0.53987837
0.23793137 0.047269896 0.36171675
-0.35731244 0.054414626 0.79030848
0.15164059 0.027011838 0.38874865
-1.0605339 -0.24321008 1.4277444
0.5811187 -0.3984201 2.3163571
0.12542629 0.053690381 0.47123098
0.60731435 -0.42070791 2.3012667
-0.060480535 0.057664048 0.32522345
1.2380191 -0.27900013 1.9038787
0.12576276 0.043687217 0.58044767
0.12655962 0.055109181 0.26213455
0.12776858 0.028168906 0.40178394
0.21670955 0.051883109 0.27993464
1.9296961 -0.30593571 2.3189316
0.55403972 -0.18210396 2.3761044
-0.2121855 0.047201313 0.52555132
-0.61414039 -0.17093523 3.8151402
0.54934478 -0.18349393 2.3553429
0.0093006492 0.053528026 0.42909098
0.32194459 -0.055386279 0.65764427
1.8854048 -0.054889251 2.3281937
-0.06083715 0.057850435 0.32110071
0.048643351 -0.18641296 0.87474728
-0.85141087 -0.18275775 1.4373417
1.5583616 -0.27934709 1.8850718
-1.0650982 -0.31267279 2.5724263
0.18193167 0.056720614 0.24263859
0.12674946 0.054522503 0.48025894
-1.2989539 -0.44752994 2.7573323
-1.0422106 -0.23791936 1.3974962
-0.85155177 -0.045485783 1.1346426
-0.86620569 -0.029785533 1.1173015
1.3860224 -0.3454068 2.0550685
0.22691065 0.045420609 0.4828949
-0.9132477 -0.48303655 2.5798473
-0.15866816 0.059406389 0.30253601
-0.82021248 -0.077348664 1.1721983
1.1471777 -0.38000479 1.8396363
-0.097782254 0.058322553 0.28661346
-0.31973612 -0.15963122 2.5020504
0.32166642 -0.12828666 0.66130877
0.63931262 -0.44182208 2.5790582
0.18715864 0.055973239 0.28280783
0.38376844 0.028541394 0.58513498
0.006609261 0.056758102 0.32343388
-0.17309147 0.058194239 0.37618303
0.68935108 0.018589351 1.2034268
-0.18676144 0.057914302 0.64156723
0.30017668 0.045289367 0.52448845
-0.33877325 0.050973985 0.86315727
0.31836587 -0.046454746 0.737638
-0.11829722 0.058149599 0.31637907
0.1728754 0.056039453 0.30092716
-0.12266958 0.054213397 0.42100716
1.3818953 -0.40835616 1.9062033
-1.0657924 -0.19490327 1.4547868
1.3878462 -0.17636999 2.3465371
1.1414948 -0.2634218 1.8275485
0.3283872 -0.11107601 0.68249416
-1.0627029 -0.1948632 1.450263
0.043742895 -0.15245099 0.8283515
-0.82968998 -0.035065655 1.126965
0.34617639 0.029441502 0.68422794
0.30710965 -0.12412016 0.63003159
1.1540149 -0.031229842 2.0716915
0.3490901 -0.066554248 0.64823818
0.11717761 0.052867182 0.4319272
1.4344497 -0.32929963 1.9010625
-0.41472405 0.045013681 1.5394135
-0.47168845 0.051623899 1.0405335
0.34669679 -0.0011581331 0.68436813
0.55854774 -0.022912238 2.7594881
0.71957767 -0.43131676 2.4194183
0.57440877 -0.3216781 2.2541537
-1.0721977 -0.27247345 1.4813285
-1.0632298 -0.23184589 1.4246631
0.18987662 0.056905594 0.2854414
-0.22344583 0.049528711 0.39550638
-0.14711332 0.044938065 0.48208714
-0.19843268 0.051561072 0.42526102
-0.052610695 0.057653874 0.31749678
1.1077347 -0.025247667 1.4731836
-0.82451713 -0.34071577 2.5279689
0.34886831 -0.061915394 0.6435895
0.12055957 0.023288993 0.40247059
1.7302439 -0.049839068 2.0209551
-0.19351828 0.062390104 0.53934622
0.24740958 0.048189029 0.30938148
0.32772934 -0.12906265 0.65941334
0.79639935 0.056701798 1.3667932
-0.12561667 0.057397526 0.42965889
-0.96161473 -0.16245303 1.3877897
-0.19759172 0.049461272 0.3787837
1.1440573 -0.39321753 1.9030881
-1.0468986 -0.25196782 2.4517136
-1.2484556 -0.26420027 2.6351643
1.190068 -0.35593453 1.8750663
0.46787977 0.037436265 0.86918402
-0.17723548 0.057179503 0.47008991
0.0791471 0.055459302 0.326159
-0.12245131 0.056536548 0.41640043
0.35848629 -0.070829287 0.66087961
0.53690243 0.030594997 0.77210474
0.32532972 -0.062883586 0.67018223
1.0386865 -0.050685618 1.7909517
-0.0016180873 0.058450487 0.24487495
0.014377475 0.055037215 0.31134748
-0.85904634 0.038659833 1.1666217
-1.0857469 -0.2175636 1.4346204
-0.99392283 -0.30221969 1.4498591
-1.0160728 -0.2133407 1.506814
0.34104884 -0.039046597 0.77992201
0.11139899 0.035198037 0.41170692
-0.76097763 -0.29338935 3.9535465
-0.19211328 0.055959672 0.35245514
0.12322581 0.022315521 0.41183424
1.1410029 -0.26392731 1.8224287
-0.76091528 -0.35561606 2.7661185
0.94139707 -0.079203039 1.4960928
-0.94882226 -0.46619955 2.6350918
-0.016325891 0.057551235 0.32408047
1.4069588 -0.42835796 1.9207482
0.10126776 0.052019328 0.650249
-0.15674287 0.051180638 0.79623699
-0.17034042 0.061481725 0.27373838
1.1002569 -0.070870921 1.4890156
0.51763511 0.032185439 0.77377033
-0.66011906 -0.41149765 3.1979432
0.014220536 0.054786868 0.30888748
0.79742122 0.015217803 1.1633244
0.65926516 0.020111918 1.1977572
1.1449934 -0.39500535 1.9008842
0.95835328 -0.080977902 1.5264435
0.0086498857 0.05368153 0.42955065
0.31833535 -0.055205632 0.65066576
0.073352754 -0.17044476 0.88565826
-0.86736953 -0.15593874 2.5230274
-0.88710999 -0.25517249 1.4291763
0.87393343 0.012375586 1.1363516
-0.14956045 0.060099192 0.30811119
0.13776439 0.054488152 0.3091898
1.1595942 -0.35115498 1.8467588
-0.12486756 0.060545672 0.28040791
0.12687087 0.043912955 0.41576624
0.13958353 0.026903914 0.40509319
0.0063673258 0.055562861 0.31112528
1.0182825 -0.082569346 1.5117702
0.023484051 0.054544404 0.4358201
0.14522517 0.054247692 0.3109045
-0.36317617 0.056904741 0.62712479
-0.048148811 0.055044271 0.78605843
0.29753411 -0.046706352 0.66896868
0.3526504 -0.042987291 0.7403307
1.6777472 -0.16916807 2.291019
0.17494059 0.022638286 0.41047955
0.28720206 -0.0045790002 0.68316078
-0.82925892 -0.20501509 1.3309383
0.76286113 0.012605935 1.1341677
-0.88714015 -0.14888082 1.3340006
1.2533386 -0.28373021 1.9183226
0.22371745 0.048733763 0.36681414
0.56128132 0.038160477 0.84280062
-0.026715755 0.057903413 0.30041313
0.99924386 -0.041199792 1.5103531
0.13896257 0.054746121 0.3123703
0.14868343 0.055365723 0.32026005
0.73259068 -0.49719217 2.3468847
1.1545893 -0.046334941 1.4811006
-0.46753412 0.00028861314 2.6590109
0.74562252 -0.13224468 1.1025939
-0.10757709 0.055824969 0.45082808
0.22170359 0.037349015 0.3810339
-0.95702672 -0.16439466 1.3815365
-0.13571632 0.053280078 0.26020336
-1.054919 -0.22267509 1.4028125
0.32602257 -0.04756267 0.66600943
0.14923525 -0.16385548 0.83723497
1.1969621 -0.36138743 1.9103665
-0.07993865 0.056978818 0.30628061
0.63536739 -0.45179197 2.3224683
1.8381647 -0.29632819 2.2119226
0.48400831 -0.087887436 1.6811442
0.36172938 0.03998832 0.54335499
-0.20179826 0.05311951 0.26867867
-0.053708017 0.060557824 0.26219916
-1.2978867 -0.39427397 2.8790517
0.35535645 -0.070836321 0.65653372
0.65798831 -0.054438274 1.0249062
-0.24616605 -0.02689353 2.1981082
0.88225019 0.012254111 1.144279
0.16641116 0.025431324 0.40099096
1.4655784 -0.3611244 1.7854214
1.1647799 -0.22283092 1.8070211
1.1773957 -0.26599485 1.9409609
0.97397017 -0.079484329 1.447504
0.31511742 0.03237471 0.64017582
1.1376565 -0.046837468 1.4589291
-0.25785184 -0.37900344 2.8046036
-0.24516881 -0.27203652 2.6893153
0.21961212 0.05146081 0.26789713
-1.1849328 0.046538174 1.5208626
0.2382037 0.047400191 0.36160851
0.56425989 -0.19269858 2.4294105
0.14635873 0.05470857 0.31202745
-0.20201004 0.053308606 0.26913118
-0.11789858 0.058235891 0.31329679
-0.9761517 -0.28461084 1.4188895
0.49839926 -0.2376152 2.5629821
0.33635646 -0.066116467 0.65690088
-0.54002464 0.013765652 1.2392764
1.0641041 -0.070103452 1.4967942
0.074589372 0.057114467 0.25701952
0.15875876 0.05348631 0.4001689
0.14866 0.021206582 0.40668344
0.14158273 0.046087414 0.84351254
0.33065885 -0.064490512 0.64474344
0.22913438 0.042396441 0.38132191
0.13136864 0.056444474 0.25405669
1.3188628 -0.29609063 1.9320245
1.1751468 -0.21268591 1.827342
0.12017655 0.018035015 0.43953085
0.17220563 0.022555806 0.40171242
1.1661534 -0.35743162 1.9519596
0.13063294 0.02184264 0.33561325
-0.10828948 0.057209909 0.30790949
-0.30887341 0.04771369 0.6726141
-1.0123445 -0.26411921 1.405252
1.1003805 -0.41629753 1.8935757
1.1808685 -0.34736112 1.9550877
-0.21304715 0.047864132 0.52743149
-0.16074479 0.042461462 1.0241942
-0.25510299 0.056117933 0.47508526
1.5398898 -0.41926166 1.8934712
-1.0156039 -0.16897154 1.3604441
-1.060165 -0.2445932 1.4254923
0.40584779 -0.082097575 0.75134897
0.11163503 0.035607107 0.41510677
0.10922569 0.035878755 0.4063344
1.5078293 -0.30626976 1.7825975
-0.86733556 -0.050999809 1.2069912
-1.0268022 -0.16958842 1.3785205
-0.14721286 0.04692211 1.1704183
-0.49956661 -0.05636527 1.1869974
-0.60609806 -0.17139734 3.2511873
1.5041527 -0.38148028 1.8412709
1.1396577 -0.044273693 1.4576063
0.29845178 -0.10797092 0.8263545
0.16128272 0.0071719401 0.38717222
0.33907789 0.028996538 0.66906738
0.12773824 0.043453097 0.58564043
0.077643216 0.053877644 0.30424929
-0.20216048 0.05108713 0.38318539
0.15908635 0.054627944 0.36375713
-0.80491483 -0.016958266 1.1105337
-0.091616869 0.060036756 0.24782705
-0.062025964 0.05870489 0.32416916
-0.081106365 0.058652032 0.31625319
-0.1808725 0.060370877 0.26433873
0.11597985 0.031776279 0.53980923
0.23966181 0.034480091 0.29727888
-0.52683187 0.033371016 0.87191868
0.74435878 0.016887438 1.0998034
0.23228723 0.043559548 0.29004002
0.30562299 -0.11765987 0.65493202
-0.15553176 0.051198713 0.78506327
0.12096477 0.018131228 0.44190979
0.01456809 0.05425768 0.3014698
0.21640223 0.049253128 0.42006683
-0.9662199 -0.32576683 1.4356971
0.11497658 0.047899596 0.425179
-0.22110331 0.047351025 0.33853531
-0.19049031 0.053792909 0.30708933
-0.16345817 0.061013214 0.31246662
-0.49721479 0.040186532 0.8980689
0.23969001 0.034428902 0.29730797
0.24124295 0.03894946 0.37388897
0.33878398 -0.1086178 0.65973234
2.5243645 -0.10029157 2.9525805
-0.34502411 0.052456904 0.88461637
0.25849646 0.041587744 0.37418127
