# .PCD v0.7 - Point Cloud Data file format
VERSION 0.7
FIELDS x y z
SIZE 4 4 4
TYPE F F F
COUNT 1 1 1
WIDTH 579
HEIGHT 1
VIEWPOINT 0 0 0 1 0 0 0
POINTS 579
DATA ascii
0.14740956 -0.018492179 2.5824876
-0.29447237 -0.32777902 1.5941267
4.3537459 0.45583028 6.7849116
-0.27464467 -0.2825689 1.4923
0.32012028 -0.20592457 3.9312682
-0.26199669 -0.33652076 1.6526337
-0.32604718 -0.19006565 1.054765
0.56604111 -0.10234837 3.7369628
0.32974666 -0.21147123 4.1112733
0.31040436 -0.39896205 4.4677873
-0.27980047 -0.25629437 1.6034524
-0.27316588 -0.24992271 2.0327172
-0.46667254 -0.16050638 2.1215701
0.34089679 -0.21642868 4.2671375
-0.50737631 0.020994762 1.1650007
-0.19021991 0.050325695 0.64550853
-0.50830007 0.027647518 1.1682591
-0.53687292 0.025900992 1.1642365
-0.28938487 -0.22909071 1.2743168
0.42879933 -0.19250083 2.5727158
0.33168668 -0.1952078 4.1330509
-0.55089724 0.025336336 0.92750883
-0.55025792 -0.11360708 1.2089829
-0.2765913 0.075649083 0.98552394
-0.50394601 0.050471041 0.90718293
-0.43034464 -0.075679109 1.7232153
-0.55431658 0.024313711 1.204685
-0.55018049 -0.11214888 1.2088354
-0.55510151 0.024067214 1.2082038
0.90206152 -0.067849986 1.8256798
-0.74249101 -0.2654267 1.7738919
0.030518554 0.054368816 0.6313684
-0.27552682 -0.33380607 1.778496
0.32022423 -0.37071472 4.0990376
-0.56289041 0.01783983 0.87335491
0.68571603 0.026600657 1.1267262
-0.63324946 -0.051329032 2.0348291
0.41957214 0.030714713 1.0697579
-0.44358587 -0.19713441 1.0345054
-0.80111992 -0.09042988 1.748688
-0.18828496 0.051403113 0.66246843
-0.44301128 -0.18026467 1.8483968
-0.29276985 -0.1961128 1.2177885
-0.55182689 0.011833516 1.0333192
-0.4318924 0.03974542 1.4525936
-0.55482543 -0.013320478 3.1266546
-0.58900636 -0.099389903 3.3485265
-0.37394112 -0.18470432 1.0685749
-0.45706964 -0.15339476 1.058418
-0.44505328 -0.17183487 1.0783203
-0.47676933 -0.16662864 1.0798378
0.37973985 -0.1586581 1.013001
-0.63536131 -0.16527984 2.6326594
-0.53966045 -0.219174 1.1688008
0.29856318 -0.33474019 4.431571
-0.37632406 -0.18688175 1.0814786
0.32930604 -0.27637082 1.7231221
0.62645769 0.035842072 0.78893924
0.22942665 0.054572389 0.55950022
0.12434553 -0.011588739 2.1064587
0.48972303 -0.20209594 2.3245234
-0.28421155 -0.20871545 1.7263136
-0.56773907 0.027458651 0.83405423
-0.25965154 -0.29240632 1.6851313
0.15459138 -0.019418405 2.779964
0.3334637 -0.31584466 1.828764
1.2716949 -0.29025137 3.1228285
-0.58447444 0.0058660358 0.84021282
-0.18633649 0.052051008 0.66595745
-0.32276469 -0.16400018 2.3302951
0.32997492 -0.22227824 1.5181346
-0.59799051 0.0097490735 0.8472631
0.3886627 -0.1929194 0.91658449
-0.80345535 -0.075327136 1.492744
-0.55441344 -0.11529878 1.2197716
0.29273966 -0.19219539 0.90897202
0.14873782 0.058182314 0.30393457
0.50127405 -0.18119077 2.0798898
0.28645471 -0.24276043 1.8831017
-0.50414836 0.014721627 1.1449835
0.37632567 0.043205045 0.64296913
0.42007068 -0.071385503 1.7710981
-0.8795417 -0.17322388 1.1712542
-0.55832481 -0.12947409 1.2124622
-0.19426468 0.057887316 0.55687237
0.41717499 0.03447777 1.0544233
-0.5028556 -0.20064542 1.1761098
-0.58276904 0.016647182 0.82009912
-0.43667829 -0.21466307 1.1325126
-0.32624388 -0.36926904 1.6510329
-0.059976585 0.059131421 0.43648505
0.15152141 0.050687902 0.56440353
0.030730478 0.054652385 0.62679315
-0.59686053 0.0032946374 0.83142161
0.32028815 -0.2224593 1.2576697
-0.32778329 -0.19122055 1.0608311
-0.22999862 -0.17203714 1.5552571
0.92374712 -0.065768063 2.799181
-0.51516157 0.057294674 0.6712625
0.88854158 -0.070856974 2.5879383
0.3804335 -0.11428875 1.01436
0.3852751 0.030105419 1.0200024
0.20048267 0.058938324 0.30255818
0.2965658 -0.14306507 0.89567113
-0.47142267 0.01861728 1.1569271
-0.44239134 -0.1967202 1.0343406
0.4771561 -0.14693828 1.6173761
-0.43084568 -0.21214141 1.1115093
1.4244255 -0.40944636 3.8447919
-0.41896665 0.038343817 1.5379992
-0.5730269 -0.16887771 1.3017721
0.92408174 -0.064434826 2.7853866
-0.48941636 -0.061572187 1.1536529
-0.13633552 0.036497958 1.1226411
-0.45674074 -0.027161339 3.1313834
1.0401788 -0.04442171 1.2796681
-0.30602095 -0.19845478 1.1944067
0.43218949 0.038555734 0.66465092
-0.43316251 0.038111944 1.4585497
0.098308198 0.052956618 0.6692636
-0.4765591 0.04176306 1.135025
0.31399575 -0.13864365 0.91116619
0.15928906 0.055658087 0.61030817
0.1305674 0.046282619 1.0178611
0.45137689 -0.18220475 1.9665251
-0.44856787 0.031375803 1.3508618
0.2730374 0.03780647 1.5925553
-0.044272952 0.058615871 0.69732666
1.0523992 -0.26838559 1.9114594
0.23434931 0.051946495 0.47217155
-0.48900217 -0.11515571 1.1852493
-0.58374816 0.021604903 0.80579615
-0.50744843 0.031022683 1.1646485
0.60229963 -0.17855008 5.4450326
0.26254088 -0.44720101 4.5062032
0.2331838 0.052144088 0.4678247
-0.19286871 0.049111046 0.6641314
-0.22229844 0.049904458 0.49477386
-0.25117958 -0.31785765 1.6421974
-0.32011658 -0.25619936 1.4530098
0.24416706 0.051131137 0.70397568
-0.47932178 -0.11275429 1.1582277
-0.66030824 -0.050845437 2.0893283
-0.27555257 -0.20329623 1.6747925
0.24334195 0.051599134 0.70158863
0.91032821 -0.27634832 2.1958508
0.37868363 0.019450383 2.0131578
0.32226613 -0.20455931 0.92578673
0.32205626 -0.20332015 0.92150664
0.9551881 -0.28614131 2.3132381
0.74199688 0.026315991 1.5538678
0.17691126 0.055165336 0.54219294
-0.55445826 0.023560166 1.0308824
-0.4839707 -0.11287493 1.1717296
0.098269127 0.053127855 0.65890622
0.015798263 0.054659754 0.47632647
-0.31664521 -0.21530798 1.1019928
0.14973429 0.055080354 0.46442628
-0.38322562 0.060149156 0.58843017
0.35952207 -0.28673977 1.8540628
0.50058591 -0.1497243 1.1260917
-0.20568082 0.051878788 0.48088908
-0.54780984 -0.11090079 1.2022085
0.42709321 -0.17334448 1.8130777
-0.76160717 0.20329824 1.8447285
0.78467083 -0.23843877 1.92696
0.78163821 -0.17439018 2.1986127
-0.50637794 0.020432383 1.1674845
-0.32685372 -0.19025061 1.0628541
0.4048245 -0.12308808 2.8426585
-0.068791218 -0.20626566 2.5451031
0.33562845 -0.13842498 1.6971827
0.18174505 0.056747407 0.55765176
0.42828465 -0.17948046 1.1565976
-0.19745731 0.058857016 0.55761361
0.31846997 0.049495611 0.42514753
0.29152757 -0.19013894 0.90059161
-0.85765105 -0.17617403 1.3516297
0.23559088 0.056304842 0.58052945
-0.54859936 0.040016815 0.79758143
-0.20272487 0.057073943 0.29507565
0.7369312 0.027934032 1.5356331
-0.31992993 -0.22098291 1.123426
-0.52184904 -0.15648998 1.1587613
0.17440444 0.056816228 0.54337072
0.47772086 -0.15788399 1.1906767
-0.4344672 -0.21362555 1.1264403
0.780864 -0.041501358 1.8947656
0.29015011 -0.15146735 1.0370929
0.77547169 0.024794139 1.6543248
-0.26370296 -0.2703909 1.1623979
0.58971763 -0.074802116 2.2652259
-0.557482 -0.042244561 1.7584507
-0.062287979 0.060915604 0.43798351
0.39433026 -0.16950849 1.9725747
-0.045728974 0.05658029 0.49851227
-0.50002921 -0.1680129 0.78577971
-0.12101608 0.057728946 0.65838885
-0.2770851 -0.24738224 1.2511687
0.33618718 -0.26227066 2.6361432
0.51981795 -0.078191698 2.223258
-0.32732314 -0.36193451 1.6785591
1.2581756 -0.16587642 3.6927209
0.53499389 -0.093515322 3.4967089
-0.50289977 -0.097524598 3.4824767
-0.45629036 -0.2038838 1.0825632
0.38321131 0.044657543 0.52826571
0.20112899 0.059271313 0.30186319
-0.20501643 0.052045971 0.47959423
0.56658524 0.034425631 0.95974493
-0.20007908 0.056744352 0.40567279
-0.2056542 0.051773883 0.4802177
-0.059953712 0.059282072 0.27641535
0.0740894 0.059665106 0.2755332
-0.55546665 -0.20609049 1.1975749
-0.18699533 0.05751618 0.5691483
0.26113641 0.043321282 0.42395353
0.63925266 0.036894348 1.1099138
0.34173387 0.034996271 0.93910193
0.44352126 -0.11699201 1.4681599
0.29557166 -0.14373758 0.90368462
-0.062876336 0.060953707 0.43396091
1.4597361 -0.35294583 3.263783
0.033514641 0.05585473 0.63601685
-0.096005969 0.055593632 0.61966085
-0.34517989 -0.23190264 1.7678025
-0.31780776 -0.21509989 1.1072249
-0.045895763 0.05521705 0.46961951
0.37714434 0.031364463 0.99161649
-0.36147356 -0.24463014 1.8497398
1.7883836 -0.27970916 4.3102236
-0.42677748 -0.18056393 1.1465368
-0.7400021 -0.07777869 2.6238933
0.61181331 0.036326669 0.7986865
-0.24716219 -0.42425931 4.1864409
-0.25688902 -0.33654109 1.6375661
0.66077381 0.037510972 0.83558774
0.082518421 0.056956284 0.38992953
-0.55060601 0.021475678 0.93770003
-0.52162552 0.058132157 0.65424681
0.26460221 0.043994881 0.51312757
-0.40161282 -0.22683579 1.0335908
-0.2106587 0.057596721 0.27849889
0.50189418 -0.16634873 0.9771564
0.36400837 0.043135576 0.58158088
-0.87666678 -0.17699693 1.238147
0.14949208 0.058575191 0.30423856
0.37260208 0.043750234 0.60303712
0.22669667 0.055479378 0.26430058
-0.20879734 0.054611966 0.33547354
-0.21316403 0.052844398 0.3640883
-0.19045958 0.059024118 0.47947979
0.26300183 0.043366533 0.50863528
-0.39375579 -0.22343209 1.0095308
-0.1827023 0.054124556 0.55466771
-0.37376669 0.058853485 0.51534104
-0.11196158 0.05876568 0.50411963
-0.50673783 0.044074245 1.0025361
-0.51351976 -0.1412892 1.1939988
-0.19347823 0.053421568 0.52583218
0.66660249 0.029754754 1.0250864
0.66549826 0.025565911 1.0939302
-0.55274153 -0.21275575 1.2235384
-0.43596888 -0.14445515 1.0988803
0.36624634 0.025790896 0.96164989
0.07426583 0.059431031 0.27306437
-0.14922032 0.042374372 0.50344443
-0.11599002 0.056072757 0.62255764
-0.37232858 -0.16393554 1.1490102
0.24293858 -0.0043626819 1.0298698
-0.11180223 0.058787853 0.50856233
-0.54490077 -0.18357682 1.7497849
0.28704181 -0.30314782 1.5201094
0.12801972 -0.017052392 0.58649349
0.73054802 -0.015060386 1.3156571
-0.47599518 0.018414231 1.5842412
1.1980374 -0.12202089 2.4479589
-0.332452 -0.21023123 1.3857367
0.655123 0.037599307 0.84888458
0.34913272 -0.00033292361 1.9868593
-0.64181226 -0.049612515 2.0442185
1.4370449 -0.24754541 2.8821392
-0.34627104 -0.19806282 1.2281785
0.68131423 0.040235616 0.90535712
0.36592561 -0.10535926 1.8378162
-0.53105789 -0.10884915 3.1070623
-0.028611355 0.050863825 0.6674552
-0.47035813 0.018730765 1.5723286
-0.49782288 0.011898105 1.2096505
1.4990134 -0.23609348 3.4552894
1.5406396 -0.2591508 3.32973
-0.81338465 -0.18097173 1.640626
0.33563024 -0.29307035 1.7839289
-0.87920618 -0.1797235 1.2430611
0.017074339 0.053931922 0.47880006
-0.34901226 -0.20462486 1.0922701
-0.55595624 -0.1989058 1.1517367
-0.52835667 -0.13974042 1.200527
0.44505733 0.036064886 0.67908716
-0.20458439 0.057623968 0.29907894
-0.58128589 0.0052886307 0.83673453
0.20298499 0.059523262 0.3085537
-0.1072804 0.060998283 0.52002192
0.14859334 0.058048166 0.31044245
-0.11254098 0.059081517 0.50134873
-0.82172841 -0.18041068 1.5803964
0.76058578 -0.15246348 1.009635
0.68875045 0.0011223294 0.91371679
-0.18139741 0.052206866 0.68621182
0.23024949 0.05582881 0.29436517
-0.21058309 0.052462853 0.39106321
0.37240866 0.046558961 0.54221821
0.24921402 0.052573763 0.36447787
0.29436505 0.042205639 0.45996428
-0.47166342 -0.16090189 0.8081193
-0.20452255 0.057345673 0.29876828
0.3754721 0.043561932 0.51094413
0.43874761 0.040304624 0.69893551
0.17506841 0.059323408 0.31413198
-0.039408706 0.058874503 0.309762
-0.059243508 0.05866126 0.27309966
0.45629758 -0.19535714 1.1335139
-0.17110866 0.049142059 0.61782312
0.54169226 -0.20099214 0.98797989
0.18049619 0.05587282 0.5473578
-0.097403057 0.060662873 0.28416014
-0.47850305 -0.089604661 1.1468964
0.17194629 0.055412456 0.58120036
-0.095736004 0.056684062 0.63568425
0.16056147 0.053449839 0.6138885
1.0590309 -0.27538714 1.8228583
-0.45105505 -0.16967565 1.0816023
1.0848227 -0.26971024 1.8105593
-0.47221088 -0.17352666 0.96985173
0.47478029 -0.19926751 1.1794579
0.97913367 -0.24590991 1.6225305
-0.48809028 0.017280784 1.2943513
1.2534173 -0.24027966 2.0321779
-0.034257568 0.058127359 0.42808127
1.1086788 -0.28626236 1.9094152
-0.20964989 0.057004288 0.39895463
0.15964997 0.058693036 0.4285171
0.65955383 0.032287501 1.6122653
-0.5201906 -0.14180426 1.2105017
0.16801816 0.054251149 0.56387687
1.1350539 -0.29490992 1.9582958
1.054773 -0.27492344 1.9496975
0.084194146 0.058138698 0.40672588
0.085422538 0.059137307 0.41650915
-0.89755273 -0.091138676 1.5884576
-0.060736261 0.058786325 0.40878725
-0.51681417 0.081173643 0.7650516
-0.35183537 -0.18486805 1.4139311
0.89955294 -0.043675095 1.7547975
0.32312813 0.035088282 0.91564226
-0.45077205 -0.12604408 1.5620594
0.88766778 -0.043791905 1.7794585
0.30021599 -0.24604972 1.82464
-0.025481053 0.053039066 0.7315402
-0.54697162 -0.13995481 1.1935165
-0.5184145 -0.14123406 1.2021186
-0.67391706 -0.083087631 2.0078053
1.0928552 -0.18799591 1.9585032
-0.49764609 -0.085169502 1.1894484
-0.54625684 -0.13997337 1.1916046
0.11576023 0.047845565 0.85771108
0.56763941 -0.19563088 2.0100794
0.27667743 -0.21334712 1.7010617
0.29050815 -0.2220435 1.7705622
0.4134987 -0.17478298 1.9769783
0.26440585 0.042327665 1.011838
-0.51110005 0.030650917 1.1763356
-0.55641919 -0.13647018 0.79373431
-0.5419215 0.051122889 0.95227599
0.40129912 0.043157011 0.6427002
-0.06010247 0.059948087 0.28338933
0.47055942 -0.17237373 1.0154746
0.29468551 0.042693362 0.45969987
-0.51305485 0.013427723 1.2531648
0.3259362 -0.16774625 0.97372222
0.43722069 0.040444911 0.69571781
-0.18672487 0.057135627 0.40020299
-0.47552776 -0.1581687 0.74321055
0.36060071 0.048031256 0.43561649
-0.483105 -0.16703108 0.86631417
-0.20181224 0.05736164 0.33717251
0.074364595 0.059878677 0.27677202
-0.54028863 -0.2204963 1.1439373
0.061084293 0.059051894 0.31409907
0.8316766 -0.1221059 0.95227408
-0.21908548 0.057286099 0.28654718
-0.069631584 0.060706541 0.28869653
0.23502311 0.072250232 0.31005168
-0.58502662 0.012366346 0.81091309
-0.53310591 0.023673289 1.149435
0.40362823 0.043556131 0.6484139
0.071105622 0.059246987 0.27361083
-0.2096225 0.055046111 0.33810687
-0.53705728 -0.20137362 1.0488269
-0.88604093 -0.18013512 1.2523217
-0.63063532 0.011763871 0.8940959
0.27631429 0.050766282 0.44431353
0.67973483 0.0027358476 0.95788527
-0.54424679 0.039827466 0.79154515
-0.47472852 -0.16240768 0.83043933
-0.44598603 -0.17534654 1.1218879
-0.19170576 0.057219222 0.55050492
-0.59576666 -0.20676765 1.1111901
0.61901951 0.034875579 0.78345394
0.15034881 0.059646279 0.2695384
0.73181808 -0.026745124 0.90352941
0.43907577 -0.17892583 0.93720341
1.1302167 -0.12797974 1.6409984
0.16457212 0.055651635 0.63314509
0.55359405 -0.16618468 1.0089304
0.2270391 0.055100575 0.2884686
1.2965231 -0.066741817 1.8787415
-0.54638612 -0.20417158 1.069263
-0.38035631 -0.15483309 0.77610755
0.24434888 -0.19428325 0.89674425
0.22937977 0.055728607 0.29297376
-0.053262107 0.059416883 0.41189647
-0.55993664 0.011646673 1.0551038
-0.49630481 -0.060612202 1.1752291
-0.11439041 0.055255905 0.6087575
0.67800319 0.0243372 0.9594481
-0.44318366 0.038265359 1.493933
-0.070778839 0.061357453 0.29382992
-0.41892833 -0.050274715 1.1507697
0.61269009 -0.21041733 1.4946578
0.28645122 -0.20077449 0.89263344
1.5452418 -0.068744346 2.3761783
0.48712006 0.0085335169 1.6528268
-0.59766114 -0.1299742 1.7457805
1.2478201 -0.19955687 1.9536963
-0.11113284 0.058099709 0.49535084
0.015613206 0.056189269 0.49546695
0.015037201 0.058321752 0.51035666
1.2457796 -0.23907994 2.0230041
0.32754552 -0.14414756 0.95027685
0.27692896 0.044936255 1.0592735
1.3280789 -0.20640111 2.0617337
-0.098978944 0.056464136 0.61624575
-0.51245964 0.0057479236 1.1932597
0.076338522 0.058731526 0.27294922
1.3428527 -0.25428456 2.1930661
-0.30147794 -0.36185405 1.7016745
0.4041459 0.033701226 1.0599656
1.0267583 -0.26968703 1.8940372
0.034365974 0.055766523 0.62268424
1.1386777 -0.19852495 1.9125481
-0.72158897 -0.086718567 2.0150681
0.5181793 -0.1318929 1.9962831
-0.78619993 -0.2125691 1.5743268
0.16253269 0.056516059 0.49944615
-0.53915638 -0.16944572 1.2225676
-0.83319628 -0.085441381 1.443361
-0.6798442 -0.02561962 2.3081799
-0.29358706 -0.19975434 1.1772103
-0.29988813 -0.33127487 1.65751
1.1347569 -0.24723427 2.7447562
0.44491234 0.040812552 0.69285011
0.37078595 -0.17026348 1.9744616
1.4946775 -0.29348147 3.3230071
0.28755563 -0.1752546 1.891289
-0.6890431 -0.026901325 2.3402019
-0.743285 -0.075635657 2.644587
-0.042358167 0.05855795 0.70751262
0.35924959 -0.17037593 1.9188948
-0.82089627 -0.17971002 1.5020738
0.37677944 -0.31096843 1.9879618
-0.19768426 0.055333808 0.37158918
0.24358809 0.052973777 0.51928067
-0.46838462 0.052632123 0.60640287
-0.56110144 0.032427434 0.81526208
0.67437768 0.00057563931 0.79036474
-0.06087368 0.060818441 0.28815961
-0.50355738 -0.16389294 0.73931193
-0.21851197 0.057013936 0.28561759
0.14344969 0.052789614 0.37987971
0.17228162 0.053777963 0.51869273
0.21159539 0.058449537 0.45579481
-0.19609091 0.051391482 0.49909782
1.1465659 -0.31483436 1.7635231
0.090118103 0.058487244 0.52017951
1.4510504 -0.13724411 1.7299974
0.43934238 -0.17190838 0.93393612
1.0582428 0.04450804 1.7575669
1.2265853 -0.23515041 1.8802915
-0.50224233 -0.1667614 0.78878474
0.24986157 0.054364108 0.63715219
0.35446808 0.033165183 0.50009513
0.24005538 0.052958079 0.60962105
0.081037574 0.052584283 0.4564023
-0.54210478 -0.20299366 1.2014077
0.36325693 0.042879581 0.4935925
0.38738859 0.013761213 1.0079241
0.22471404 0.05491057 0.26272225
0.56543851 0.02845767 1.3749096
0.13513896 0.058831394 0.30079412
0.20338351 0.059615299 0.30756259
-0.22301599 0.056021571 0.42248178
-0.039349608 0.058861621 0.3064909
-0.56387842 -0.23141856 1.1987042
0.23019657 0.054032616 0.30401874
0.65438521 0.014068055 0.75033379
-0.39073542 0.061284132 0.60245013
-0.20820174 0.052047573 0.383389
0.28835922 0.047812987 0.49552298
-0.46821868 -0.17087406 0.79330015
-0.22470859 0.055862814 0.29397535
-0.50627035 -0.16458358 0.74368858
0.18934992 0.057322964 0.30101943
0.35678673 0.033350822 0.50376964
0.17377672 0.068329282 0.36745811
-0.19091636 0.06263712 0.29138041
-0.55619609 -0.23032288 1.1971688
0.16974428 0.063843876 0.32913709
-0.04323151 0.05501397 0.48802876
-0.21127179 0.055851839 0.32619548
1.1166995 -0.17556246 1.8482096
-0.20107001 0.057459675 0.4091754
0.25214079 0.040196516 0.8681736
1.1075944 -0.37237856 1.8281157
-0.43340957 -0.17613968 0.77869344
-0.51792198 -0.19390354 1.0153613
0.17729291 0.057306811 0.61463118
0.28210479 0.044984922 0.98105955
0.68464112 0.033142723 0.9969933
-0.60829818 0.037611417 0.83593726
1.2885664 -0.20165075 1.9911671
0.08288198 0.05793263 0.409199
-0.53614235 0.038784653 0.70293522
0.39410654 -0.21372193 0.94454789
0.25456086 0.057727292 0.70123053
0.07671728 0.053576462 0.37255263
-0.44855583 -0.16831559 1.0808933
1.1270334 -0.21258946 2.0286436
1.2280316 -0.23886316 1.9845467
1.8411834 -0.2449178 2.7681656
-0.55541986 0.030474987 0.93718696
-0.063923247 0.061499767 0.43314791
0.40706992 -0.16388908 1.2994733
-0.64863622 -0.094823346 1.8723798
1.3597238 -0.059956893 2.0805683
0.70089459 0.032735277 1.0253992
0.10548278 0.053479984 0.73588371
-0.29389146 -0.21926816 1.1363735
0.42784363 -0.192095 0.89234352
1.2025404 -0.35924938 1.9940534
1.0714662 -0.18712734 1.7849679
0.89920068 -0.039601743 1.8213553
1.2141309 -0.084632128 2.2353697
-0.50465 -0.067453176 1.1763823
1.5806544 -0.31063193 3.2860222
0.34279081 -0.27412692 1.8664758
-0.31218228 -0.34747839 1.7054095
-0.53776509 0.048176318 1.0825288
-0.8165859 -0.18266581 1.5698438
1.1480768 -0.079062589 2.1110754
-0.53890824 0.027569473 0.96637225
0.38569379 0.0087528573 1.0438411
0.32365975 -0.20593476 1.697257
0.028997146 0.051770598 0.62260222
-0.28574017 -0.15295096 1.6526227
-0.49790299 -0.20458792 1.0495961
-0.50871783 -0.19167507 1.125468
0.22532102 -0.024663644 1.5010412
-0.20316362 -0.32600933 3.1408348
-0.87761259 -0.088451393 1.1186907
-0.013752259 0.051446714 0.88600183
0.37687123 0.00014916249 2.151629
0.51181096 -0.14514709 0.96262097
0.50012892 -0.16627884 0.97558546
0.12704316 -0.0056326911 1.0821898
-0.59012645 0.0056981239 0.84696651
0.11967053 -0.0038281586 0.97137928
-0.50199825 -0.20690703 1.0604904
0.6453492 -0.021670001 2.4157991
