# .PCD v0.7 - Point Cloud Data file format
VERSION 0.7
FIELDS x y z
SIZE 4 4 4
TYPE F F F
COUNT 1 1 1
WIDTH 574
HEIGHT 1
VIEWPOINT 0 0 0 1 0 0 0
POINTS 574
DATA ascii
0.33856326 -0.15149206 0.76614022
-0.91302884 -0.13213569 1.4593751
-0.93746871 -0.091807701 1.3786132
-0.93562382 -0.092623807 1.3709249
-0.93057054 -0.15980789 1.3640001
-0.92179185 -0.13594882 1.4708085
-0.92205715 -0.21565539 1.373266
0.72093552 -0.054096453 1.3083816
-0.96058285 -0.1000178 1.405571
-0.95731336 -0.014891705 1.4264719
0.23315345 0.051991828 0.77430892
0.14720562 0.051740371 0.74530888
0.82540429 -0.05670353 1.8537419
-0.85184139 -0.021906497 1.078352
-0.67146689 -0.16857016 1.2741101
0.20702688 0.055089325 0.40392792
-0.74440116 -0.19081642 1.3046904
2.486026 -0.13067015 4.1966381
-0.7292096 -0.170176 1.3460088
0.74046797 -0.055019453 1.3396487
0.76690745 -0.054718666 1.4214954
-0.089815542 -0.38744351 1.8721292
0.23556629 -0.17666142 1.0311704
-0.5355106 0.047307365 1.0241046
0.23995666 -0.029366041 2.8242252
0.88224286 -0.048136458 2.4970315
-0.66077709 -0.19099557 1.2831905
-0.53739065 0.047576569 1.0260644
-0.90621752 -0.12966457 1.4449961
-0.9534691 -0.017130518 1.4237409
-0.92501301 -0.21800895 1.3748028
-0.8975758 -0.21359454 1.5407016
1.912837 -0.10070906 2.9890029
-0.25541323 -0.30265975 1.8080208
-0.21019037 -0.32749182 2.2492349
-0.74147046 -0.226495 1.3111675
0.33964199 0.02406325 0.90872669
-0.6920892 -0.22012958 1.2554915
-0.77535045 -0.20174411 1.3941395
-0.26182675 -0.26685905 1.8315189
-0.97534007 -0.01301015 1.4426262
-0.30892628 -0.20407404 1.8270111
-0.79793769 -0.25159785 1.4875345
-0.44291514 -0.0055529922 2.040184
0.30245054 -0.16228034 0.86635637
-0.95189649 -0.26058877 1.3875849
-0.53338784 0.00021912158 1.3875935
-0.59724039 -0.14171784 1.1303999
-0.22664596 -0.22639501 2.0688231
0.51075619 -0.11574907 2.2936451
-0.7218163 0.028732177 1.0045209
-0.7322315 -0.22588691 1.3001466
-0.29449362 -0.37658098 1.8970027
-0.20644751 -0.30583498 2.3430877
0.34549463 0.043886218 0.7306931
-0.22828619 0.006474345 0.40552306
0.67794067 0.017655442 1.4738958
0.43649018 -0.1730704 1.7223296
-0.30045372 -0.38260561 1.9326165
0.77129036 0.091736071 1.7139359
0.39582193 -0.1270396 4.136179
-0.22263651 -0.32529745 1.7478402
-0.25689524 -0.22202715 1.8507624
-0.29092157 -0.27765089 1.5817301
-0.17498256 -0.32375482 2.3851266
-0.25789934 -0.26072526 1.8040679
-0.17893682 -0.30141914 2.1170087
-0.17848013 -0.31207776 2.2278893
0.46533895 -0.21276671 4.3105574
-0.74143028 -0.18881695 1.301863
0.30313253 -0.016706364 2.0385699
0.2660858 0.037953891 1.2600024
-0.93139583 -0.25597709 1.3533866
-0.85234976 -0.022976188 1.0811272
-0.72314543 -0.22833429 1.2933271
-0.26540214 -0.30742911 1.8473401
-0.1775931 -0.34407246 2.3457446
-0.51721448 -0.060287349 1.3914809
0.3370645 -0.037993975 3.1137545
-0.89822775 0.018130057 1.4307678
-0.50623244 0.0056271274 1.2794893
0.22300416 0.051738366 0.7370193
-0.89366072 -0.015874831 1.4233551
-0.52491587 -0.037277907 1.3872819
0.66179866 -0.012539452 1.1872802
-0.18701194 0.053094663 0.49323416
-0.92175227 0.023818048 1.4359879
-0.93550843 -0.095093623 1.3655376
-0.23961975 -0.34985888 1.8949025
-0.26849282 -0.20110425 1.8072271
0.35222876 0.0060486291 0.93981385
-0.52418077 0.00038887933 1.3580074
-0.37371445 -0.22078001 1.5033891
0.54163611 0.061119109 0.96963024
-0.26947403 -0.24958161 1.598048
-0.30245703 -0.38237959 1.9304273
0.23634529 -0.1759246 1.0316646
0.41480392 0.041901939 0.53424144
-0.32324761 -0.26743352 1.2487767
-0.92087448 -0.13114576 1.4875257
-0.53966725 0.029582102 1.3891056
-1.0973872 -0.29030207 1.4095464
-0.9542082 -0.01857858 1.4304047
-0.885068 -0.2612462 1.3066542
-0.39599115 0.059953414 0.86502171
-0.17244852 0.059923917 0.51937878
0.40128225 0.041824583 0.51299667
0.43540865 0.04222076 0.57857645
0.41247869 0.042111952 0.53162062
0.72043383 0.0060608108 1.5639133
-0.53741556 0.028559988 1.3837113
-0.35696906 0.053468145 1.2418506
-0.29540771 -0.2648387 1.2649567
-0.91697055 0.030776463 1.3806326
-0.22831641 0.029319555 0.4882648
0.46070951 -0.076541267 2.7016447
-0.18250741 0.052345388 0.67098093
-0.10814296 0.057682782 0.4167347
0.50488704 -0.17035912 2.340872
-0.0026598275 0.056199923 0.42776513
-0.25673342 -0.26121849 1.8026929
-0.29710007 -0.22696906 1.5645328
-0.79626751 0.056770183 1.1034091
0.52133149 -0.23494101 4.9167442
0.5199424 -0.43005922 5.3188524
-0.21961488 -0.34915882 2.3911643
1.5814003 -0.073089309 2.1081746
1.0840143 -0.081788771 1.8320925
-0.45439684 0.042842135 1.6738138
-0.24360482 0.051698245 0.47938883
0.21073802 0.054208785 0.26423264
-0.60948116 -0.17567275 1.241621
-0.27424115 -0.33047962 1.8069084
-1.011538 -0.30025816 1.4180434
-0.55356938 0.019279979 1.3371472
-0.33840728 -0.33234203 1.7354536
-0.067752525 0.060302258 0.55656505
-0.35024875 -0.28495675 1.2363708
-0.14952926 -0.22897969 2.3253226
0.36762005 -0.19648337 1.4808853
-0.47450465 -0.15138356 1.9877007
-0.63633597 -0.13896313 1.2531414
-0.34657282 -0.2330521 1.2327118
0.29606658 -0.19692717 1.1320205
-0.5997799 -0.13696449 1.3799686
-0.062597014 0.057927042 0.70581031
-0.52108347 -0.063483998 2.7200906
0.39993519 0.044975664 0.60746503
-0.97380322 -0.28724667 1.3744681
0.34215283 0.043041661 0.71941233
0.19549124 -0.22629961 1.0517359
0.54118448 -0.24173361 5.0990515
0.47303033 -0.017332433 2.4643893
-0.45147562 0.011539265 1.9589536
-0.18847412 -0.2757355 2.4623356
-0.16975322 0.058657788 0.28626239
-0.14137393 0.047920823 0.40994155
-0.26566553 0.055246346 0.37858117
-0.14224973 0.039413065 1.3257215
0.39532989 0.044437654 0.58963978
-0.63905698 -0.13950729 1.2587078
0.30236667 0.038355704 0.60603142
-0.35412544 0.029223675 2.2065341
0.0038903356 0.055977039 0.59070003
-0.23897688 -0.21295194 2.0406492
0.05898276 0.05836603 0.29419959
0.22718363 0.051895805 0.26670396
-0.88543957 0.060769267 1.1011288
0.20986295 0.055140354 0.30990624
-0.6873377 -0.23366049 1.2846575
-0.36237776 -0.26545155 1.8325143
-0.43662262 0.019466737 1.8797204
0.079347372 0.052615672 0.6821115
-0.44167799 0.016138323 1.7714906
-0.63737172 -0.13840503 1.2543147
0.52194387 -0.037507273 0.87899113
-0.91420579 -0.17382935 1.4987509
0.45757896 -0.12520523 1.03703
-0.18754695 0.05408787 0.49672198
-0.52807862 0.061286695 0.91155744
-0.31306779 -0.25574514 1.26928
0.0057280809 0.05563347 0.58191395
-0.28014809 -0.24587527 1.7897987
-0.52278864 0.061184227 0.89606619
-0.23269899 0.051351964 0.48186159
0.45810771 -0.18832105 1.1698406
-0.23134141 0.046087295 0.49360836
-0.61209518 -0.16390681 1.2737455
-0.069041848 0.06168057 0.30951047
0.4378255 -0.17496188 1.7276578
0.43572795 -0.0036645252 2.4635251
-0.44875568 -0.043507226 2.7420967
0.0039634854 -0.39241034 1.8546588
0.23397133 -0.17443426 1.0062742
-0.1797327 0.052460954 0.66637969
-0.59811264 0.050306953 1.2953739
0.21182653 0.054511085 0.26659787
0.17739943 0.058820613 0.3726052
-0.067724615 0.060538486 0.30044985
-0.67402631 -0.17778409 1.2597666
-0.57318544 -0.2202248 1.1708357
-0.57671291 0.062689193 1.150805
0.21360567 0.053498752 0.41888332
0.32367933 0.048964433 0.52103686
-0.23111258 0.050467178 0.4768157
-0.14055735 0.060819991 0.41719663
0.058111593 0.058059968 0.28721964
-0.10787418 0.056594506 0.40328109
-0.52875769 0.060969725 0.9118824
-0.96222794 -0.019205144 1.4464948
0.3948285 -0.13288836 0.68783474
-0.21941136 0.045809865 0.93989015
-0.43205261 0.0095541151 1.8300164
-0.37233293 -0.25403351 1.1752503
0.20142889 -0.21634591 0.96341753
-0.35538673 -0.2103494 1.4874887
-0.93901122 0.02470611 1.4263773
0.283149 -0.23761103 1.6853909
-0.46080184 -0.20152697 1.6608782
0.082391083 0.055598445 0.70451689
-0.47907609 0.0081602363 1.7618582
-0.97812754 -0.31552759 1.6266642
-0.97447878 -0.31444845 1.6163535
-0.90012532 -0.17170861 1.551435
1.1768451 -0.41874564 1.9889929
-0.2278765 -0.024309112 0.4764185
-0.95989215 -0.29321715 1.6111162
-0.65943497 -0.23845887 1.252044
-0.7213127 -0.19031434 1.2946503
-0.753537 -0.19764084 1.3351204
0.062835202 0.044842198 1.3200889
0.5852465 -0.22081433 3.5202186
-0.25103807 -0.38983923 2.450274
-0.23050903 -0.2658194 1.9396276
0.5292601 -0.21900281 4.9849091
-0.53673881 0.064270534 0.67339039
-0.18614316 0.057097465 0.54202819
0.21409768 0.0544696 0.4212389
0.22549869 0.052957781 0.73870993
0.35726082 0.042335615 0.82211804
-0.56478524 0.034918133 0.99314785
-0.11698507 0.058524109 0.53560257
0.35364622 0.041425794 0.80692124
-0.1145771 0.05683542 0.50792682
0.22051139 0.048485845 0.82638693
-0.71839219 -0.23040496 1.3283811
-0.37335753 0.05611296 1.0904355
-0.1111711 0.057551235 0.52353024
-0.57342827 -0.17285743 1.1081975
0.14242741 0.057114989 0.56996989
0.92692018 -0.12711149 1.2007442
0.88013291 -0.11710944 1.3982794
0.2000341 0.045410253 0.74730754
-0.47165793 0.024540005 1.5463634
0.083980486 0.057178162 0.70873809
-0.26883203 -0.32298663 1.4227865
-0.065744735 0.059859261 0.56357169
0.4741292 -0.16981833 0.95023012
-0.34808207 0.051838525 1.3521912
-0.0050204024 0.059174597 0.45610702
-0.4435249 -0.20264879 1.7664509
0.14221576 0.053006873 0.69104242
-1.0251858 -0.30172718 1.4650803
0.35370976 -0.15467358 0.82299304
0.52422971 -0.16872397 1.9523485
-0.37411237 0.055292115 1.4597473
-0.69308764 0.067257799 0.899755
-0.90026432 0.061902687 1.1186678
-0.54975635 -0.03623189 1.010803
-0.92159188 -0.17051522 1.4371915
-0.96375078 -0.29229334 1.5623307
-0.50212747 -0.12737182 2.0333545
0.080414087 0.054304734 0.68600583
-0.3852635 0.029873151 1.9068632
-0.61449456 -0.18567412 0.90417719
-0.49404103 -0.12551269 2.0019875
-0.45434266 0.042518996 1.6726396
0.062711224 0.044643305 1.3049552
-0.25634962 -0.23081385 2.2295549
-0.35113728 -0.089293636 2.531476
-0.93013978 -0.21752454 1.4457335
0.39660144 0.043418422 0.49602246
0.33988923 0.047008961 0.51597774
0.059776351 0.059268415 0.3074944
-0.067010522 0.060747579 0.3021524
-0.18505104 0.054608852 0.42119956
-0.90073544 -0.21269368 1.4683163
-0.23901491 -0.020708134 0.47506428
-0.074953474 0.060448013 0.30210149
0.23072332 0.052813567 0.27230132
0.3640753 0.044486433 0.50059426
-0.072916485 0.059053175 0.29124939
-0.42605513 -0.23608425 1.2325222
-0.23739336 0.050674431 0.72391295
-0.64005911 0.04720363 0.87379026
-0.16981317 0.058596335 0.28397894
0.45312476 -0.16263601 1.1042323
-0.14189841 0.061018057 0.42220414
-0.3806169 0.056685328 1.1232517
-0.86287796 0.018009704 1.3707874
-0.41043991 -0.2248058 1.1809638
-0.23214944 0.048170477 0.77048683
-0.11256574 0.058600627 0.53193498
-0.90811342 -0.21524738 1.48248
-0.17442292 0.060964301 0.44169152
-0.57791221 -0.1953126 1.1289654
0.13545451 0.054734692 0.46826112
-0.86302704 -0.014887596 1.3716867
-0.66154599 -0.28891456 1.3124657
0.14956649 0.057792649 0.61741269
0.13983828 0.052851446 0.67596698
-0.18118043 0.053905323 0.59390771
-0.62248397 -0.23504534 1.2232668
0.20796476 -0.22051823 1.1693406
0.0009811148 0.058020093 0.44169414
-0.47146827 -0.18726616 1.3799348
-1.1453594 -0.32187444 1.4363182
0.23337837 0.050189763 0.88623309
-0.26162279 -0.408474 1.9152608
-0.64948827 -0.18784258 1.2362599
-0.45282263 0.018227316 1.7954438
-0.49006736 -0.12236486 1.9837041
-0.46341532 0.015506026 1.8434532
0.16730696 0.051895581 0.89543581
-0.47056562 -0.0044328142 1.9775436
0.98686147 -0.085958816 2.4994619
-0.43256724 -0.18557858 1.5148387
-0.40788114 -0.1983851 1.583909
0.43460047 0.040880032 1.1757302
0.25549364 -0.17796285 1.084832
-0.93639463 -0.30126306 1.534889
-0.30858308 -0.19943002 1.8042612
-0.45037454 -0.19959776 1.6189003
0.15964763 0.067734241 0.47612083
-0.46995419 -0.19587131 1.7546165
-0.69700891 -0.091402508 2.6448224
0.32337159 -0.19673288 1.5271749
0.36170667 -0.19359174 1.7848265
0.29786015 -0.25390574 1.8002849
0.40084875 -0.21032164 1.9800987
-0.95069653 -0.26507497 1.3853636
-0.96291417 -0.057458423 1.334476
0.21160661 -0.2087182 1.1885464
-0.99878532 0.042330511 1.2532442
-0.20127007 -0.37111336 2.7149527
-0.44226283 -0.054403394 2.9637859
0.48843396 -0.37422767 4.6363811
-0.10806963 0.063721158 0.2842871
0.2160341 0.056732647 0.32279336
0.30653322 0.039872348 0.54268467
0.060542941 0.060681894 0.31766713
0.33329087 0.045410074 0.67034197
0.31945664 0.041504107 0.57722902
-0.2404847 0.056422129 0.39552259
-0.67796481 0.068408951 0.8395927
0.16433218 0.058198728 0.279562
0.48550779 0.038729172 0.73617339
0.3910929 0.041916713 0.60727811
0.4854371 0.037671026 0.73518157
-0.53950316 0.064753778 0.79979134
-0.10323125 0.057233639 0.41071212
0.22511239 0.052140839 0.26392281
-0.16791587 0.058500394 0.28287494
-0.95487732 -0.2890529 1.5178924
-0.59567291 -0.15932414 1.2346084
-0.54352921 0.044401765 1.0316527
0.29737014 -0.0075440723 0.50781631
-0.20832233 0.052017532 0.38294637
0.19879672 0.059698604 0.3049078
0.49553508 0.0361102 0.73032475
0.55109078 0.038110837 0.75654578
-0.10424204 0.058093779 0.41670692
0.5497244 0.037930753 0.75721335
0.19446103 0.057825968 0.29548073
-0.10783441 0.05964455 0.43114769
-0.18793836 0.054223895 0.49889696
-0.23542573 0.054060593 0.4682045
0.52761692 0.038884349 0.64365315
0.16727662 0.059294492 0.28677106
-0.0098517761 0.060788013 0.26630497
0.32438236 0.041307382 0.58447886
0.31951588 0.040989138 0.57111263
0.19954127 0.059702359 0.30649412
0.13844715 0.057317272 0.3977648
-0.23786049 0.055645131 0.389642
-0.25474495 0.054385945 0.50435877
0.16450477 0.058218449 0.28015506
-0.61079305 0.056955956 0.91199732
-0.097112522 0.060684107 0.32652581
-0.91977531 -0.17289789 1.5079978
-0.16110985 0.061856627 0.29055977
0.21244544 0.052920505 0.41516972
0.34663373 -0.15558615 1.0212169
-0.56522363 -0.24089262 1.1696184
-0.42762673 -0.23494729 1.1862068
0.27346784 0.044530965 0.75798368
-0.67628884 0.045804568 0.8913691
0.13828976 0.057663508 0.46935892
-1.0821106 -0.0063474346 1.4521277
-0.67719316 0.059445113 0.8588438
0.20085156 0.054237597 0.57533097
-0.93760306 -0.017855315 1.5069129
1.5592898 -0.15449311 2.2465189
-0.8829695 -0.018341409 1.4171519
0.62960708 0.018310087 1.3674111
0.45882905 -0.16076721 0.98922729
-0.90443522 -0.016499696 1.4459414
-1.0734562 -0.0032037888 1.4396052
0.2933504 0.043700993 0.71139646
-0.25911814 -0.17262144 0.89726901
-0.65666443 0.035097942 0.87492132
0.13868064 0.057356253 0.40044188
-0.91789269 -0.016891228 1.4679744
-0.67425221 0.015112167 0.91799283
0.34318775 0.003262572 0.99529481
0.064214185 0.056145802 0.42960072
-0.24741559 0.052225552 0.35137391
1.2242684 -0.17924373 1.7302387
1.2756461 -0.10581764 1.8234346
-0.82790059 -0.14917712 1.2255144
-0.93706906 0.012690021 1.4143813
0.73505849 0.012454154 1.784291
-0.47739065 0.0094770845 1.5105562
-0.61850029 -0.24318051 1.217629
-0.19143562 0.046756066 0.9273262
-0.932275 -0.0071660262 1.4437361
-0.08175531 0.049806535 0.52674842
-0.71385849 -0.16999616 1.2775719
0.16487636 0.050968975 0.87862229
0.14180261 0.05837328 0.47852921
0.79178023 0.011495891 1.9393263
-0.18763721 0.053275257 0.84358406
-0.91312879 -0.21588965 1.4415534
-0.070018783 0.058023818 0.52833104
0.1326157 0.054645695 0.4456321
0.42745191 -0.15263464 1.5215764
-0.15147559 0.04595416 0.39812577
-0.67602229 -0.20364834 1.0426793
-0.66554922 -0.2891621 1.3037694
-0.40369976 -0.22375169 1.1690688
-0.15654831 0.048023444 1.2805576
0.30256134 -0.25224456 1.8167429
-0.062659085 0.05563885 0.48517692
-0.71753389 -0.094391614 2.7248013
-0.47250223 -0.055838391 2.4182332
0.28476644 -0.23361123 1.6879096
-0.7284984 -0.22977884 1.2631702
-0.3198061 -0.0022471044 1.9496369
-0.21047048 -0.12964201 2.1391108
-0.93491703 -0.16143103 1.3712502
-0.52971107 0.0035353303 1.3792171
-0.11819221 -0.064005516 1.1523471
-0.33358794 -0.034545965 2.5527124
-0.53004378 0.019231921 1.3308053
-0.7557376 0.60899919 2.826133
0.24633212 -0.20486997 1.2816167
0.41405857 0.040477492 0.56533217
-0.91936076 -0.25107384 1.2062597
0.19653264 0.012873325 0.55720973
-0.11281022 0.062760063 0.26116061
-0.24295221 0.056284167 0.39924562
0.58162022 -0.15187207 0.75277376
0.45171106 0.016889453 1.6679523
-0.65068889 0.063048489 0.85566521
-0.38191062 -0.15905479 1.7318532
0.086491764 0.057489298 0.26338589
-0.90447348 -0.023466663 1.1093764
0.42935741 0.041992098 0.56876373
0.44397384 0.0327833 0.86110401
0.31524837 0.0063347723 0.5315783
-0.16375166 0.060631633 0.32456923
-0.36693591 -0.19644126 1.6884613
0.75531995 0.0017775213 1.7269812
0.21421553 0.053482465 0.7712214
-0.61509258 -0.18142064 0.83021164
-0.45504528 0.016391769 1.8128111
-0.39425832 -0.24684697 1.1862869
-0.44857752 -0.13041209 2.0549269
0.33694428 -0.17229272 1.0581017
-0.68990511 -0.093519032 2.4175687
-0.24694385 0.051595517 0.34899879
0.20175186 0.054849029 0.57470763
-0.43388379 -0.19884644 1.7147124
-0.40678751 0.062375709 0.77179003
0.0012222528 0.059004404 0.45012772
-0.17876646 0.054792762 0.55874038
-0.63241541 0.054403432 0.90300846
0.7362929 -0.083264016 1.2087128
0.21020339 0.054225937 0.26253629
0.55062479 0.036182165 0.71867633
-1.1594421 -0.30275959 1.4899607
-0.87945449 0.028091805 1.113488
-0.15067558 0.038395979 1.0655379
0.31987607 0.049119763 0.39821887
-0.39697391 0.060415991 0.61520565
-0.42948335 -0.0042220354 1.9342396
0.22004198 0.050156549 0.72741628
-0.073165268 0.059168063 0.28905416
0.084287629 0.06137941 0.30524015
-0.51474893 0.041629478 1.4817348
-0.93986863 -0.27630365 1.3180225
-0.25371331 0.018440906 0.50380695
-0.14721458 0.042327948 1.4411108
-0.097398296 0.061598413 0.27451944
-0.06452392 0.060382128 0.56593919
-0.12801789 0.057398163 0.48360038
0.34348941 0.043037631 0.71899104
0.31615984 -0.083342157 0.52656543
-0.48848218 0.027455721 0.87183666
-0.31582189 -0.17401417 2.3086181
0.29314154 -0.24939165 1.7738459
-0.83884329 -0.12459096 1.0779669
-0.53752238 0.063533477 0.7947216
-0.25995129 0.018643513 0.51610947
-0.24418138 0.054912098 0.46877253
0.13951199 0.060732894 0.31987011
0.22967263 -0.1969029 2.2335346
-0.23807324 0.051318541 0.46927822
-0.13826449 -0.083061397 1.403821
0.0085025057 0.060926855 0.28462219
0.23164307 0.048487268 0.74154711
-0.24503331 -0.22652435 2.1463423
-0.25866181 0.0560904 0.39473104
-0.23300876 0.049217679 0.93919349
-0.25993377 0.018621376 0.51606262
0.0062036961 0.054296061 0.55704474
-0.1904432 0.051712461 0.44332123
0.24671456 0.037099231 0.58891404
-0.44288784 -0.18030046 1.2951977
0.45773995 0.051026344 0.59074736
0.13821277 0.056799412 0.46559608
0.31476086 0.0028500156 0.52393186
-0.48697656 0.0033801328 1.7595735
0.54584742 0.036321796 0.71415782
0.30190641 -0.078488283 0.50090933
-0.35150701 0.030388542 2.1768165
0.14166953 0.0561511 0.50759208
-0.3926546 0.059304677 0.55078268
0.40649515 -0.013406863 1.3278503
-0.86449361 -0.12900692 1.1136782
0.30550116 0.048216287 0.73442984
-0.66909194 0.045551404 0.87853503
-0.35231978 -0.018029628 3.2344282
-0.37368709 -0.093441732 3.4283807
0.13628362 0.050418988 0.66585541
-0.56462854 -0.03435418 0.99755049
-0.67531663 0.033748403 0.95550203
0.31400394 -0.00098042749 0.53480661
0.55781853 0.036845073 0.73298287
-0.07859005 0.051631548 0.56417441
0.3297205 0.022795592 0.57457209
-0.29713815 -0.18323724 1.7046299
0.3367427 0.046008676 0.50825536
-0.42767733 -0.21986662 1.7767823
0.30557597 -0.079415895 0.50809693
0.068977669 0.05895973 0.44168115
-0.56816971 -0.034532167 1.0046966
0.30835658 -0.080313511 0.51362371
-0.046446837 0.046277374 0.60453093
-0.84788364 -0.013015626 1.0837204
-0.53758794 0.031553078 1.3887789
-0.27904451 0.019899173 0.55256855
-0.99751478 -0.33548373 1.6408474
0.46939802 0.017164733 1.7438631
-0.50240237 0.013111071 1.6967137
-0.46763122 0.039451681 0.86470509
0.47472084 -0.14149077 1.0452971
0.18319549 0.060052261 0.38365352
0.35591662 -0.17541817 1.0120778
-0.12044528 0.061460748 0.57013881
0.22884744 0.04856218 0.73468184
-0.18238448 -0.39585045 1.9126308
-0.40050185 0.060372703 1.1844101
-0.52377933 0.021267956 1.6644974
