# .PCD v0.7 - Point Cloud Data file format
VERSION 0.7
FIELDS x y z
SIZE 4 4 4
TYPE F F F
COUNT 1 1 1
WIDTH 652
HEIGHT 1
VIEWPOINT 0 0 0 1 0 0 0
POINTS 652
DATA ascii
-0.19739258 0.05201387 0.40936923
0.2775926 -0.071037233 0.41683364
1.1693482 -0.26565072 1.6081469
-0.89886653 -0.21840979 1.3274939
0.53408527 -0.14316016 2.0155437
-1.3936937 -0.45481256 2.5328467
1.2650111 -0.27098641 1.900028
0.080233037 0.05595132 0.31661248
-1.3202293 -0.26674291 2.3806546
-1.4351397 -0.3004258 2.5580022
-0.93130791 -0.36187813 2.195749
-0.053183436 0.056411304 0.48148608
-0.81003571 -0.12080589 3.3052619
0.30911189 -0.033709127 0.40811849
0.31284744 -0.03421377 0.41159463
0.33088815 -0.046603609 0.40225577
0.089955032 0.058166534 0.44071412
-1.2172004 -0.42263907 2.2618124
-0.41588235 0.063999891 0.6975472
-0.89544368 -0.24481182 1.2833531
-0.044801593 0.051625859 0.49809146
-0.18841773 0.043608766 0.82173562
0.46866429 -0.4210723 2.2779634
-0.79150486 -0.14093724 2.9740708
1.3470422 -0.16999413 2.1359823
-0.34666836 -0.23226769 2.3830464
0.31144452 -0.061283264 0.40752149
-0.53179729 0.051345695 0.80430436
-0.84526384 -0.21875064 1.1598527
-0.52621007 -0.053086434 0.91245723
1.0856189 -0.34135303 1.6704175
-1.0738751 -0.2113717 2.1929672
-0.54720724 -0.047078442 1.4001915
0.66851485 -0.41494772 2.0110905
0.58180964 -0.29600036 2.0411575
0.5208199 -0.36409792 2.3367507
-0.9875257 -0.55512798 4.1760197
0.48423791 -0.41504887 2.2907016
-0.34039617 -0.36579996 2.230129
-0.3209067 -0.083487675 2.3995516
-0.32409286 -0.28123504 2.5996296
0.55281949 -0.41950771 3.7886956
0.11165839 0.041900892 0.28221631
0.11124969 0.023583801 0.17673135
0.13285011 0.024877109 0.38176751
-0.52821732 0.053367503 0.9150188
-0.97940004 -0.22906347 1.2484581
0.085211515 0.055231221 0.38985419
-0.9150933 -0.21266608 1.1655676
0.45941079 -0.19784741 1.9608042
0.48204827 -0.41678947 2.2884748
0.32509679 -0.060274821 0.40446305
0.11073387 0.0418237 0.27903104
-0.18344039 0.049514145 0.44528079
0.50124717 -0.24835195 2.1747181
-0.1709922 0.055314064 0.51029944
-0.19810659 0.051926456 0.41017461
0.57913554 -0.25846657 1.9390996
0.11447388 0.027083255 0.14463973
0.34022534 -0.061239641 0.40254712
0.30332756 -0.037164871 0.40590167
-0.19293231 0.056412511 0.30129027
-0.52495396 0.048554238 0.79115939
-0.98107183 -0.4552981 2.2749465
-0.55638397 -0.050020527 1.4287279
-0.86031222 -0.19271994 1.2427685
-0.18707359 0.057967301 0.3263042
0.51108801 -0.18886542 2.0191333
-0.20940936 0.064673334 0.38228297
0.47408986 -0.08978647 1.6866791
-0.78909659 -0.32025743 2.3825972
-0.86067235 -0.15446828 1.1685956
-0.87655139 -0.26789454 2.1946399
-0.9521842 -0.36432758 2.2941043
-0.34473103 -0.37253651 2.5810106
-0.23271215 -0.14853726 2.1048901
-0.23500323 -0.17626935 2.1360667
0.42215002 -0.38332653 2.5725691
0.31553572 -0.043127749 0.40706611
0.4535867 -0.12599072 1.3822844
0.28465736 -0.040606294 0.4115479
0.11038733 0.052606978 0.27415252
-0.89071536 -0.21006958 1.1113608
-1.2676628 -0.44506794 2.484576
0.27044314 -0.076153114 0.51126027
-0.061597228 0.057380855 0.47904372
0.28567135 -0.088519469 0.4116118
0.11325371 0.026913861 0.14260411
0.11198586 0.029612942 0.14661288
-1.4041574 -0.42331329 2.4205353
0.27886856 -0.040042717 0.40182281
0.41665113 -0.090466887 1.0456064
0.44073677 -0.34882012 2.4096825
-1.3053381 -0.23401482 2.3606021
-0.34721923 0.054651074 0.4751966
0.10548931 0.022156939 0.23867154
-0.19855171 0.051918942 0.38205218
0.2898705 -0.040811498 0.41422725
0.26196599 -0.059007455 0.48557067
-0.53435373 -0.054550987 0.92815423
-0.8602556 -0.21617611 1.1777995
-0.35012472 0.055085413 0.4772656
-0.065497935 0.073009521 0.3255527
0.57592416 -0.304708 1.9345272
-0.86925614 -0.25812677 2.1045234
-1.2965171 -0.46376637 2.5084426
-1.624974 -0.48316547 2.7740839
-1.3523729 -0.27655992 2.4048078
0.4899652 -0.44941154 3.0584447
-0.34487683 -0.39028332 2.427788
0.049953938 -0.20210458 2.0563653
-0.33140111 -0.37250501 2.4989436
0.11331636 0.020985501 0.15150142
0.46403015 -0.13103624 1.4229438
-1.6377075 -0.47403732 2.7709506
0.31133395 -0.044486817 0.40216851
0.11744744 0.026300725 0.14725852
0.13065463 0.02303906 0.29137301
0.30924404 -0.034275424 0.40449739
0.087836087 0.057055324 0.42148328
-0.92166245 -0.28888509 1.2612164
0.12412846 0.011043083 0.15844035
-1.358543 -0.43360689 2.4905303
-0.18621767 0.057994425 0.34763694
-1.2576033 -0.43952712 2.4885662
-0.32459068 -0.14922963 2.4788954
-0.95496535 -0.22357665 1.2042739
-0.53906345 0.046349991 1.371649
-0.19998705 0.057589732 0.27600932
0.11041427 0.023473294 0.17500377
0.28606415 -0.088321909 0.41200233
0.55369437 -0.27841869 2.0243504
0.68782818 -0.2491516 1.8893125
-0.30706084 -0.17041932 2.2507508
0.33980954 -0.24504419 2.6125038
-0.1689496 -0.5161798 3.5261796
-0.23334259 -0.19299187 2.2077529
0.12440544 0.011101466 0.15900874
0.32771325 -0.054967988 0.40437293
-0.94046998 -0.21632583 1.1851256
-0.35990077 -0.41943046 2.536742
0.52264237 -0.14242828 1.9645164
0.080045164 0.057340935 0.4382236
-0.065633297 0.059465878 0.26087689
0.10961163 0.023388114 0.17341065
-0.86254859 -0.3809731 2.3364413
0.11301875 0.021067994 0.15084291
0.071777821 0.050831847 0.59078622
0.007722497 0.056685049 0.23041511
-0.05441761 0.060885854 0.35022235
-0.37540185 0.059273075 0.55542159
0.13147545 0.054749589 0.44010043
0.34243625 -0.07858023 0.40339732
-0.90587449 -0.39085728 3.92645
0.54911399 -0.190174 2.0292957
0.11528206 0.026784677 0.14554667
-0.56623101 -0.22283567 2.9734943
-0.22440797 -0.18811041 2.1332052
-0.91701591 -0.48980811 2.3035653
-0.98237681 -0.4518488 2.2873051
0.15936828 -0.18303189 2.4938238
-0.85239172 -0.33112076 2.3770635
0.35977423 -0.043238793 0.61653352
0.11204684 0.023857336 0.1785109
0.46573603 -0.13115253 1.4271815
-0.17986208 0.059356265 0.56034636
0.52379429 -0.14028592 1.9699829
-0.91280913 -0.21478026 1.2011821
0.31292379 -0.033595044 0.41237617
0.34381342 -0.053907756 0.3983767
0.47945118 -0.26012582 1.9171364
0.3096481 -0.048864055 0.40676093
-0.2067126 0.052448705 0.33713317
-0.17666906 0.056974921 0.52887845
0.56266081 -0.39722452 2.1476748
-0.53392839 0.049168631 0.8048141
-0.019005418 0.060011759 0.27906251
0.11634243 0.058654949 0.27201486
0.31087768 -0.060813311 0.40675282
0.69171822 -0.28969151 2.0322211
-0.60601008 -0.03379764 1.0612957
-0.98605204 -0.24440871 2.1274416
0.19372255 0.011714298 0.26054978
0.08148694 0.056767974 0.32253528
-0.4113549 0.064802043 0.56629157
-1.6699378 -0.48321894 2.8101633
-0.89906037 -0.32952344 2.1599233
0.11166012 0.051823437 0.27736306
0.42998827 -0.067584246 1.3540385
0.27468932 0.0054957308 0.52114177
-0.87237096 -0.22454669 1.16697
0.53252316 -0.19271934 1.943681
-0.19340789 0.053433944 0.31621575
-0.53010774 0.062440909 0.67790818
-0.2160368 0.051083282 0.32687974
0.36265433 -0.073635876 1.6420419
0.17467314 0.020037761 0.40797687
0.035926759 0.050870799 0.59488225
0.18040079 -0.16355191 0.94357657
0.29796106 -0.042803947 0.40877414
-0.44759667 0.07004834 0.70385337
0.47997403 -0.088722378 1.7110097
-0.80122697 -0.015317537 1.0975478
0.11591727 0.013404939 0.21439099
0.32298827 -0.059490357 0.40208602
-0.20412511 0.054987196 0.50208926
0.10256469 0.05405616 0.6202147
-0.78695226 -0.20378916 1.0966198
0.31369179 -0.063497394 0.41217875
-1.1448908 -0.4638311 2.4235919
-0.54516757 0.044748481 0.79088998
0.11238801 0.042667434 0.28412461
0.13180423 0.022382341 0.2723105
0.31147349 -0.061063509 0.40625691
0.10225242 0.020705055 0.19652772
-0.57535958 -0.050561193 0.98414826
-0.82064581 -0.20367314 1.119818
0.30745488 -0.085012689 0.39565778
0.11230689 0.050333034 0.27802157
-0.047229588 0.05314463 0.49429059
-0.51249516 0.043690126 0.66701388
0.32401055 -0.087523118 0.40421128
-0.78496492 -0.38234642 2.2320988
-0.72978258 -0.24027394 2.1566141
0.087992668 0.061062545 0.34935451
0.14700806 0.051609453 0.57237077
-1.0182689 -0.35497412 2.2797787
0.10988402 0.030790344 0.26121688
0.33128965 -0.055623125 0.39918113
0.4399879 -0.061503839 1.3843458
0.93125403 0.0025674812 1.2654116
0.55364323 -0.45145711 2.4012735
-0.93399143 -0.38210756 1.9710381
0.12224901 0.024087509 0.23743653
-0.13738239 0.043198358 0.23420644
-0.86691892 -0.20581581 1.1860993
0.11048019 0.020688048 0.14701629
-0.19333583 0.056567457 0.26097751
-0.52198625 0.049166229 0.78827024
-0.49795389 0.04397627 0.64240193
-0.20486355 0.053127728 0.32967401
0.10933 0.027660431 0.18184352
0.10800642 0.041312754 0.17492366
-0.19766593 0.05512901 0.29127479
-0.096454859 0.058095001 0.3648088
0.066579878 0.058197029 0.32527566
-0.049208283 0.054338053 0.3097713
0.16872144 0.05308893 0.58551812
0.12409252 0.011175692 0.15817475
0.11991763 0.030611735 0.14991593
-0.19661605 0.051707409 0.4072969
0.11193526 0.032759111 0.14543653
0.11606991 0.052894786 0.5900209
-0.23446447 0.050704777 0.66115022
-0.18514043 0.057761461 0.44506764
0.12128866 0.015309246 0.2576406
0.11723363 0.023510868 0.22835088
0.18846291 0.029713944 0.67186427
-0.98856771 -0.27371287 1.2338092
-0.84825587 -0.078445643 1.1714098
-0.18299651 0.05782035 0.3928225
0.034511209 0.055413879 0.4418776
0.088087082 0.057193264 0.43374228
0.49824429 -0.29854533 2.3060405
0.50466132 -0.073763728 1.8032868
0.46375942 -0.08151193 1.6530411
0.17609245 0.046339434 0.73582721
-0.48477101 0.056216344 0.78034759
0.11241126 0.020822242 0.15007281
-0.19090086 0.050267816 0.78723931
0.71241248 -0.27307278 1.9676816
0.3110345 -0.056397397 0.40809608
-1.3498905 -0.27993733 2.2463801
0.47939003 -0.33560598 1.9357917
-1.0300472 -0.11857392 2.1637299
0.089676559 0.051883593 0.59543347
-1.697253 -0.37529314 2.7758329
0.95150089 -0.27715662 1.6980522
-0.50762415 -0.25875521 2.6324341
0.033895552 0.057093434 0.69453454
-0.22922421 -0.21543793 1.9982293
0.10764676 0.038218893 0.18596387
0.32454276 -0.0595241 0.40158772
-0.8714385 -0.24510531 1.1309307
-0.18951255 0.058671601 0.33131623
-0.19864893 0.051921219 0.38282084
-1.646477 -0.4078359 2.6967146
0.33222514 -0.0547047 0.38356423
-0.10299665 0.054841265 0.68710017
-0.24060893 0.051335208 0.42715907
-0.19579387 0.057796605 0.26100087
-0.71552908 0.056800637 1.1463659
0.26161516 -0.10854307 0.51703429
-0.19963419 0.055477336 0.24643826
-0.19398034 0.053257465 0.31856751
0.45884669 -0.079972073 1.4507129
0.088284016 0.051741973 0.5953238
0.36812866 -0.039330248 0.61857295
1.4601247 -0.044515077 2.1407354
-0.18163717 0.052764945 0.47094226
0.11522347 0.023441678 0.22559857
-0.55981147 0.036952864 0.94775224
-0.92944372 -0.22025733 1.2637842
0.13220328 0.05524528 0.39718318
0.45436907 -0.099962428 1.3556302
-0.061746895 0.058352187 0.49374747
-0.18757164 0.058309622 0.35017705
-0.66861129 -0.10305659 2.0050809
-0.22452998 0.046233989 0.4628489
0.29587114 -0.044807155 0.42008424
0.6821835 -0.39362761 1.9848378
0.13747948 0.05788672 0.47494292
0.10380089 0.042253107 0.6768167
-0.19506663 0.053030729 0.43173909
0.14569974 0.048782595 0.78585315
-0.21623236 0.054546136 0.29187894
0.066620886 0.05226041 0.24779391
-1.5079725 -0.38960129 2.449013
-0.86746454 0.020733882 2.0732243
0.32839984 -0.046365108 0.40115142
-0.18522668 0.05728028 0.32251
0.61381245 -0.37747514 2.0171473
-0.22207707 -0.15702561 2.1221683
0.1049639 0.022267615 0.23953366
0.34926593 -0.037333217 0.58509278
0.11178899 0.022031894 0.25233006
0.078585267 0.055378243 0.42588449
0.30567992 -0.03732923 0.46150374
0.2924403 -0.077575177 0.43338847
-0.73708105 0.0025876574 2.1426909
-0.1854015 0.058002152 0.42824197
0.33164996 -0.049959037 0.40216851
-0.19830656 0.055277802 0.24466634
0.12005782 0.033830795 0.14144349
-0.92615318 -0.21695898 1.181349
0.11621046 0.042009778 0.30691981
0.34601003 -0.066560581 0.39494395
-0.20781565 0.055278454 0.27393031
0.30118227 -0.08656016 0.41291404
-0.67143273 0.053897336 1.0740201
0.73011613 -0.27034709 1.3636873
0.47876704 -0.23625936 2.0650904
0.17006284 0.050705623 0.55491185
-0.18530184 0.058020942 0.41156793
0.32332319 -0.060474593 0.40063787
-0.98471999 -0.30662677 2.2186677
0.33942777 -0.06090479 0.40166211
0.29098868 -0.040739473 0.4149611
-0.87498963 -0.17904516 1.1380975
-0.90570164 -0.42102298 3.2213972
0.11202383 0.029954489 0.14723086
-0.77849007 0.0063122325 2.2675283
-0.034469664 0.049455747 0.59705186
0.31018597 -0.07925272 0.409621
0.12017584 0.027741825 0.15104795
0.27943283 -0.069484338 0.4189961
-0.36928099 0.11435182 0.88350606
0.73162639 -0.40171471 2.0944231
0.12936658 0.018075474 0.25220561
-0.79440844 -0.0013417713 1.0981209
-0.84873235 -0.27531034 2.1784403
0.56470096 -0.35947624 1.9539082
1.345472 -0.032672163 2.0050561
-0.3691209 -0.33368674 2.6460955
0.31520641 -0.034405109 0.41215968
-0.048454344 0.055677339 0.41583371
0.34298301 -0.063073754 0.40226865
-0.5496732 -0.099042207 1.3796637
-0.047356963 0.056652732 0.47597766
-0.76238179 -0.36601025 2.2381699
0.72513306 -0.22882201 1.9481323
-0.19707274 0.054675732 0.28996062
-1.3672719 -0.28073823 2.4302032
0.11509228 0.029599225 0.14304996
-0.50806761 0.047645513 0.76570249
0.98131478 -0.30437842 2.1375678
-0.74655795 -0.058217708 2.1504896
-0.040590167 0.062840268 0.33844256
-0.012663126 0.057750922 0.33888412
-0.17935455 0.055910032 0.50965571
-0.25616491 -0.19502963 2.292454
0.47451913 -0.36551642 2.2674329
-0.35878098 -0.11945741 2.7693303
-0.56969476 -0.22643308 2.9989116
0.13162965 0.054974064 0.61808658
-0.59555912 -0.05676413 0.97261024
0.30037981 -0.072535262 0.42027068
-0.039309144 0.004099384 0.1296556
0.96774173 -0.071835801 1.2120082
0.17004663 0.047293544 0.75598216
0.31278855 -0.034446921 0.41050076
-0.74485409 0.043009039 1.1525567
0.10862678 0.041543379 0.17619157
-0.64426148 -0.12636717 0.93524814
-0.17746156 0.051373139 0.58899713
-1.7096295 -0.39690018 2.8394191
-0.18830603 0.05116567 0.45635581
-0.15566581 0.049112387 0.6190412
0.074771404 0.056708612 0.31540895
0.36374164 -0.056420911 0.61055207
0.28155291 -0.070283383 0.4216063
0.11771142 0.024997462 0.24269986
0.075145066 0.055685192 0.23804879
-0.79000604 0.0029374361 2.3015506
0.32390183 -0.08737202 0.40313268
-0.05213958 0.056699142 0.28368783
0.34383386 -0.065559849 0.40294003
0.28168422 -0.056884337 0.4179256
-0.87769866 -0.39278382 2.3308508
0.2867316 -0.041052755 0.41823697
-0.65226841 -0.067328632 1.8736141
-0.72369933 -0.10722356 2.1590283
-0.13561356 -0.11850733 1.0146768
-0.78125453 -0.17226276 1.1246426
0.11573368 0.029938661 0.14366126
0.078254163 0.054583322 0.30826497
0.63347495 -0.29391098 1.9953249
0.32034755 -0.078624576 0.40218234
0.21204615 0.034674093 0.63254094
0.30298156 -0.044562329 0.41409373
-0.19514871 0.056795828 0.2934916
-0.5424788 0.0059567839 0.93206954
3.4992375 0.058711186 5.8564606
-0.47221768 0.041384019 0.81590772
0.11808091 0.029816968 0.29919934
0.61037195 -0.278054 1.9199889
0.10258424 0.022543699 0.18829179
0.11220378 0.023945725 0.17811513
0.062139571 0.061014034 0.27456403
0.11170608 0.035316747 0.15052819
0.17189866 0.053858038 0.59980512
0.52183318 -0.11024301 1.3958538
-0.15240288 0.057982009 0.26335883
0.34681505 -0.072788015 0.39594531
0.32058752 -0.079623565 0.4087956
0.16134125 0.051638484 0.56629682
0.63916707 -0.39002058 2.1043756
0.58489931 -0.2317801 2.0036595
-0.76100194 0.044142306 1.1777885
0.50805664 -0.10053383 1.8125427
-0.89300847 -0.45849428 2.3221633
0.30809337 -0.021888208 0.42117572
0.52924538 -0.014766309 2.3582919
-0.17568338 0.056490209 0.51414895
-0.09989208 0.04778596 0.41487718
-0.040829182 0.0065278672 0.13028693
0.4768995 -0.30469152 1.848078
0.31097031 0.00026788935 0.5598886
-0.064938486 0.057487741 0.44415593
0.55274868 -0.014047381 2.4647005
0.46122646 -0.25678626 2.3678229
-0.050338507 0.056716256 0.29482484
0.11270273 0.020948755 0.15040994
-0.29925555 0.047352191 0.40975356
-0.069761515 0.059108727 0.30600762
0.114842 0.021973249 0.22058272
0.97753608 -0.086478695 2.1545956
0.27854615 -0.10122718 0.5155189
0.27877665 -0.068823203 0.41885018
0.61800671 -0.37823638 2.0353329
-1.0405011 -0.12222865 2.1829603
-0.099843144 0.060654074 0.35252643
0.056738317 0.056518033 0.26740766
0.32453662 -0.089963883 0.41806436
-0.57954705 0.01275266 0.94421744
0.44437563 -0.096957132 1.1147525
0.35833025 -0.076797396 0.59560418
-0.52578449 0.047959428 0.79160047
-0.19125456 0.051746432 0.46495652
0.16152263 0.05110053 0.56314874
0.10927206 0.022846537 0.14768481
0.038279414 0.0061783716 0.1230104
0.9757278 -0.37716034 1.7022636
-0.56562233 0.033598121 1.0592682
-0.54155231 0.021183118 0.79601073
-0.81187439 -0.32410541 2.3832109
-0.24269974 -0.17872211 2.2155578
-0.32277316 -0.36811194 2.5795372
-0.33403587 -0.4113954 3.1481445
1.0361592 -0.21753679 1.7057636
-0.25647581 -0.32403734 3.7787507
-0.36718076 -0.40654564 2.5587528
0.93299973 -0.27552289 2.0633857
-0.87256312 -0.44120577 2.3208153
1.0840814 -0.27297866 1.743387
-1.1659865 -0.40802181 2.3233387
1.079282 -0.014933225 1.2373612
-0.64024317 -0.3573525 3.2255089
-1.0245423 -0.41230083 2.2244403
0.24893415 -0.28483275 4.0860777
-0.92189193 -0.35726222 2.1679132
-0.21915507 -0.50586009 3.6559322
-0.12441826 -0.51605767 3.4212644
0.25304186 -0.28998557 4.159564
-0.95347106 -0.26806417 2.1280324
-1.2361435 -0.40478498 2.5014617
-0.13049781 -0.52787417 3.5543029
-1.0253608 -0.38950434 4.303544
-0.2021004 -0.49319091 3.4938986
-0.8482331 -0.41096032 2.3024285
-0.97275233 -0.25979966 2.6695378
-0.92243552 -0.26603517 2.2179449
-1.0996368 -0.39073268 2.2290075
-0.80599189 -0.23565643 2.4185665
-0.80617273 -0.26063114 2.2642548
-0.84312749 -0.38095611 2.6386769
-1.0892478 -0.21973322 2.1860311
-1.1651467 -0.39745036 2.3174355
-0.57044709 -0.064626545 1.4134986
-1.086762 -0.21472694 2.1798728
-0.072725058 -0.23239236 3.5789611
0.92459142 -0.022894043 1.3299186
1.9095213 -0.16730149 5.814189
1.4454889 -0.61643988 4.0959158
-0.91328001 -0.47743312 2.2795026
0.068737864 -0.28729671 3.1379411
0.3117227 -0.060565632 0.40541339
1.0469091 -0.27668792 2.1521089
-0.89526427 -0.22673054 1.2276361
-1.1717547 0.014948204 1.7081897
-0.91886616 -0.25342259 2.5112059
-0.86273456 -0.42482945 2.3311622
-0.89674091 -0.29205218 2.7611377
-1.051219 -0.36917606 2.1308243
0.4594208 -0.026261602 0.97311997
-1.0165635 -0.56661218 4.2631044
-0.8664093 -0.3892847 2.3020093
-0.90358794 -0.35674143 2.4358065
-0.56905401 0.047464557 1.4763663
-0.84991479 -0.23609807 3.768223
-1.025938 -0.35879123 2.2962549
-0.88345134 -0.1805208 1.1549218
-0.94154477 -0.34651563 2.2452443
0.87891376 -0.018111076 1.3929927
0.93886089 -0.27002677 1.6983893
-0.98519528 -0.38589796 3.9565465
-1.3133228 -0.46857873 2.5460656
-0.83562398 -0.26512715 3.085047
-0.96583176 -0.39914265 4.1202726
-0.98499811 -0.45725772 2.2822893
-1.3469648 -0.4364669 2.4669969
-0.84533238 0.053170417 2.1606047
1.10435 -0.12258697 1.7504179
-0.35686606 -0.22701652 2.4238555
1.0712495 -0.063082337 1.2580311
-0.82161891 -0.16125236 2.3797371
-0.95091474 -0.21167718 1.3793318
-0.82785273 -0.4333671 2.09532
0.90731764 -0.19928087 2.1168697
-0.94950342 -0.28207278 2.1162031
-0.91656375 -0.39186355 3.9535258
-1.0717652 -0.34191832 2.1653588
-0.88179457 -0.29371554 3.8158195
-0.60572207 -0.34709504 3.0739634
0.28542835 -0.041136403 0.41398406
-0.62663746 -0.046595518 1.6135499
-1.0850356 -0.56463861 4.3120127
-0.60570788 -0.16977501 3.108721
-1.047395 -0.44687727 2.3282621
-0.90081 -0.41665173 2.2750385
-0.89620733 -0.22991408 1.1271298
-0.86994731 -0.34302926 2.3238313
-0.94041371 -0.26778498 2.1673434
-0.33337808 -0.36865351 2.4991863
-0.88809645 -0.46425512 2.2887957
0.93303502 -0.25243276 1.6836407
-0.96735382 -0.21619798 1.4140928
0.48282409 -0.29318368 2.2344182
-1.2982767 -0.4639506 2.51349
-0.5624429 -0.25899684 2.8717468
-0.57845628 -0.045945499 2.8848245
-0.66213202 -0.28460136 3.4674127
-0.87725103 -0.16730554 1.1123793
-0.7939918 -0.32377118 2.2321718
-0.89695287 -0.25817099 2.1565192
-0.60420036 -0.34049469 3.0492537
0.41253889 -0.073279023 1.2193191
-0.95506394 -0.21247296 1.3860176
0.85323441 -0.18016672 1.6228468
-0.39148611 -0.42680618 2.598594
-0.80509007 -0.3985576 2.319082
-0.83100986 -0.059226822 3.7984192
0.97632074 -0.32422468 1.7231815
-1.3147565 -0.11052281 2.4682586
-1.2932371 -0.16693334 2.3862679
0.97967279 -0.3253065 1.7190449
-1.3297896 -0.052752856 2.4978406
0.72084403 -0.48331001 5.5659819
-0.90084267 -0.062353242 3.3728883
0.94138718 -0.27164552 1.7071717
0.95154202 -0.2969425 1.6308253
0.32313871 -0.057027619 0.39894652
0.26990038 -0.066371515 0.40675235
-0.92713022 -0.26343662 1.2525923
-0.06678772 0.059457645 0.48621392
-0.80506301 -0.3240259 2.2726591
-1.2975503 -0.4505972 2.4362061
-0.47146082 -0.18103322 2.2268989
-0.80037069 -0.39451525 2.3060644
0.67773652 -0.41932961 2.0431235
-0.84503937 -0.20099588 2.8936555
0.53120553 -0.38786536 2.0550487
-0.73469973 -0.17647605 3.7680786
-0.18647105 0.044649187 0.8833344
-1.1029727 -0.30505955 2.2437713
-1.3654014 -0.44825956 2.4816005
-0.96688867 -0.47865269 2.2913239
-0.38628489 -0.16221498 2.3310411
0.53961909 -0.38604927 2.0676606
1.0530516 -0.32828745 1.7245462
0.33256376 -0.044434477 0.56317925
1.3439072 -0.16792151 2.1251757
0.98376572 -0.26888165 1.6360819
0.34065056 -0.06139176 0.40261531
-0.59543717 -0.16584302 3.1246674
-0.4924407 0.05568276 0.76227689
-0.78493941 -0.10960029 3.6047428
0.49974394 -0.29788491 1.8779156
1.0814565 -0.016200621 1.2400262
0.91995919 0.0025325157 1.1793916
-0.43700528 -0.40287158 2.6428611
0.31054771 -0.056207646 0.40931487
-0.17318809 0.054345563 0.31584859
0.92969394 -0.30442718 1.6686943
0.11313289 0.02764247 0.14292073
-0.78144073 -0.33424005 2.3467042
-0.17393714 0.056524627 0.52939248
-0.90920091 -0.36596 2.186558
0.98286259 -0.21982102 1.7316878
0.28481436 -0.040924136 0.41419816
-0.20851547 0.053295471 0.87163568
0.29743487 -0.07801652 0.40868258
0.079676926 0.058772292 0.44283605
0.31120819 -0.041244436 0.4062016
-0.76492023 -0.10695359 3.1087258
-0.90852737 -0.34654191 2.4223602
-0.29985511 -0.012318134 1.9693501
-0.32620341 -0.3811655 2.6069009
-0.3190608 -0.28190723 2.5845301
1.1045454 -0.33845714 1.730531
-0.98924863 -0.4571602 2.3034561
0.33926314 -0.077993363 0.39934087
0.45098829 -0.23433389 2.3610699
0.32525408 -0.060498107 0.40506148
0.12485981 0.052450471 0.59310794
-0.900967 -0.26867557 1.2384684
0.83528686 -0.027159501 1.2122605
-0.52690148 -0.052819867 0.9149363
0.41891086 -0.28077984 2.0848882
-0.17402953 0.056313124 0.52236342
1.0547633 -0.33115909 1.6122615
-0.36446637 0.056386448 0.61270881
