# .PCD v0.7 - Point Cloud Data file format
VERSION 0.7
FIELDS x y z
SIZE 4 4 4
TYPE F F F
COUNT 1 1 1
WIDTH 628
HEIGHT 1
VIEWPOINT 0 0 0 1 0 0 0
POINTS 628
DATA ascii
0.41441858 0.024280094 0.73473573
0.11100799 0.052085489 0.25607038
-0.19376099 0.050679445 0.4915545
0.28748846 -0.090747036 0.48768401
0.28073823 -0.072609492 0.49469733
-0.93644416 -0.22179765 1.3344276
0.86284816 0.020879101 1.0907938
-1.4403785 -0.41982713 2.5267465
0.1185481 0.036879018 0.23337817
-0.94476902 -0.23320779 1.5133631
0.54855669 -0.14505759 2.0941861
-1.403538 -0.46290165 2.6810739
-1.2943983 -0.26435962 2.4502356
-0.90367782 -0.15225074 2.3016045
-0.9196502 -0.36361873 2.2935121
-0.11921257 0.045892261 0.94872069
-0.17791772 0.055872895 0.51676917
0.010381341 0.058077164 0.32296062
0.31539041 -0.035839319 0.49213099
0.32896918 0.019919392 0.48743939
0.316948 -0.03600233 0.49145007
0.10755086 0.032933913 0.33642459
0.28934491 -0.1043529 0.49019551
0.33353943 -0.048201941 0.47912955
0.094192863 0.056911457 0.52433276
0.120731 0.032154325 0.21760678
0.098357081 0.047599293 0.62262797
0.15925401 0.031497821 0.21820188
-0.18543297 -0.22904766 1.7595437
0.43838918 -0.38558567 2.1209548
0.076523602 0.048483871 0.65659165
-0.77471256 -0.25318229 2.2853024
-0.4285261 0.025525276 2.4778111
-0.33545798 -0.23677057 2.5151794
1.630042 -0.29719713 2.2546036
0.14821678 0.02968993 0.21631455
-0.3390919 0.053545617 0.54013467
0.31424665 -0.062716164 0.48448396
-0.52200782 0.047626026 0.88044143
-0.18347991 0.060033061 0.27930999
0.12661159 0.047696188 0.22066808
-0.048969626 0.056723565 0.31980872
1.1501795 -0.0067895204 1.3313444
1.2945739 -0.3725569 1.7272956
-0.52271771 -0.053866528 1.0038874
0.010167003 0.060225897 0.32508492
-1.0589712 -0.21158051 2.2815559
0.58463132 -0.30026242 1.9898417
-0.55218351 -0.048547201 1.5295198
0.70548558 -0.43063694 2.1631243
0.94036913 -0.011094205 1.3446577
0.59934998 -0.29913801 2.1312482
-0.1438396 0.033373319 0.79196525
0.53183424 -0.36375287 2.391906
-0.95918167 -0.55509484 4.2622519
0.49521255 -0.41540167 2.3483417
0.35088706 -0.082118608 0.4773829
-0.61735594 -0.36904001 2.6936004
-0.31750721 -0.35682726 2.2405217
-0.30544156 -0.28133118 2.6743205
0.59388435 -0.43035033 3.9661252
0.11636227 0.041111525 0.36910892
0.11471301 0.022377299 0.26020694
0.16849822 0.036207289 0.21963573
-0.18926418 0.056387752 0.25972962
0.1645965 0.027151691 0.2196157
0.10947162 0.052179866 0.24877858
0.14110374 0.024801079 0.48060203
-0.5219816 0.05260352 1.0006855
0.96778512 -0.035845883 1.3294857
-0.95539212 -0.22686604 1.3098505
1.2767761 -0.33701989 1.7109601
0.0097875595 0.056023933 0.30032182
1.1516951 -0.35149956 1.6846163
0.08879596 0.053768277 0.47132564
-1.0674455 -0.41680065 2.3585222
0.49500096 -0.17964232 2.1169274
-0.90457225 -0.21247068 1.2486484
0.29542512 -0.017020579 0.46495271
0.34718728 -0.057127044 0.47704864
-0.36561656 0.034081534 0.66189313
-0.90732551 -0.21338928 1.2507737
-0.30905038 -0.22882676 2.5239642
0.49678361 -0.41916364 2.3641641
-0.28777969 -0.36314926 2.8823574
0.31818533 -0.10647365 0.49536395
0.32880557 -0.062195368 0.48329043
0.1139943 0.040225502 0.36064649
-0.19216126 0.052481063 0.4025476
0.28011435 0.048479773 0.33000016
-0.18310428 0.049430329 0.54162049
0.21766651 0.047613546 0.27273536
0.13420284 0.031973805 0.22430015
0.11705709 0.036704209 0.22632146
0.51874363 -0.25239974 2.266042
0.085199058 0.039650831 0.85312486
-0.098890781 -0.52168733 3.5054324
0.10653877 0.050331127 0.25557828
0.58847785 -0.3023642 2.009136
-0.16567153 0.05371296 0.58701205
-1.0135373 -0.37583867 2.3144777
-0.19396067 0.050415665 0.49034858
0.31170964 -0.04238601 0.47928977
1.0988988 -0.057493277 1.3195493
-0.17798853 0.054332893 0.57754064
0.32035792 -0.044964753 0.48806119
0.10993701 0.039856702 0.25409532
0.11760205 0.047317319 0.22533727
0.18178678 0.057335131 0.24013829
-0.080865085 0.059011567 0.28469729
0.11704028 0.025508529 0.22622848
0.34405529 -0.063015677 0.48144031
-0.18747157 0.054448359 0.3768661
-0.050144732 0.057014238 0.34103847
-0.96330976 -0.45499787 2.3565948
-0.55237424 -0.052268729 1.5317304
-0.18316704 0.056568295 0.40579152
0.29890084 -0.10752047 0.51257682
0.11337787 0.032820493 0.22868657
-0.10435385 0.058571991 0.33121037
-0.20014685 0.061756879 0.44736266
0.48836994 -0.092333235 1.7748191
-0.75667167 -0.31513441 2.4117529
-0.8481729 -0.26402035 2.2429435
-0.92087173 -0.3583068 2.3378994
1.6435019 -0.29640806 2.2886493
1.0849941 -0.06558463 1.335211
0.30899996 -0.059045181 0.48675132
1.3880283 -0.40132728 1.8558428
-0.29891658 0.031711847 0.67368245
-0.21719098 -0.14860639 2.1758592
-0.21989971 -0.17753693 2.2180521
0.37966144 -0.33223277 2.246341
0.12328196 0.032498978 0.21918273
-0.12253952 0.060678869 0.2567966
0.30257517 -0.10817648 0.51416278
0.31920272 -0.044970594 0.48590255
-0.1834352 0.060256328 0.27964425
-0.19000006 0.06004839 0.28112292
0.25676197 0.049233086 0.2999208
0.4518398 0.04369041 0.61953664
0.98826683 -0.014359817 1.358351
1.0803412 -0.066762082 1.3814638
0.13222641 0.046381034 0.59900069
0.11271435 0.051856559 0.352144
0.4295181 -0.11796639 1.343065
0.034228623 -0.14824167 0.67704368
-0.97297466 -0.19878483 1.2252915
0.14009517 0.019749679 0.21987605
0.15929276 0.031526528 0.21815085
-0.098518193 0.056719057 0.44971204
-0.88874578 -0.21119392 1.206908
0.14908075 0.031531125 0.21744275
0.3363958 -0.10478551 0.47837615
0.13898861 0.024810093 0.2158134
0.27361429 -0.077460691 0.58759475
-0.056571066 0.055042289 0.54763341
0.28936517 -0.090415843 0.49071908
0.11519396 0.025300639 0.22273088
0.15094703 -0.13358718 0.76017928
-1.3046662 -0.39779869 2.3500292
0.33403498 -0.048836283 0.48246551
1.3513707 -0.35074332 1.7056749
0.10573381 0.030223373 0.20439887
0.56827176 0.035971999 0.66607642
0.32645524 -0.046069019 0.56104445
0.53272545 -0.23117414 2.3748128
0.4451623 -0.34150022 2.4148057
0.30585212 -0.033357114 0.56527972
-0.91398776 -0.36031306 3.4910519
-0.89737463 -0.21168393 1.2306631
0.10970783 0.026169129 0.213341
-0.19396013 0.050523952 0.46102881
0.083600044 0.058221631 0.34314418
0.11358631 0.031183591 0.22480416
-0.19814575 0.054513767 0.32971025
0.012335122 0.060169771 0.25011897
-0.00011312962 0.058832683 0.2497313
0.17132765 0.050920904 0.23651576
0.6647346 0.021758307 0.9072144
0.11010128 0.048486207 0.25084805
0.59661806 0.034538649 0.69104886
0.213121 0.058485091 0.25935674
0.26381743 -0.060095444 0.55897355
0.10682768 0.02992834 0.1944139
0.11330664 0.030861676 0.22417092
-0.60247743 -0.053490676 1.0925028
-0.51663315 -0.052955143 0.98969626
-0.18295479 0.055922974 0.41533017
0.1088348 0.040424503 0.25053096
0.080505967 0.056081772 0.3291533
0.10868883 0.052111067 0.32845902
0.10886413 0.039667904 0.25119519
0.28509194 0.047854323 0.34665895
0.12809491 0.02901336 0.2090261
-0.05767411 0.064994827 0.27200341
-1.0846642 -0.20005822 1.3889596
-0.83231282 -0.21321836 1.2341273
-0.39187795 0.060634229 0.63983178
-0.061587691 0.069625929 0.38606191
0.58697855 -0.30753446 2.001579
-0.043253303 0.056149162 0.55917907
0.6037209 -0.34452063 2.0302513
1.0520524 0.028558452 1.3386323
-0.4998455 0.055629227 0.87056565
-0.84963298 -0.25657097 2.1751816
-0.88400877 -0.1835663 1.3925025
-0.49512434 0.052651607 0.71177363
0.65942442 -0.26584664 2.0981786
0.51704025 -0.25292546 2.2515395
-1.2552043 -0.45510778 2.5443451
-1.6177982 -0.48600912 2.887078
0.35051751 -0.068181209 0.47608685
0.49581122 -0.43742725 3.0341222
-0.8909632 -0.14845297 2.2481606
0.65662253 -0.40049484 2.0069463
-0.32181537 -0.38466105 2.4591
0.060225129 -0.18902788 1.9458148
-0.32159913 -0.38169238 2.6350048
-0.0028221011 0.058538951 0.25461555
-0.94468665 -0.24167249 1.2525294
0.4887656 -0.13831493 1.5516074
-1.5265912 -0.4464888 2.6907952
0.11579961 0.030654894 0.20446181
0.072979867 0.057392336 0.26279521
-0.096507132 0.055864885 0.44226432
0.11023837 0.039921172 0.25512671
0.32290626 -0.048040427 0.49501729
-0.19486153 0.059456058 0.4172709
0.12008172 0.031710163 0.21711659
0.11862218 0.024439961 0.22521138
0.010564029 0.058072113 0.32333922
0.30537587 -0.031163581 0.49924731
-0.97609723 -0.16100162 2.4735329
-0.86471808 -0.27271879 1.2774894
0.33277887 -0.0551387 0.46482301
0.31354672 -0.036184937 0.4839375
0.08910054 0.053937219 0.4856627
-0.83596838 -0.26552761 1.2299731
0.17108345 0.042224653 0.22345948
0.12610883 0.0092520118 0.23836684
-0.50190413 0.053864032 1.0650055
-1.3401961 -0.43373385 2.5778053
-0.18312454 0.056909569 0.43003869
1.3524499 -0.39496589 1.7560585
0.11000878 0.052753888 0.25040221
-0.20205903 0.05229491 0.34552026
0.21025997 0.053529713 0.24103761
-0.30223918 -0.14781189 2.5139196
0.13719076 0.023837918 0.21272731
-0.52887917 0.045762498 1.4552648
-0.91285729 -0.1343528 1.1674597
0.15061635 0.017934812 0.22460103
0.11324394 0.022102714 0.25646996
0.28317159 -0.088427 0.47835326
-0.1264475 0.058715653 0.3078053
-0.9290657 -0.10596963 2.2664459
-0.12347269 0.057561904 0.30127835
-0.90148652 -0.28902528 1.2763193
0.56340814 -0.27811787 2.0843856
0.64497268 -0.22749704 1.7897947
0.66429532 -0.24869454 1.8530314
0.564695 0.046111807 0.69065976
0.35315847 -0.24678114 2.6668913
-0.14151394 -0.50618941 3.5189655
-0.22074491 -0.19715253 2.3272297
0.16022563 0.045511514 0.83911347
-0.19889307 0.047368966 0.75160336
0.27581227 0.047962498 0.32590318
0.12694156 0.0093805008 0.24013305
-0.12353086 0.058930606 0.27705884
0.6092906 -0.2367259 2.1141689
0.33156139 -0.056548014 0.48339057
-0.33910781 -0.41629708 2.5904562
0.28766793 -0.042266153 0.49222398
-0.22603893 0.052930418 0.28209567
0.53118026 -0.14223218 2.01914
0.71417522 0.023108456 1.0013936
0.10803968 0.040713295 0.24939322
0.56625211 0.035189547 0.66205287
0.34449744 -0.083229683 0.50428557
0.38290834 -0.020054728 0.70919204
0.10960019 0.021540947 0.24767184
-0.22870815 0.071057245 0.65041947
-0.23543692 0.055628307 0.32575631
-0.11125779 0.12606207 0.89171147
-0.88399673 -0.24896356 1.3100731
0.32799351 -0.079638779 0.4781363
-0.96946132 -0.27227914 1.2072284
1.050667 0.0061247386 1.3635933
0.1273632 0.020808289 0.22290969
0.076238632 0.049164984 0.66692996
-0.11839843 0.061509438 0.27938581
0.34540367 -0.080358446 0.48116612
-0.86024272 -0.38248679 3.9206994
-0.29681498 -0.17760783 2.422672
0.56694543 -0.19319662 2.1204469
-0.10788232 0.060627572 0.34399533
-0.92931116 -0.29860127 1.2868154
-0.11700344 0.060558721 0.27561545
0.11003011 0.054030474 0.26360297
-0.57363927 0.047950406 0.79436946
-0.55202472 -0.22549391 3.0941975
-0.20877522 -0.1877031 2.2019598
-0.21021301 -0.15990537 2.2276647
1.1423352 -0.055884294 1.5087287
0.10816717 0.053617682 0.24907041
-0.89593029 -0.48812997 2.3774579
-0.97361529 -0.45605096 2.3939006
-0.014394104 0.0024478287 0.073539972
0.15184021 -0.15535867 2.1310875
-0.84432518 -0.33510336 2.4898388
0.14849132 0.031588309 0.21604705
0.95137966 -0.076735228 1.3310869
-0.23299491 0.054977898 0.28784394
0.13164628 0.029521035 0.22102141
0.10947937 0.052783757 0.24890828
0.36571527 -0.045486353 0.6968267
0.16662455 0.027236268 0.22240758
0.94324124 -0.074865557 1.3237717
0.095202565 0.058546141 0.26177287
0.1133936 0.022108611 0.25635457
0.44856596 -0.33991879 2.4213626
1.2044193 -0.058697589 1.5999124
0.47337472 -0.13261801 1.4991672
-0.17865795 0.059284814 0.65650964
0.53769624 -0.14206034 2.0453351
-0.90240586 -0.21467155 1.285063
1.461275 -0.30683827 1.6757023
0.31382066 -0.035704248 0.48620963
0.13866752 0.024856571 0.21491456
-0.83576727 -0.44458145 2.2239196
1.1325822 -0.060653888 1.3586514
-0.8830775 -0.13823494 1.1516025
0.15517205 0.030996665 0.21154237
0.036520362 0.058420699 0.2652967
0.58982289 -0.40710196 2.2727087
-0.52574706 0.047946863 0.88585925
0.16642141 0.027478918 0.2231791
0.39757061 -0.10260472 0.53356385
0.13762254 0.031669848 0.22233033
0.9154737 -0.099571235 2.1711853
0.15462476 0.030851847 0.21011806
-0.12280124 0.060996033 0.25821185
-0.14708215 0.069526955 0.32819963
0.12141341 0.084597975 0.50297189
0.13980544 0.025460523 0.21792293
2.4565761 -0.23752171 3.0653932
-0.016016662 0.058316816 0.35796857
-0.17681468 0.055792391 0.52485204
-0.51876128 0.046950795 0.88658118
2.757472 -0.61527503 3.6204307
0.12043262 0.048649326 0.2310822
0.11852312 0.056998424 0.35004306
0.58433855 0.035635676 0.69794774
-0.142537 0.022359977 0.2373817
0.734339 -0.30129397 2.1867654
-0.010194242 0.046628952 0.62671161
-0.57755458 -0.033558033 1.0956223
-0.96196663 -0.24125838 2.1855037
-0.97062063 -0.15727738 1.1916263
0.095031023 0.056682818 0.28976846
0.30553532 -0.031252421 0.49438596
0.18622518 0.009557873 0.32088685
0.082503974 0.054078255 0.39211583
-0.3570106 0.056170814 0.56874824
-0.20953566 0.054953568 0.30108762
-0.080986619 0.074741945 0.39877391
-0.91795146 -0.342392 2.3395126
0.32181478 -0.057483122 0.65206885
0.43928421 -0.069428615 1.4277565
0.11769724 0.022735637 0.35454869
0.12107104 0.037787907 0.36594844
0.25328022 0.0048176609 0.5429666
0.67793667 -0.42127571 2.1968358
1.1312006 -0.072238989 1.3730152
-0.89308333 -0.2325941 1.2985337
-1.0057005 -0.39901578 2.3343613
-0.17724741 0.059013397 0.28209424
0.14486533 0.03044931 0.21413064
0.16616344 0.033633906 0.22113395
0.090049148 0.044078194 0.21314073
-0.050266922 0.058396582 0.33238673
0.31804311 -0.040943787 0.4805758
0.35932398 -0.074965082 1.6375577
0.104976 0.027752822 0.18476224
-0.13638848 0.064373106 0.2962935
1.0841888 -0.077044569 1.2687862
0.20478559 0.018782597 0.56903577
0.91666687 -0.036962934 1.2647874
0.040863931 0.049624391 0.67827487
0.29861856 0.05048364 0.36518216
0.1784476 -0.15725017 0.97127032
0.30571628 -0.045377024 0.4949038
-1.2714638 -0.33367556 2.4434254
0.29111993 -0.091561444 0.49448133
-1.0463824 -0.010819774 1.4993947
-0.45725667 0.071580395 0.81474233
0.12044573 0.02911225 0.21996903
-0.10766393 0.033799935 0.38995767
-0.22896272 -0.18194902 2.3327453
-0.22900063 -0.18049267 2.3184769
-0.30358452 -0.36793697 2.6506636
-0.31025231 -0.40986043 3.2062404
1.0062673 -0.31511036 2.168216
0.57204902 -0.034488864 1.0379317
-0.22975123 -0.32411388 3.8529732
-0.16178131 -0.14282066 3.5523303
-0.34816176 -0.40604734 2.6297476
0.61102378 -0.05048658 2.5562336
0.92053378 -0.16395113 2.0869262
1.8164862 -0.10425625 2.3500936
-0.85648191 -0.44161797 2.4078491
-0.8516978 -0.39795107 2.4337561
-0.93112576 -0.25136963 2.6551063
-1.1597705 -0.40985537 2.4388144
0.60362411 -0.0087737143 1.9158189
0.86339867 -0.0055231154 1.4888499
1.086529 -0.017398961 1.3069069
-0.62506998 -0.36270919 3.3605278
2.3462105 -0.12416149 3.332442
3.7359004 -0.16416663 6.4629698
0.27669895 -0.28555843 4.156229
-0.90626633 -0.357252 2.2530878
4.0512652 -0.16710675 5.7884817
-0.195436 -0.50795257 3.7521632
-0.10330999 -0.5254162 3.5745394
0.28057575 -0.28990623 4.2133102
-0.94424713 -0.27140367 2.2246983
-1.2030505 -0.40139395 2.5468919
1.2157167 -0.017945282 1.5209277
-0.10567474 -0.52645636 3.6163452
-0.96018445 -0.37602124 4.1976061
-1.005834 -0.34792927 2.3035963
-0.17768347 -0.49308592 3.5670221
-0.90960944 -0.26675725 2.3144562
-1.0848578 -0.39071667 2.3188055
-0.4412719 -0.40720445 2.7610357
1.0403972 -0.063211046 1.3270037
-0.77877724 -0.23425043 2.4624016
-0.7847445 -0.25903606 2.3289664
-0.8342644 -0.38907382 2.7698767
-0.84627831 -0.39569238 2.8207285
-0.55855751 -0.065160744 1.492017
0.2552191 -0.048822254 2.3130763
-0.049059033 -0.23486465 3.6904333
1.5335702 -0.64485657 4.3886499
0.94397771 -0.053513564 1.3348529
-0.89982331 -0.47889823 2.3749998
0.090873361 -0.28998861 3.2390859
-0.45483398 0.051525041 0.77000022
0.9767158 -0.2205998 1.29123
0.34615797 -0.063956521 0.47767949
-0.88357735 -0.35532388 3.4611561
0.315166 -0.062337063 0.48387504
1.0531156 -0.27658123 2.1996977
-0.88420987 -0.22765106 1.3098176
0.13332838 0.030278195 0.21939158
-0.88570821 -0.25038463 2.5411389
-0.84477067 -0.42460296 2.4113891
-0.87996995 -0.29270595 2.8560522
-1.0224819 -0.3623772 2.1750848
0.83034313 -0.040171936 1.2683637
0.96484256 -0.038763732 1.328582
-0.84779549 -0.38833207 2.3786342
-1.0085971 -0.358684 2.3797462
1.0719215 -0.063753299 1.3170326
0.27524668 -0.063206218 0.59575248
-0.92933631 -0.34820208 2.3438652
0.97095537 -0.036800571 1.3359177
0.92540598 -0.072309129 1.3111713
0.95719349 -0.27397227 1.7896936
1.0875151 -0.017970506 1.307853
-1.294921 -0.46815974 2.6330993
-0.80138814 -0.56804085 4.2580519
-0.96742678 -0.45708519 2.3643687
-0.97591925 -0.27323881 1.4782021
-1.3403293 -0.43965918 2.58025
-0.9274404 -0.248752 2.2177398
-0.81747901 0.051137667 2.2001445
-0.73630655 -0.014912285 2.189667
-0.33559239 -0.2256805 2.4696081
-1.0122129 -0.35971105 2.3873627
-0.91453433 -0.19681445 2.2275755
-0.84476221 0.021149129 2.1422045
-0.78659582 -0.2457974 2.4814575
-0.82014573 -0.43750337 2.2085483
-0.50965035 0.043255888 0.70241523
-0.54186249 -0.048607595 1.5028403
-0.89236343 -0.13989747 1.1687539
0.11315131 0.047355171 0.38609576
-0.71396327 -0.1526162 3.1883028
-0.84886074 -0.29146317 3.8662851
-0.5925616 -0.35406882 3.217129
0.28908962 -0.042884476 0.49311805
0.15858465 0.030685395 0.21734214
-0.56760395 -0.16685802 3.0905159
1.0710899 -0.063745849 1.3076065
-0.84471762 -0.39385465 2.2156007
1.1048481 -0.03932564 1.2973473
0.34816921 -0.065160178 0.4838388
-0.93076074 -0.26954171 2.2706883
-1.2839453 -0.46700311 2.6115615
-0.31658119 -0.36994359 2.5859315
-1.0469722 -0.43586376 2.3438895
-0.76031148 -0.33972475 2.4408624
-0.92250443 -0.14839524 1.1607521
0.82893908 -0.0067571662 1.1300995
0.27401459 -0.054036088 0.48645282
0.49403584 -0.29298267 2.2879288
-1.2840737 -0.46477711 2.6107271
-0.050772429 0.054369092 0.53470778
1.0450559 -0.21426475 1.9474809
2.3883152 -0.3632715 2.8580854
-0.59520459 -0.26942232 3.2836964
-1.0600902 -0.21918881 2.2507951
-0.86498535 -0.16642383 1.1908834
0.085000396 0.053582743 0.49532962
0.43395782 -0.028329708 0.73711801
0.32141221 -0.065197937 0.72032762
-0.88320684 -0.25889602 2.2478631
-0.18221325 0.0044905953 0.95739675
0.090314448 0.055759918 0.47283006
-0.58227324 -0.34238032 3.1320393
0.1474452 0.030438228 0.21613002
-0.064618349 0.057709079 0.54698396
-0.37119687 -0.42421398 2.6584513
-0.78762162 -0.39782974 2.3984635
-0.78813243 -0.05716265 3.7902677
0.034243286 -0.15529636 0.70544267
0.36502159 0.030588523 0.43847966
0.79009712 -0.22488636 1.5657938
0.71969712 -0.4591797 5.3222609
0.34912288 -0.069316685 0.47544599
-0.85472846 -0.05997961 3.3533623
0.94809449 -0.27213854 1.7689822
0.29630142 -0.088216461 0.47764182
0.32574147 -0.058582552 0.47553325
0.13282013 0.031335987 0.22165656
-0.29220688 0.01577846 0.51625562
-1.2803997 -0.4503119 2.5244234
-0.7838105 -0.3944619 2.389468
0.13944227 0.02477405 0.21713519
0.37904215 0.053330299 0.50353265
0.69353545 -0.42204958 2.1231043
-0.82755983 -0.20180428 2.9899461
-0.55046594 -0.10148489 1.4939334
0.88651919 -0.0085593387 1.2212274
0.17255408 0.050728448 0.23798442
0.11350518 0.05506682 0.35114551
-0.36401308 0.056809854 0.58642602
0.54495633 -0.38640404 2.1245983
0.5740943 -0.41510808 2.1320679
0.11718088 0.04674387 0.40063787
0.12082464 0.031971727 0.21807504
-0.49829376 0.04300458 0.68144298
0.56031001 -0.19152695 2.4232996
-0.68599343 -0.17103013 3.7085903
-0.53305805 -0.075950466 1.8501823
-1.3484362 -0.44795674 2.5711243
-0.95142329 -0.24941343 1.4652746
-0.95236027 -0.47979611 2.3822758
-0.37194842 -0.16456705 2.4334714
0.5549798 -0.38942963 2.151839
-0.18958342 0.058973189 0.41959834
0.34253043 -0.062968098 0.47849488
0.97233331 -0.017717347 1.3335073
-0.37050605 -0.041794159 1.9721429
-0.57122648 -0.1661464 3.1935594
-0.36317599 -0.38009167 3.3270452
-0.4969933 0.05615253 0.87103486
0.52180684 -0.018125381 2.6213653
-0.73879218 -0.099086799 3.5723269
0.63620722 -0.39571258 2.0497057
0.33673424 -0.10519087 0.48013425
1.089362 -0.018788531 1.3119128
-0.86621392 -0.33966908 2.3436306
-0.18909144 0.062453277 0.30316997
-1.2911706 -0.26388693 2.4373777
1.106241 -0.012458406 1.5801642
-0.41472757 -0.39999595 2.6959665
0.34635609 -0.065961413 0.47818685
0.31345481 -0.057845406 0.48627353
-0.12125564 0.040341172 0.95648932
-0.16822267 0.052455492 0.39139533
-0.93013 -0.14209515 1.1771295
0.94258332 -0.30695403 1.746155
0.11512202 0.026066842 0.22336268
-0.77223861 -0.33822045 2.4579399
-1.0097555 -0.27807969 1.2757952
0.090681732 0.055359542 0.46822381
-0.16881263 0.054960869 0.60757232
1.077123 -0.064399607 1.3206513
0.54327297 0.04349114 0.66193938
-0.89590871 -0.15115473 2.2952859
0.11825931 0.04729943 0.22676206
-0.05788666 0.055779897 0.54364657
0.28814429 -0.042698734 0.49261737
1.6487312 -0.16411439 2.1418297
-0.20897108 0.053474642 0.99489427
0.71214366 0.017984029 0.90732265
0.9703052 -0.034700803 1.3318031
0.6952548 -0.49009556 2.1675646
0.31456244 -0.042742305 0.48415399
0.44226086 -0.080227129 1.4386203
0.93352449 -0.072211437 1.247452
0.32647866 -0.031705551 0.53674054
-0.30417639 -0.37788215 2.6511438
-0.2980634 -0.27908847 2.6316226
-0.97216809 -0.45693117 2.3869402
0.55902708 -0.19620532 2.4162734
0.47063005 -0.23788992 2.4600914
0.32875788 -0.062261067 0.48386693
0.13952237 0.024752244 0.21673512
0.13003027 0.050894871 0.67533565
0.32899457 -0.079888232 0.47897267
0.51554966 0.043276206 0.62913299
-0.89983714 -0.2721937 1.3382452
0.27467209 -0.077490844 0.59146953
-1.0675132 -0.30244055 2.2883952
0.45156646 -0.29399213 2.2759078
0.1041171 0.032761633 0.32994819
-0.554335 0.036996789 0.70311427
-0.17008239 0.055120531 0.60635304
0.33117402 -0.048197351 0.47622514
0.038340688 -0.159354 0.68892932
0.32844579 -0.10436561 0.48097825
-0.35897058 0.055417754 0.69448209
