# .PCD v0.7 - Point Cloud Data file format
VERSION 0.7
FIELDS x y z
SIZE 4 4 4
TYPE F F F
COUNT 1 1 1
WIDTH 609
HEIGHT 1
VIEWPOINT 0 0 0 1 0 0 0
POINTS 609
DATA ascii
-0.17905733 -0.18621615 2.6137905
-0.24497858 -0.37192833 2.9111328
-0.1730257 -0.18320236 2.5725722
-0.21975538 -0.38376534 3.128233
0.64593875 -0.021133296 2.0084906
-0.16960457 0.0007744953 1.7400427
-0.2482821 -0.30623385 2.8876576
1.0881442 -0.22466552 2.0136027
-0.85029054 0.0044724867 1.5962338
-0.086389154 -0.14818107 3.8514905
-0.28795537 -0.40778336 2.8683033
0.66545141 -0.052923325 2.781054
1.9628181 -0.081927881 2.8065581
0.11583295 -0.072243631 2.2110329
1.0457299 -0.31870887 1.764462
0.93660069 -0.026415061 1.6944151
-0.22566071 -0.33734614 2.366971
-0.79921007 -0.44406176 2.6708312
1.1257007 -0.28154272 2.0172477
-0.79447961 -0.40012065 2.69595
-0.87711513 -0.077378571 1.3097205
-0.8375268 -0.2448588 2.7760539
-1.1041512 -0.41110948 2.7160096
1.9277889 -0.072708413 2.5945144
-0.83891058 -0.0040115304 1.1946225
0.66104281 -0.015250072 2.2355852
-0.022357434 -0.42977637 3.0916681
0.99619782 -0.079905957 2.3933792
0.65638041 -0.024991449 2.1888776
2.8363824 -0.1512059 4.4561687
1.1196947 -0.023763735 1.5485477
-0.57920671 -0.38666001 3.8596134
0.15136746 0.054159611 0.47840977
0.33489075 -0.066309929 0.74420643
1.0748529 -0.023466501 1.5440025
0.18641368 0.041420806 0.50239849
1.0949861 -0.068740025 1.5381846
-0.82690239 -0.073046222 1.2316508
-0.92415142 -0.40074033 2.4668183
0.36626807 -0.29101175 4.4154792
1.0739529 -0.022817701 1.5475993
-0.98683906 -0.43431938 2.5930057
-0.1175147 -0.52176148 4.1002059
-0.025557846 -0.52545655 3.7909832
1.0771829 -0.023720559 1.5430765
0.37413755 -0.29834047 4.5208821
-0.028323501 -0.5279358 3.8444133
-0.82197773 -0.35798138 4.1855884
1.1542225 -0.024053764 1.531899
-0.94531345 -0.3472372 2.5495358
1.0671092 -0.021977495 1.52634
-0.77426755 -0.41309229 2.6448789
-0.85468817 -0.25241262 2.8672738
-0.86046064 -0.2730715 2.6048498
0.97430897 -0.083174452 1.6048536
-0.36857793 -0.40415794 2.9377427
-0.84462464 -0.020861007 1.2621741
0.27698436 -0.021351442 0.69327354
-0.75910926 -0.24781403 2.8978457
-0.72459054 -0.26063821 2.5679393
-0.76232457 -0.39399981 3.0101032
-0.77504897 0.01783793 2.1915021
-1.0220835 -0.22346905 2.5533953
-1.0996896 -0.40103504 2.6979036
-0.78816819 -0.40239951 3.1177521
-0.51622987 -0.068515256 1.7304382
0.9263581 -0.058991898 1.3378892
-1.1575357 -0.37668946 2.8275795
0.031279117 -0.24283001 4.0076137
-0.85110879 -0.037096839 1.2160716
1.1420649 -0.082562864 1.4830446
-0.84563828 -0.54346734 4.3462782
-0.66969061 -0.0004279241 2.4945173
-0.54331017 0.040220007 1.4133997
-0.4628422 -0.07289806 1.988389
0.98190176 -0.060417678 1.5913825
-1.152364 -0.40167615 2.8460054
-0.84123921 -0.47914323 2.6283774
0.16180256 -0.29557267 3.5044389
0.15520206 0.025183547 0.47071314
0.35983434 -0.069039971 0.72704363
-0.78276932 -0.34863552 3.5954361
-0.90274715 -0.35787815 1.6261539
0.33774009 -0.11812995 0.72956419
0.32844362 -0.067320913 0.73186827
-0.96754849 -0.15077412 1.4407072
0.32399794 -0.046570208 0.7269249
-0.8255527 -0.22411317 1.5190144
0.14327601 0.025364146 0.47837257
-0.86473036 -0.30177107 1.5115719
-0.80431521 -0.24780992 2.7165298
-0.80345201 -0.43539616 2.7328753
-0.78661263 -0.28960684 2.9964561
1.2097572 -0.12554514 2.5409236
-0.16954193 0.055890262 0.4454813
-0.19260845 0.055531032 0.30820203
-0.87516117 -0.55784726 4.5114865
0.077852458 0.051184863 0.38120222
0.34560844 0.025219172 0.73844862
-0.90793777 -0.32279283 1.63236
0.99276757 -0.044753622 1.5607467
-0.78584254 -0.38770121 2.6174345
-0.77870989 0.0089061409 1.2646508
-0.74333477 -0.32253233 2.4339256
-0.74326003 -0.39069921 2.6639571
-0.72149825 -0.20895986 3.2128043
1.0931222 -0.069522783 1.5367393
-0.93705523 -0.35781863 1.5642228
-0.15830639 0.058152169 0.40209246
1.0751948 -0.020255815 1.5406089
-0.84256089 -0.18438527 1.5133915
-0.17627689 0.05229817 0.66226625
-0.84917271 -0.27533767 1.5926394
-0.89558196 -0.36024714 2.6952839
1.0000149 -0.042327952 1.5700517
-0.81403363 -0.07223177 1.2120833
1.2168537 -0.30696687 1.9649935
-0.83820009 -0.37518993 4.1328716
0.15358725 -0.16276079 0.88930893
0.30857989 -0.042846452 0.77878666
-1.252311 -0.47716609 2.9585867
-0.71891201 -0.26171029 3.3074503
-0.70289993 -0.56566375 4.4754243
-0.81662202 -0.38572121 4.2936611
0.18349543 0.043269388 0.49402523
-0.83627784 -0.27098539 1.5422492
-0.91491151 -0.46143585 2.6446066
0.9545536 -0.2009965 1.8633733
-0.91297412 -0.27158022 1.6905813
-1.2434763 -0.42957607 2.7652702
-0.88318682 -0.38600057 2.5089297
-0.89485264 -0.25327501 2.5355568
0.082356125 0.054102041 0.41118813
-0.37007841 0.058249228 0.4986558
-0.73522365 0.045301657 2.353497
-0.81398439 -0.018924952 1.2119265
1.176242 -0.088299453 1.5482607
0.27419111 -0.078067571 0.75623226
-0.8037374 -0.070184499 1.1652894
-0.84860599 -0.074806705 1.2152791
-0.80190563 -0.027673084 1.2229319
0.16460094 0.052636139 0.44574785
0.16389409 0.052494798 0.44527531
1.0975559 -0.17040104 1.9797444
0.29603282 -0.10080788 0.86617327
1.0993357 -0.02168189 1.4988441
0.15402624 0.054060243 0.43685865
-0.79155016 0.017826378 2.4020901
-0.48841158 0.038993824 0.96744108
-1.2164969 -0.44379115 2.9474592
-0.87295794 -0.2548202 1.4983802
-0.78050756 -0.38626626 4.1967168
-0.66799545 -0.19057529 3.4291801
-0.86020827 -0.14285263 1.438673
0.14952967 0.05330012 0.47487307
-0.37212208 0.058871023 0.50607824
-0.19468102 0.05679819 0.26878262
-0.84623766 -0.24543071 1.5039754
0.16247955 0.052578256 0.44308233
1.1077094 -0.25625625 1.984921
-0.1053116 0.053581648 0.5040555
-0.78861666 -0.38962153 4.2323012
-0.92829454 -0.33093506 1.6745663
-0.15690765 0.058037106 0.39911413
-0.8690958 -0.23439854 1.4704061
0.1230199 0.042848654 0.62989044
0.19661745 0.051100362 0.52847815
0.094216794 0.050995015 0.73061657
0.12477443 0.043141078 0.63544607
-0.055056542 0.054387517 0.38963699
-0.75147343 -0.29137293 4.0627422
-0.54854751 -0.38137227 3.7082653
1.1226323 -0.049381431 1.5027966
0.30337462 -0.048057761 0.74482393
0.1673362 0.025154041 0.46940851
0.16816887 0.026228182 0.47280073
-0.46728596 -0.15931445 3.090385
0.32941547 -0.068020821 0.73702574
1.0981518 -0.069340169 1.5383906
-0.95292604 -0.32757953 1.519711
-0.81541514 0.023573793 1.2184191
1.3294386 -0.30325526 2.0282907
-0.10693911 0.055124719 0.52846956
-0.85732508 -0.23436332 1.4884758
0.43672326 -0.082689092 0.52176094
-0.54673576 -0.38833997 3.7630696
-0.11475381 0.056516878 0.39188242
-0.92001081 -0.3391313 1.6317334
-0.19144019 0.055615552 0.30836034
0.075319976 0.056697305 0.27385783
-0.86969674 -0.2703687 2.5142188
-1.2165935 -0.46572933 2.8696222
-0.25950649 -0.37383416 2.8455043
-0.9902283 -0.43734536 2.609633
1.7114855 -0.02030737 2.0053515
-0.031433016 0.048861925 0.78265524
0.30173287 -0.047870744 0.7404995
-0.99093008 -0.3043167 1.4867301
0.22349343 0.051042922 0.28548884
0.39222458 0.028551698 0.74373627
-1.0038091 -0.23504987 1.4284782
0.30386999 -0.10896169 0.7432785
0.21583709 0.05145799 0.53894758
0.34967044 -0.10643931 0.67002916
0.32334837 -0.12076415 0.75740814
-0.98443317 -0.31749809 1.5053439
0.29723862 -0.062567323 0.77496529
0.010389298 0.054458853 0.40054369
0.54214144 -0.29620963 2.5171766
-1.2185049 -0.46535453 2.8739781
0.29847541 -0.10403052 0.85036039
-0.77617955 -0.40805554 2.670361
-0.032583743 0.046985708 0.71676493
0.35327807 -0.064434022 0.71517038
1.3824439 -0.26334199 2.0632281
-0.60820746 -0.093590811 3.3923879
-0.41820231 -0.23141092 2.7618809
-0.05661574 0.055393696 0.39763832
-0.14903739 0.05040678 0.88621521
-0.45216426 -0.24302977 3.006206
-0.98800468 -0.21745101 2.4670415
-0.047943026 0.053531747 0.599576
-0.83702219 -0.17046684 1.4695587
0.080846816 0.053401772 0.38874435
0.12530974 0.015602477 0.6030798
0.2891843 0.042870097 0.57324982
0.44037667 -0.034835901 0.95732403
-0.83511639 -0.26448673 2.5343122
-0.85714459 -0.38061446 4.2340426
0.13166299 0.042661194 0.49670267
-0.97672546 -0.42231798 2.6197419
-0.47279629 0.025959995 2.1354904
-0.53221679 -0.36480787 3.5632429
-1.0309633 -0.23876786 1.47263
-0.82718968 -0.075241357 1.2015557
-0.973212 -0.29951119 1.4599342
0.28950253 0.040658236 0.53408194
-0.4870989 -0.05051792 1.2394066
0.081609935 0.053745829 0.38941193
0.30250326 -0.069147974 0.75454807
0.12402353 0.022014994 0.47913361
0.15589032 0.025486218 0.46794701
0.3071923 -0.044314798 0.7746501
-1.0511904 -0.1832841 1.4347529
-1.1322351 -0.19315645 2.6139822
-1.0879717 0.0066842511 1.5752687
0.16149685 -0.14783438 0.94546318
0.16749671 0.053391237 0.45417213
-0.31453493 -0.42953169 2.9353414
0.29620925 0.043404058 0.58865023
-0.72386336 -0.39633259 2.6283269
2.1596472 -0.33040738 2.7060828
0.33364686 -0.13013108 0.73491669
-0.11578724 0.056866288 0.39343691
-0.15370497 0.018292893 1.1848235
-0.79153061 -0.3343493 2.4610229
0.32502022 -0.13344216 0.72066927
-0.10718974 0.056302052 0.38629341
-0.054552823 0.058542922 0.27879357
-0.9074229 -0.22867221 1.5268407
0.19026646 0.055159979 0.3577714
0.051686198 -0.15600193 0.93248558
-0.84363198 -0.48775062 2.6455936
0.32969293 -0.11577381 0.71203947
-0.50474644 -0.0094038062 2.4567981
-0.96457899 -0.264846 1.4777322
-0.69455671 -0.055321816 3.1925416
-1.2494255 -0.1747252 2.8297682
-0.91771674 0.032327089 1.2448311
0.075061768 0.056694627 0.27431297
0.48614684 0.036297228 0.96384573
-0.11015424 0.055323265 0.52361965
0.14230505 0.054436319 0.49244118
1.533839 -0.2729421 1.9001245
0.15656212 0.054043636 0.45068502
0.15158817 0.053895727 0.48928308
0.64539552 -0.44400552 2.3688769
0.69953108 0.032419305 0.80595446
0.70795691 0.033532869 0.81774521
1.1616409 -0.33828849 1.9679818
-0.90254462 -0.28798613 1.4906578
-0.10397539 0.05392224 0.51633692
-0.1231446 0.054173153 0.50700665
-0.81960094 -0.038832199 1.2030954
0.61819935 -0.34287888 3.9830437
0.047690421 -0.18872774 0.96132421
-0.54561603 -0.0075991042 2.682888
0.36651435 -0.075575814 0.73746729
0.22529659 0.046671923 0.40614843
-1.0132872 -0.21495819 1.5962467
1.1122503 -0.023347385 1.5376906
0.30368337 -0.14452849 0.90390348
-0.66822004 -0.053902056 3.0396571
-0.19837603 0.048376791 0.46164322
0.33630106 -0.11697088 0.72436047
1.0115364 -0.30882785 1.9672675
-0.054290086 0.057781409 0.27356482
-0.97318017 -0.33206576 1.5374207
-0.53626597 -0.38362226 3.7097096
0.33455458 -0.064642996 0.71453428
0.29029295 -0.072729945 0.74509144
-0.74127042 -0.06663236 1.1574235
0.1856114 0.049534645 0.47348356
0.17684868 0.021837585 0.48158503
-0.93039513 -0.3419303 1.5584683
0.18864879 0.055400383 0.29781604
0.2394869 0.035216853 0.38988876
-0.99874032 -0.30967158 1.5199261
1.1827365 -0.29971531 1.9063115
0.29072699 0.039663922 0.41457939
0.34719709 0.031003822 0.75168943
-0.046001881 0.05290097 0.82821608
-1.054361 -0.16821948 1.3922305
0.43766096 0.031977627 0.70888662
-1.0309058 -0.1905544 1.4942737
-0.81583571 -0.078121051 1.2552361
-0.4269059 -0.19663244 2.7600641
-0.86837363 -0.30614004 1.5483346
0.21629426 0.049889766 0.30583096
0.23645791 0.04296872 0.35488677
0.15001318 0.020010449 0.47724104
0.078563899 0.055930957 0.27268744
1.1617557 -0.33866066 1.9708819
0.23337898 0.04503604 0.42081738
-0.18473586 0.059341922 0.36374044
0.72145474 -0.41734257 2.3004575
-0.19241938 0.056920543 0.31857848
-0.81666255 -0.018507369 1.1950307
0.081996888 0.05404475 0.38764572
-0.92562377 -0.30207625 1.4998798
-0.12501326 0.040457163 1.0697865
0.25802651 -0.12335515 2.442328
0.21438894 0.049075544 0.30107093
1.9113175 -0.4189032 2.9329634
-0.19196299 0.056054667 0.28923631
1.5150918 -0.30388069 1.8416586
0.1266717 0.050522402 0.6134758
0.24087778 0.046303682 0.435637
-0.35239789 0.053119563 0.86556244
0.15075687 0.025432864 0.44871521
-0.3791903 -0.025055673 1.4386191
-1.0595264 -0.2463125 1.5187392
0.15538809 -0.16533613 0.91617441
0.59915471 -0.40087551 2.4111843
0.62275922 -0.42256579 2.3871274
-0.058405966 0.05658453 0.40253592
1.2518973 -0.27847201 1.9768782
0.21687844 0.049747221 0.34896421
1.4478819 -0.34653068 2.3699021
0.12709281 0.042455047 0.64060974
0.13060793 0.027130947 0.47587395
-0.48140731 0.039229743 0.9500308
0.21798405 0.050731994 0.35117984
1.5738865 -0.30110565 1.9034123
1.8378557 -0.29710507 2.2528977
0.55957437 -0.1788059 2.4132032
-0.20763782 0.045709893 0.59669924
-0.59111392 -0.17036481 3.8717027
-0.35911819 0.054869838 0.70468187
-0.18577984 0.058571991 0.31143022
1.5142851 -0.28854582 1.8232808
0.23780194 -0.033617523 0.65893555
0.55906832 -0.18189371 2.4134121
0.012134105 0.051937576 0.49665403
0.32496843 -0.055947702 0.72720098
-0.430334 0.06803441 0.59229469
0.14785466 -0.14202869 0.86840248
-0.059609085 0.057636123 0.40601444
-1.0104284 -0.015581489 1.6294627
1.6551415 -0.29356739 2.0681825
-1.0166508 -0.3007409 2.5540791
0.76989949 0.018714674 1.3430529
0.2892333 0.03980694 0.41140223
0.71846342 -0.46368816 2.2947693
-1.2843822 -0.44845358 2.8387456
0.23880348 0.045922954 0.4317646
-1.0347915 -0.23968527 1.4779844
-0.86264884 -0.031441715 1.2002511
0.1477696 0.055324383 0.29572606
1.5220041 -0.2894688 1.831902
-0.849213 -0.2355862 1.6043487
-0.054625839 0.059174195 0.2832067
0.23019585 0.044338323 0.55612135
-0.89057243 -0.47858462 2.6296086
-0.15532586 0.057682708 0.37429333
0.049090594 0.057247475 0.25410295
0.18711314 0.057055775 0.25254822
0.14680251 0.054956883 0.29422379
-0.29523608 -0.15487488 2.472435
-0.78032768 -0.079829395 4.0072298
-0.36527947 0.05824114 0.4945879
0.32880625 -0.13024786 0.74155045
-0.16885582 0.052683994 0.47638845
0.21950957 0.048445974 0.49310923
-0.76179016 0.0028470159 1.1521893
-0.39407292 0.062958255 0.5167098
0.18899938 0.055009451 0.35536766
0.18375513 0.044731475 0.49466181
0.0089358985 0.054605857 0.38869286
1.9250972 -0.28364161 2.4089723
-0.16551265 0.055309385 0.43504381
0.68832171 0.018646628 1.2583919
0.20190439 0.0047740787 0.59094429
0.31752637 0.046580911 0.62859774
-0.33010748 0.049313661 0.92765617
0.34569362 -0.05170862 0.87237787
-0.85376501 -0.25420457 1.5826416
-0.11530098 0.056656741 0.3886404
-0.11627123 0.05142346 0.47811031
1.4007344 -0.40987948 1.9861894
-1.0779248 -0.20077738 1.5661235
0.20718279 0.056294192 0.29641795
-0.19178423 0.053478695 0.3889513
-0.055697292 0.053827323 0.36933231
1.3358196 -0.16672687 2.296761
-0.050631851 0.05627764 0.3949151
-0.15073571 0.053242914 0.30234241
0.14600638 0.050458588 0.43486214
0.32784125 -0.11017361 0.74271822
-1.0649647 -0.19851875 1.5460806
0.048001021 -0.15040886 0.88262653
-0.82109857 -0.036619466 1.2018862
-0.43277404 0.046068512 1.0002065
1.0045896 -0.27153429 1.8906012
0.32262674 0.034748346 0.69531536
0.3553181 0.029731497 0.76914167
0.30616 -0.12356445 0.69054508
0.35214373 -0.067133859 0.71871281
0.12047777 0.052062862 0.50786114
1.4225901 -0.3227911 1.9359655
1.0043677 -0.024284687 1.5742235
-0.39238688 -0.059126776 2.8031583
-0.48589906 -0.16975574 3.3529387
-0.4356775 0.047328539 1.035944
1.1042238 -0.049392018 1.6620936
0.35612991 -0.0024229512 0.77135181
0.34679386 -0.10893966 0.72207069
0.59614503 -0.32638618 2.3661513
-1.0497597 -0.27024516 1.5375209
1.415471 -0.42379889 1.9878106
-1.045318 -0.23139265 1.4886975
-0.83549726 -0.015560109 1.2268848
-0.2244688 0.048788428 0.48031759
-0.1961073 0.050361693 0.50250006
-0.050276369 0.056541391 0.39299297
1.1247033 -0.025299218 1.5553126
-0.80192316 -0.3371318 2.574194
0.35160139 -0.062523022 0.71267653
0.130869 0.023513068 0.51001692
1.4298394 -0.039144542 1.6476612
1.7232275 -0.048220839 2.0625706
-0.19689974 0.063284762 0.64298582
0.24168471 0.046062488 0.36736679
0.32996598 -0.1291976 0.7273612
-1.0709159 -0.19976109 1.4868469
0.025158077 0.054488771 0.53510666
-0.11769941 0.054083783 0.48129606
-0.19644174 0.054187685 0.29170012
-0.065847129 0.061683279 0.26587319
0.21056274 0.055060152 0.24402976
0.23006716 0.051179111 0.27690434
1.176329 -0.23884419 1.9856043
-0.055624217 0.060432553 0.28915071
0.017682225 0.055377599 0.39409685
-0.94084227 -0.16301073 1.4449768
-0.18955711 0.046952091 0.43970203
-0.42137048 0.042874992 1.6221299
1.1334568 -0.38508692 1.9325824
-1.2325264 -0.26513812 2.7116609
0.51072299 -0.091280743 1.8254943
1.0994741 -0.32418427 1.7764745
-0.63549817 0.0042195655 2.6922731
0.46854344 0.036665346 0.93134022
-0.17383721 0.055983379 0.54435205
1.2078618 -0.22949287 1.9358592
0.083475381 0.05540245 0.41160727
0.0098455846 0.054417923 0.39602566
1.0629493 -0.016263485 1.6862159
-0.33531711 -0.38349238 2.7878718
-0.19857106 0.054606702 0.2956965
-0.12016281 0.055531118 0.49386549
0.36317208 -0.071503744 0.73442984
0.22467521 0.049034428 0.39660549
0.5383414 0.029908016 0.8385253
0.32878277 -0.06367667 0.74096632
-0.22735932 0.04626064 0.75002003
0.00059178472 0.055873528 0.30945373
0.13168243 0.019638512 0.49374342
0.017271787 0.054854248 0.39546394
-0.11212358 0.055261392 0.50931454
-1.0624044 -0.21598023 1.4912157
-1.0031155 -0.21302232 1.5784245
0.34769967 -0.040972587 0.8584404
0.94778299 -0.037556138 1.5422134
0.11008176 0.032699578 0.46429348
-0.71885276 -0.28453633 3.904314
-0.19078776 0.054958448 0.43111897
0.12549326 0.021309011 0.48276043
-0.74864244 -0.35826489 2.8554745
-0.98039222 -0.28216079 1.5558295
0.95002174 -0.079022333 1.566493
-0.92894804 -0.46410802 2.6982727
-0.014179081 0.057545234 0.40835714
1.408034 -0.42432916 1.9739275
-0.14742646 0.048646897 0.84185839
1.2785878 -0.22657943 1.9770808
1.1044269 -0.070135459 1.5514321
0.086351842 0.04242304 0.54736328
-0.47867283 -0.30720654 2.4095392
-1.0416064 -0.23019931 1.4827809
0.32543793 -0.12929712 0.73408747
0.016572326 0.053507622 0.3820219
0.81386948 0.015430231 1.2502141
0.4061394 0.030910857 0.79391623
0.15721932 0.033527479 0.65471363
1.136572 -0.38848177 1.9355469
0.96463335 -0.080701858 1.5920153
0.011689276 0.053263322 0.51259899
0.082921654 -0.18128762 1.018785
-0.85111284 -0.15584043 2.5920739
-0.49886438 0.027193349 0.9606204
-0.10005614 0.058988251 0.29208708
-0.89344263 -0.2607815 1.5357218
-0.19214341 0.061374042 0.25535488
0.86756396 0.012634639 1.1879663
0.24440107 0.042728059 0.28318334
-0.14915863 0.059682757 0.38863516
0.13910905 0.053005695 0.37939644
-0.85214543 -0.036040749 1.2183099
1.1678838 -0.35024917 1.9117641
-0.062754363 0.059047244 0.28105593
0.13096848 0.043236759 0.49422598
0.0084354579 0.052436333 0.36888027
1.0819006 -0.087088212 1.6709137
0.027276665 0.055350669 0.52788162
0.15669897 0.056353509 0.41124487
0.073151499 0.056079194 0.27037501
-0.043358713 0.054544382 0.87225103
0.30448666 -0.047623705 0.7490387
1.6759332 -0.16435662 2.3360019
0.17906746 0.02198527 0.4879837
0.072150677 0.05693946 0.23527002
-0.84841156 0.0046629272 1.2059965
1.0720727 -0.35238037 1.7636933
0.32057366 0.016898327 0.78167486
-0.14742753 -0.047253195 0.9994154
0.28936878 -0.0049848817 0.74893999
0.71689045 0.011867661 1.116621
1.2303786 -0.27622834 1.9312673
-0.13221136 0.063839719 0.27367783
0.30923256 -0.082912877 0.72363806
1.4570652 -0.39429691 1.8392091
-0.15171012 0.045874279 0.60206413
0.22620091 0.047894895 0.4395442
0.15789399 0.050106592 0.42258883
0.24576971 0.042901158 0.28504658
0.54400682 0.036770269 0.87567616
1.0422268 -0.35233808 1.7736955
0.075223655 0.057106845 0.27719688
-0.024413854 0.056911103 0.37594223
1.0090431 -0.040916521 1.582046
0.14206687 0.054085381 0.38833618
0.15132084 0.054389369 0.39446354
0.23065969 0.033643849 0.37369728
0.73094308 -0.48704973 2.3661027
0.23958942 0.19062972 0.80263138
-0.27032229 0.041576639 0.52758169
-0.48481807 0.038724933 0.95996523
-0.45295593 0.00050500408 2.7456279
0.068253011 0.045873251 0.32733154
0.7016902 -0.12146042 1.0722919
-0.86299789 -0.25756347 2.4744053
-0.1045284 0.054902788 0.52621508
0.21770886 0.035142656 0.43884802
0.32903293 -0.048193511 0.73506117
0.15626588 -0.16700789 0.92533588
-0.075422138 0.054161787 0.3681798
-0.75783455 -0.26543751 3.4996624
-0.63224316 -0.1081863 3.2276788
0.65702903 -0.45828047 2.4328446
1.7813983 -0.28301331 2.1840601
0.22669491 0.051111579 0.30571246
-1.1705656 -0.44964394 2.7638054
-0.7734313 -0.25694105 2.7523293
0.39083508 0.032249182 0.84992838
0.22361377 0.049507447 0.26876211
0.36661455 0.039119285 0.6196804
-0.49996141 0.0088562146 2.0759406
-0.2005122 0.051907755 0.34545183
-1.2830448 -0.39609149 2.962769
0.3582184 -0.071218252 0.72617674
-0.44711545 0.047184177 1.056767
-0.37823942 0.01464973 0.51210976
0.65485644 -0.052630048 1.0749111
-0.23385659 -0.027773749 2.2580061
1.4661418 -0.41627857 1.8747101
1.178771 -0.34589016 1.9141517
0.83982658 0.011652622 1.144206
0.34466061 -0.064306453 0.73689842
1.4258988 -0.34814447 1.788322
1.1801282 -0.22541738 1.8850398
0.98388147 -0.079889804 1.5196576
0.010872871 0.058087412 0.49610329
0.3786023 -0.042715941 0.88792706
0.30367169 0.029725231 0.67335272
0.0092345774 0.058013089 0.29874301
-0.24248305 -0.3785156 2.8768182
-0.22786292 -0.27064535 2.7391911
-0.71959615 -0.20710385 3.7020493
