# .PCD v0.7 - Point Cloud Data file format
VERSION 0.7
FIELDS x y z
SIZE 4 4 4
TYPE F F F
COUNT 1 1 1
WIDTH 295
HEIGHT 1
VIEWPOINT 0 0 0 1 0 0 0
POINTS 295
DATA ascii
-0.13630369 0.050488032 0.49227828
-0.14657797 0.048511211 0.46001011
1.005381 -0.083194904 1.6966647
0.67704892 -0.13901149 1.5689886
0.99487001 -0.23120768 1.7032441
-0.087189153 0.057740305 0.30926347
0.34771129 -0.16611247 0.73730206
0.28348148 -0.1789798 1.0697784
1.2894588 -0.31528699 2.1027439
-0.16886573 0.048395872 0.80984014
-0.18312238 0.04819062 0.80720288
-0.60545778 0.0066821463 1.175198
0.21399093 -0.17793736 0.82657093
-0.17322262 0.05230841 0.36738741
-0.84222639 -0.11588845 1.6253095
0.17174441 -0.17118342 0.82969564
-0.14825617 0.051519249 0.3672024
0.18300417 -0.18860777 0.8205902
-0.067692816 0.060957018 0.37750369
-0.077534907 0.06302052 0.38535732
-1.192207 -0.087074667 1.6537845
-0.61760306 0.021885684 1.1892287
-0.65365469 0.031942278 0.90338093
-0.2088179 0.040348012 0.48404241
-0.18137629 0.039560575 0.50410068
-0.042569689 0.064914331 0.32890034
0.12617601 -0.1797282 0.93773693
0.24999341 0.052640576 0.94710916
0.14043859 0.059768587 0.53540224
0.077492617 0.060910366 0.51470119
0.29308099 0.051294256 0.53064132
0.2789261 0.05528909 0.56737375
0.53396559 0.036751051 1.3258544
0.41510695 0.027199458 1.4104289
0.36498904 0.014939474 1.3060572
0.2298754 0.061860111 0.54298168
0.62921494 -0.018735075 0.89432782
0.9396466 -0.12745103 1.6639056
0.56832319 0.016014576 0.73354548
0.31016821 0.040561784 0.47366667
-0.17320797 0.052265622 0.36619848
0.40951529 0.047064278 0.56081951
0.34808132 0.043702949 0.48224789
0.35684982 0.046732008 0.49884796
0.21618019 0.058219869 0.51003295
0.31278035 0.028989516 0.43890077
0.35565361 0.046237517 0.49333495
0.3019183 0.036293723 0.46148312
0.22398767 0.061575469 0.53999484
0.27878648 -0.013489757 0.42175466
0.22032259 0.062081125 0.49847114
-0.18491213 -0.063661605 0.46839511
0.3776271 0.043977082 0.51201791
0.31174695 0.053365272 0.56639349
0.16519238 0.063922822 0.30064362
-0.18505412 -0.082728103 0.47479475
-0.099757932 0.056826387 0.27706832
-0.17435762 0.049656812 0.32906044
0.069308825 0.06337864 0.29676574
0.37819207 0.044021249 0.50294054
0.61608046 -0.032377377 0.75242025
0.22314915 0.060544774 0.52853292
0.31713969 0.0396748 0.48850328
0.39278561 0.044481002 0.5276019
0.13852361 0.059525855 0.46226108
-0.63176709 0.028733864 0.93016845
0.22816321 0.052538998 0.72424358
1.0322858 -0.29958197 1.709421
0.40183878 0.041327674 0.8034237
-0.11956546 0.050144944 0.45418626
-0.59473127 0.016377341 1.1872804
-0.64824289 0.02109728 1.2482855
0.14085048 0.060395762 0.47964656
0.2275628 0.058100749 0.62625927
0.17058869 -0.17034233 0.82544225
0.076206952 0.05928655 0.49936903
-0.17979543 0.037564967 0.49923408
-0.099591278 0.078833945 0.4261502
0.2945182 -0.20162205 0.98731798
-0.079203531 0.054387603 0.28647745
0.16789055 -0.14452308 0.76376325
-0.71904039 -0.17813252 1.5077909
0.24116437 0.056030538 0.77439171
-0.070394076 0.055537589 0.45476931
0.29918498 0.025533954 0.48878324
0.22107494 0.061087992 0.65263706
0.40645015 0.042187065 0.81411582
0.1323355 0.056846317 0.48367858
0.076508939 0.059726994 0.49769509
-0.63184631 0.019549323 1.2119451
-0.079974256 0.057740349 0.4928987
0.20232962 0.056769844 0.58817053
0.14217505 0.061465871 0.48133987
0.075103946 0.058858987 0.48202151
0.12771755 -0.15405452 0.84550172
-0.17428079 0.037491571 0.49106461
-0.58624697 -0.0074451696 1.1840762
0.25301975 0.063347183 0.56661361
-0.16750969 0.051052436 0.46132374
0.1705734 -0.1508792 0.83121186
0.13219564 -0.26045734 1.1947712
-0.83562738 -0.11345715 1.6063964
-0.18533099 -0.063038319 0.46918154
0.2733632 -0.20167202 1.1379173
-0.10934203 0.043425202 0.62541938
0.31528032 -0.0090404069 0.45974308
-0.20888774 -0.048471436 0.48681432
0.0725592 0.062398493 0.29578358
-0.87821627 -0.10103326 1.6890405
-0.061600186 0.059702657 0.46532255
0.31740388 0.019680116 0.45989162
-0.817819 -0.20207332 1.4671094
-0.56966799 0.017702637 1.1326972
0.068192296 0.062856831 0.29152894
0.4123143 -0.14393158 0.82029098
-0.094272688 0.052674159 0.55017918
-0.20804572 -0.047902666 0.48489702
-0.063416056 0.049177431 0.52155083
-0.86198181 -0.12284666 1.6362324
-0.21180716 0.056009941 0.26075256
0.30849183 0.051295064 0.56014532
-0.64515257 -0.16298494 1.2021612
-0.57746094 0.016057691 1.2032677
0.32621747 0.039880183 0.46745151
0.15435937 -0.21810737 1.1522728
-0.088878319 0.050125759 0.51757264
-0.58255857 0.018728202 1.1640612
0.41518828 0.043047488 0.83530539
-0.83085686 -0.20617639 1.4953507
0.31648427 0.0050648022 0.46193218
0.14238983 0.061620753 0.49753606
-0.77434653 -0.1739987 1.4204764
0.14409862 -0.13891453 0.91680485
0.31534162 0.045537762 0.46016234
-0.062150083 0.056605686 0.28530568
0.1641164 -0.1550397 0.81159347
0.31861621 0.034952264 0.45436358
0.12636589 0.061683293 0.27302516
0.19326365 -0.18292406 0.84225887
0.22947991 0.056758434 0.50371081
0.7732389 -0.17470643 1.5748086
-0.06897483 0.063209996 0.31370938
0.30812889 0.01735162 0.43447775
-0.12771495 0.053397022 0.49172556
0.35923561 -0.15811177 0.79781932
-0.74594939 -0.17481703 1.4730582
-0.13450323 0.048999332 0.47993112
-0.16121991 0.043891672 0.91996902
-0.59093553 -0.0017329596 1.2751744
0.073308408 -0.24399041 1.1938754
0.44765958 0.047504213 0.53462541
-0.26859975 0.050322019 0.36350399
0.13173859 -0.25566646 1.1723363
0.23810513 -0.27444607 1.6771485
-0.1474008 -0.080719583 0.48732346
-0.17865711 -0.083144188 0.83777136
0.62396455 -0.027745755 0.80033892
0.080399379 0.053837337 0.71418595
-0.17652963 0.035776459 0.48820305
-0.16307297 0.056666426 0.33933955
0.42339694 0.042359136 0.85238212
0.096226849 0.062742583 0.33863878
-0.13188525 0.047415808 0.7576775
0.12837502 0.062452633 0.27946478
0.63860518 -0.019006828 0.90925342
-0.086429656 0.067286327 0.40155518
-0.20601964 0.039144412 0.47358382
-0.060664557 0.058994547 0.45338529
-0.1707641 -0.083560973 0.84943622
-0.077214956 0.057914171 0.62015277
0.39331383 -0.10060573 0.94342202
0.22556558 -0.24969332 1.3033115
-0.069146529 0.056478072 0.40418464
0.080385692 0.064406089 0.45582932
-0.088519923 0.055627853 0.27898186
-0.067258485 0.060697693 0.43300426
-0.68198794 -0.14764063 1.4161738
0.28344747 -0.18574505 1.0972352
-0.072736926 0.053717881 0.55284721
0.39390323 -0.14465287 0.85497314
-0.21446326 0.023354489 0.95182544
-0.18548074 0.038946543 0.52298135
-0.21866468 0.023491131 0.94606358
-0.77809143 -0.19362152 1.3998821
0.12107543 -0.23085272 1.258305
-0.72466034 -0.17168452 1.421123
-0.17233263 0.045585249 0.75529689
0.30705982 0.047863875 0.49534339
0.13894475 0.061763208 0.32667309
0.36736619 -0.13501135 0.79168195
0.13487458 0.058029514 0.493837
-0.057362866 0.056591157 0.41443276
0.31218442 -0.0132905 0.46460158
0.18660492 -0.13438195 1.0025916
0.30167595 -0.19712532 1.1705732
-0.73578 -0.18475361 1.3256105
-0.77231735 -0.21559869 1.3859445
-0.8093937 -0.075388603 1.6570506
3.021625 -0.58062482 4.1215682
0.23437828 0.05476211 0.747518
0.24084601 0.021579528 0.38551348
0.36463609 0.033830613 1.1230446
-0.089645848 0.05653812 0.28413385
0.47705874 -0.14934957 1.4202385
0.38491672 -0.14229991 0.83331662
-0.17195202 -0.084852688 0.86441416
0.013827248 -0.24065849 1.3276851
-0.80989075 -0.1488971 1.5310615
2.6593065 -0.50619632 3.5870693
-1.0344088 -0.09160082 2.1526937
-0.17324458 0.034981906 0.75085586
0.17621565 -0.1238616 0.93006808
0.07429938 0.064048804 0.30157399
-0.083070979 0.055131581 0.28298563
0.48734021 -0.038388986 1.5968835
-0.076706208 0.061468203 0.3334859
-0.057254303 0.057910055 0.71750855
0.36534032 0.018670956 1.5098597
0.21898876 0.059601985 0.52534342
2.573977 -0.48371077 3.7344415
0.11579141 -0.27099818 1.2877151
-0.11059363 0.071819566 0.41392165
1.0167851 -0.23663862 1.7417115
-0.011705539 -0.23239763 1.2325852
-0.22343042 0.042609654 0.51682383
0.38402459 -0.18635675 1.1349339
0.36154038 -0.038851313 0.51779562
0.11019787 -0.21276069 1.3170631
-0.0045603835 0.061461516 0.45405668
-0.17627837 0.03789917 0.48834479
0.77884501 -0.13435863 1.6580987
-0.58162528 -0.0066386024 1.1740443
0.084760875 -0.20947079 1.1932068
0.22297858 -0.21582611 1.5289928
-0.17520961 0.053422 0.37426615
-0.18664959 0.050760962 0.25221729
0.31045851 0.0061107343 0.45092607
0.12338857 -0.17580545 0.91112524
0.22987068 0.058263876 0.31625819
0.30728468 0.044687212 0.4448356
0.95570326 -0.17715466 1.6974815
0.07587643 0.061569408 0.42458111
0.39354816 -0.16075554 1.6878269
0.043708459 0.07646586 0.69346362
0.52506953 -0.050155602 1.9770033
0.36237335 -0.16184177 1.7672167
0.37443408 -0.18063098 1.1026132
0.11960768 -0.23110221 1.2538389
-0.55556804 -0.0033248144 1.1910348
-0.6336416 0.02928016 0.93044943
0.45628038 0.042721391 0.80160004
0.33164242 0.030382244 0.51345289
-0.43582126 0.059816387 0.62636548
-0.14584465 0.051286638 0.36358637
1.5956769 -0.28595084 1.8683674
0.37535414 -0.16535804 0.73917395
0.31325209 0.039895996 0.48044544
0.13099775 0.063935906 0.28852338
0.27365214 -0.19310792 1.0283871
-0.0079198731 0.06115412 0.60992932
-0.14608517 0.055115256 0.35341358
0.20440337 0.063768491 0.29562867
-0.22741124 0.051166616 0.77183539
-0.72299659 -0.17897038 1.5197577
-0.65618408 0.044299908 0.90487403
-0.59169543 0.016891276 1.1834037
0.10488917 -0.19766976 1.2246478
0.96292859 -0.13075502 1.7114348
-0.061955132 0.056991972 0.33825159
-0.068833731 0.062889338 0.31826448
0.084546447 -0.22120765 1.27781
0.56682193 -0.17457336 1.7394787
0.28025153 0.023889074 0.42403811
-0.096213832 0.05284569 0.46715844
-0.72860986 -0.18306993 1.5077211
0.2423359 0.050340246 0.50164741
-0.22820275 0.043010101 0.53129399
0.86231005 -0.26664746 1.571939
-0.19748048 -0.073934831 0.93223101
0.25969189 0.052974593 0.91081721
-0.71199203 -0.24942063 1.2789683
0.20810241 -0.13958922 0.96013969
-0.20407785 -0.041040901 0.48510903
-0.070134491 0.058072742 0.43619138
0.4231171 -0.13359003 0.96793121
0.07215035 0.062198762 0.29102015
-0.071238972 0.051985048 0.44635814
-0.1628558 0.043558247 0.92803997
-0.19507577 0.020041909 0.84645003
-0.075622559 0.060803946 0.39058316
0.43381131 -0.16864319 1.8565795
0.088681147 0.050686944 0.92048389
0.013740535 -0.23275091 1.278244
0.38670188 0.040044628 0.77272075
0.29129353 -0.014518918 0.43271798
