# .PCD v0.7 - Point Cloud Data file format
VERSION 0.7
FIELDS x y z
SIZE 4 4 4
TYPE F F F
COUNT 1 1 1
WIDTH 572
HEIGHT 1
VIEWPOINT 0 0 0 1 0 0 0
POINTS 572
DATA ascii
1.9911714 -0.094558291 2.7800505
2.0858788 0.38123465 2.9037015
-0.11356276 -0.18353616 3.0319922
-0.17032707 -0.36417842 3.2664716
-0.10982817 -0.18148948 3.0173609
-0.18020362 -0.30393624 3.3135078
1.01529 -0.24400695 2.8277586
0.060340822 -0.052366346 1.5264823
0.63903004 -0.045838699 1.6712673
0.63994151 -0.045002759 1.6844757
0.0077057481 -0.14269884 4.3302526
-0.21473211 -0.40055287 3.2369821
-0.22734445 -0.41931415 3.4315917
1.0620303 -0.17852943 2.8402641
-0.77189249 -0.46167678 2.9964974
2.0070431 -0.089488238 3.0919359
1.2429481 -0.23586448 3.0022123
1.0766654 -0.29559577 2.830137
-0.79056352 -0.066891551 1.6308715
-0.72470289 -0.43132132 3.0337732
0.85773224 -0.23930119 1.6886618
1.1308813 -0.08516565 1.534869
1.1080887 -0.26579088 1.868706
-0.7310794 -0.3947916 3.1260841
0.17044353 0.020676114 0.89967895
0.16660768 0.048943929 0.83669305
-1.03929 -0.40279591 3.1431372
0.17499781 -0.13942698 0.72434497
-0.8005082 0.00013842061 1.5917041
1.546505 -0.066349819 2.1071866
0.73396868 -0.01838132 2.6823061
0.044587314 -0.34467006 2.729213
1.1679809 -0.093368165 2.9119623
0.29877394 -0.10138215 1.1381571
1.5227184 -0.07162381 2.04898
1.7273023 -0.074643686 2.2682741
0.16580409 0.020971254 0.88472724
0.21907771 0.045758627 0.48343658
0.31174678 -0.10023142 1.2176602
3.2090466 -0.1757867 5.3020887
-0.78856796 -0.034591496 1.4172165
-0.88149601 -0.037794873 1.6913974
1.9349349 -0.080490917 2.6901262
0.36235815 -0.06497775 1.1393664
0.17294776 -0.15152356 1.095176
-0.47571802 -0.37307131 4.1900225
0.16900957 0.049360555 0.85849452
0.36277473 -0.072754964 1.1459706
0.089402497 0.05333145 0.64814115
0.36982036 -0.014295533 1.0148365
0.1917454 -0.15473272 0.72053003
0.3581264 -0.068624318 1.1242416
-0.036051393 0.050622389 0.82273698
0.72093803 0.031785242 0.89827704
0.73229486 0.024889648 1.1881788
1.0437543 -0.026468311 1.9453948
-0.011844277 0.050157435 1.3353355
-0.79116672 -0.069791973 1.6384542
2.2518713 -0.72578514 4.2628517
0.33092719 0.029459398 0.72081065
-0.84553462 -0.38254231 2.8047817
0.86813289 -0.022210356 1.5910356
0.47494191 -0.28513563 4.8073835
1.1305926 -0.03035491 1.9451168
-0.76053661 -0.44062841 3.1491106
-0.90156692 -0.41519922 2.9244282
-0.018359959 -0.52276313 4.5840569
0.19256622 -0.14601968 0.73358035
0.42457652 -0.12380122 0.73926568
0.37466806 -0.073131539 1.1131141
1.1531796 -0.080463707 2.0302489
0.066804945 -0.52652687 4.2454062
0.48620838 -0.29338783 4.9263172
0.34462017 -0.014228392 1.2759078
-0.83174723 -0.26950169 2.9193685
-1.0565045 -0.38646156 3.1783907
0.063941419 -0.52557552 4.2662315
-0.57050747 -0.275096 3.4786174
1.2031205 -0.030941654 1.9085877
-0.80547279 -0.20896463 1.9754493
-0.86357981 -0.33092815 2.8898952
0.7513575 0.029550191 1.0607698
1.1231022 -0.030441906 1.9215791
1.1762199 -0.067823693 1.953624
0.32921445 -0.11460733 1.1370709
0.16640717 0.055598717 0.32918596
-0.0067479014 -0.48900568 4.1949587
0.09090215 0.054213442 0.6508615
-0.94480199 -0.39823282 2.9655936
-0.77013034 -0.06196133 1.5665448
0.32268256 -0.13086899 1.1418293
-0.99649233 -0.29960209 2.9419219
-0.26114732 -0.36706537 2.9681361
-0.75059539 -0.37729341 1.8514659
-0.58369857 -0.13299306 0.7530067
0.22012573 0.046795182 0.48529506
-0.78048092 -0.014163069 1.5940683
1.1188085 -0.076780215 1.9407542
0.2919215 -0.024809673 1.0425942
-0.70722264 -0.24747322 3.4151785
-0.83313471 -0.31717682 2.2229731
-0.64731878 -0.24952693 2.9096715
-0.77192014 -0.32921863 2.8697145
-0.73692793 -0.42118293 3.7203662
-0.53674233 -0.17308655 0.85490394
-0.95009798 -0.21327707 2.9407074
-0.73781723 -0.37510252 1.876106
-0.99959606 -0.37576514 2.9961884
-0.72280198 -0.40368164 3.6008523
-0.4488191 -0.062606879 2.0096414
-0.18370068 0.060157303 0.41543031
0.71402729 -0.13187987 1.0110881
0.4021259 -0.064296074 1.5250213
0.14911133 0.056253776 0.33482265
-0.87396044 -0.39010197 2.9563453
0.21971714 0.0472828 0.48083687
0.39025193 0.01685898 1.1733258
0.34552699 -0.050170466 1.1168749
-1.0535161 -0.35536283 3.1302574
-0.74024409 -0.37041146 1.8142941
1.4198308 -0.033733647 1.9869998
-0.94436365 -0.20715186 2.9220178
1.4112139 -0.032005399 1.9747446
0.12649089 -0.23276491 4.3209019
-0.81231672 -0.033126172 1.6163642
-0.79999655 0.022349425 1.5942342
1.3964324 -0.033855032 1.9469626
1.2026274 -0.090921015 1.8846734
1.0335875 -0.038882926 2.0678756
-0.79126602 -0.24594139 2.832628
0.32228267 -0.11846286 0.62452316
0.43786699 -0.16467021 0.83138537
-0.5220046 0.065560877 0.88051534
-0.66378111 -0.47653216 4.2007561
-0.40524274 -0.068526559 2.3534462
-0.84541112 -0.34913957 1.9883955
-1.069591 -0.38380188 3.2165501
-0.75322539 -0.4581849 2.9378879
0.24939102 -0.29336512 3.9182365
0.3583864 0.041019537 0.53537989
-0.19930142 0.052314714 0.54498672
-0.80646569 0.021000233 1.6109021
0.21485788 0.050805513 0.26008964
0.35793775 0.041155074 0.53386378
1.4540031 -0.045293875 1.93033
0.43690127 -0.16642028 0.8253696
0.15046841 0.020126499 0.90889716
0.32224482 0.022521283 0.73958039
-0.20251638 0.053099647 0.45473623
-0.18343216 0.051934648 0.41207504
0.38470453 -0.074624106 1.1148665
0.098413408 0.045974016 0.82248855
0.099119246 0.044212639 0.83611274
-0.85361105 -0.36469549 2.643657
-0.44495535 0.056082457 0.71842527
-0.47068435 -0.16482131 0.79463601
1.0258617 -0.025723506 1.9197071
0.2349394 -0.019278504 1.1733949
-0.66024774 -0.32226539 3.7780631
0.7172814 0.032256797 0.88993049
-0.84997433 -0.34914815 2.0089738
0.36272329 -0.12396409 1.1197121
-0.76147455 0.022684872 1.5030077
-0.19155782 0.056582458 0.4108994
0.32900405 0.029070627 0.71346855
0.35356998 -0.072936073 1.1210115
-0.92350942 -0.14537081 1.8420713
0.42686099 -0.11389105 0.82116771
-0.061684936 0.058782026 0.34185839
1.1951559 -0.29338324 2.8912928
-0.052420557 0.056179941 0.41706467
-0.77731341 -0.21936996 1.9075716
0.16858989 -0.18995456 1.3256676
-0.93529195 0.014239043 2.1625583
-0.7495138 -0.37756735 1.8486707
0.16828227 0.021484744 0.91222167
-0.81809646 -0.29783827 1.906563
-0.78127879 -0.45450181 3.3582652
-0.67905945 -0.27305681 3.2322152
-0.79270834 -0.069659568 1.6308458
-0.50793535 0.05615779 0.66799045
-0.49358594 0.050246634 0.86458325
-0.078087747 0.058801919 0.29964805
-0.20597076 0.055448085 0.40982389
0.17589808 0.02084665 0.87051511
0.33126962 0.011384677 1.2541945
0.31947297 0.022139411 0.72922039
0.088089228 0.054826513 0.59753799
-0.80955428 -0.026339557 1.665715
-0.6743291 -0.25937247 3.1192544
-0.79937726 -0.25096941 2.8204057
-0.10073093 0.058891423 0.37125611
-0.15101105 0.052343283 0.82835698
0.40921372 0.028610643 1.6129024
-0.17625231 0.051689424 0.69364285
-0.041277736 0.051871501 0.61664915
-0.74360317 -0.52762783 4.7547531
-0.85694903 -0.41061145 2.9075143
0.43538696 -0.16611387 0.82067227
0.42343831 0.038074069 0.8170011
0.093595028 0.045792788 0.76062465
0.4248811 0.037850201 0.82243657
-0.992091 -0.03375395 1.3431051
-0.22005278 0.049922701 0.61476779
0.36633265 0.035457302 0.58633351
-0.20278978 0.051930502 0.45664883
0.36940491 0.041993584 0.5553453
0.086477041 0.053592332 0.57466292
1.0527229 -0.070976175 1.9630306
-0.81483787 -0.03416691 1.621907
0.38014096 -0.010893635 1.1020305
-0.050535858 0.054782275 0.40352988
-0.76241511 -0.020538427 1.5719202
-0.10795945 0.052836888 0.9419148
-0.84861284 -0.3124159 1.9954636
1.0406024 -0.052114174 1.9400761
-0.050740004 0.055012092 0.58836675
1.1762061 -0.031801075 1.932986
-0.55609185 0.0087716207 2.4104621
-0.72236437 -0.3818332 3.038214
0.34266853 -0.12466329 1.1389062
-0.86518949 -0.13561864 1.8354623
0.14820957 0.01836589 0.91514087
-0.47242731 -0.15926175 0.79721475
-0.23691833 -0.00451985 1.7426093
-0.49132735 0.046485797 2.3340247
0.54758555 -0.12936275 0.84475493
-0.56054318 -0.17491223 3.1044905
-0.44030517 -0.15241627 2.9759986
-0.96682304 -0.0072294846 1.2342722
0.32147402 -0.12921119 0.73427606
-0.23291034 0.055206731 0.41772723
0.073430598 0.057109013 0.32583547
0.75783259 0.026474033 1.234205
0.222395 0.045441024 0.94313836
-0.87192339 -0.34837669 3.0065854
-0.85142046 -0.13240488 1.7938578
1.093251 -0.073844552 1.8265703
-0.34208077 0.055444472 0.86368346
-0.57487482 -0.26136559 3.7370288
-0.83377534 -0.25137556 1.9106867
-0.6451661 -0.14806066 0.96283603
-0.86030883 -0.33883202 1.8879879
-0.21710253 0.04684633 1.1269357
0.34263831 0.021662585 0.73284674
-0.14110774 0.054517604 0.79388213
-0.60186189 -0.046181142 3.4426811
1.1215792 -0.028108329 1.9148586
-0.14867669 0.048532672 1.0167558
-0.49624044 -0.29894805 1.8872778
0.64402872 -0.021098174 1.2720988
-0.83298725 -0.28456384 2.0743868
1.1055439 -0.076251142 1.917527
-0.55149943 -0.10914084 0.89541841
-0.79813832 -0.33978242 2.9736998
1.0451646 -0.0494451 1.9435852
-0.17656457 0.057038561 0.58854246
0.21799129 -0.1617202 0.73781323
1.0468056 -0.28447086 2.3922293
-0.81299633 -0.15108065 1.8194773
0.35542476 0.020908497 0.74134564
0.94443601 0.011821955 1.8293016
0.33478236 -0.16749574 0.82931447
0.31214553 -0.0091191307 0.91419816
-0.76757592 -0.068285428 1.5919678
0.17550617 0.050198168 0.9024322
-0.026971757 0.056955274 0.32383871
-0.50527292 -0.16352546 0.80027652
0.99550158 -0.061279178 1.8164275
-0.59091586 -0.2722823 3.8617308
1.2521029 -0.30742121 2.2956035
-0.53946525 -0.1750121 0.80717874
1.1711454 -0.032278605 1.9295666
-0.730097 -0.35888195 4.4853287
-0.81098992 -0.46074587 2.9805267
-0.40439099 0.056082342 0.84071183
0.03122437 0.049625538 0.82209468
0.21180815 0.055341974 0.33272648
-0.0057721138 0.059420396 0.3513813
-0.17211789 0.048282713 0.5821538
-0.77644581 -0.14671502 2.9303815
0.41606212 0.036822848 0.80135703
0.47338945 -0.14109221 0.8036983
0.32659721 -0.13064602 0.74882102
-0.19979769 0.053471699 0.54851222
0.34483093 -0.049580649 1.2067912
-0.14559591 0.054864686 0.79983926
0.16217971 -0.14437266 0.71726108
1.8916194 -0.067105219 2.7165186
1.7653146 -0.40238482 2.2794187
-1.0784771 -0.42245322 3.0671618
0.21171069 0.055244841 0.3331058
-0.59329689 -0.23659767 3.4282644
-0.54828298 -0.50955087 4.4507093
-0.6027208 -0.3155967 3.9049642
-0.60444814 0.025059365 2.4230368
-0.85457379 -0.13232042 1.8014143
-0.23180658 0.054668859 0.41447377
-0.3481074 0.055705085 0.88621068
-0.70677322 0.01777301 1.8048451
-0.54577231 -0.50294775 4.3800192
-0.99392325 -0.034879748 1.3450358
1.048171 -0.022801675 1.9928124
-0.76514417 -0.02188329 1.569658
-0.051549971 0.056647137 0.43100595
1.0882659 -0.026295613 1.8527157
-0.061234266 0.057882234 0.33049464
-0.78170913 -0.26195431 1.9142826
-0.84649509 -0.45163393 3.0431926
-1.0257847 -0.15259477 1.4377515
-0.37863296 0.064087175 0.45893312
0.32349843 -0.13266332 0.83868432
-0.64076024 0.0036950335 2.5050585
0.1330421 0.056181118 0.34753823
0.17532992 -0.15346183 0.72046399
-0.027832448 0.057132438 0.32623339
-0.26328772 0.076452494 1.0086539
-0.11542708 0.062112857 0.26872969
0.17829114 0.057997931 0.25284791
2.6316833 -0.58971703 4.8155289
0.072740316 0.054887667 0.31191111
-0.86690134 -0.26560992 2.0988028
1.778393 -0.40407699 2.2990892
0.22335166 0.047022916 0.94181275
1.9403846 -0.11880462 2.5020974
-0.80428141 -0.28757906 2.146414
-0.18430907 0.060391061 0.41622424
1.4704385 -0.052301347 1.8251679
0.10218865 0.050689943 0.82756734
-0.34953701 0.057164416 0.77305865
0.16724658 0.055953048 0.32908964
0.19202775 0.041827023 0.41552806
0.17497462 -0.13261959 0.70839477
0.18124503 0.038322382 0.78587747
-0.47763753 0.060294043 0.82918668
-0.3427422 0.055015005 0.87278628
-0.029153824 0.059503596 0.34390378
0.071731985 0.054712608 0.32237649
-0.098662078 0.054097131 0.93973804
0.45937246 -0.15121156 0.79695439
-0.09740147 0.057463828 0.35148168
1.2413654 -0.099093959 1.9565771
1.7655711 -0.061999939 2.3932683
-0.75138837 -0.13375263 1.5940068
1.7184956 -0.069527462 2.2522657
1.8190651 -0.35360903 2.1611865
-0.85245103 -0.34216589 2.9321735
1.4926412 -0.069781244 1.853472
-0.48641676 0.062437676 0.66700578
0.074391901 0.056657195 0.33282471
0.20982313 0.054864757 0.32954788
1.1332409 -0.077666298 1.8953884
-0.05344069 0.059662398 0.46390033
-0.65737861 -0.15727101 3.0371892
-0.82406515 -0.13987097 1.8530657
0.16831154 0.056513276 0.33530879
-1.0086215 -0.30646402 2.9723074
-0.46571732 0.042121172 2.518204
-0.22739047 0.047811598 1.1749146
-0.055365771 0.059861671 0.33844423
0.02870959 0.049454011 0.79227138
-0.77091914 -0.068597272 1.5726874
0.15979683 -0.1430269 0.70718098
0.31797439 -0.16367087 0.8699429
0.32342499 -0.16814567 0.89632773
0.46087533 -0.14082754 0.6026597
-0.82533044 -0.073083855 1.6475856
-0.74528867 -0.37405723 1.8311913
0.22026449 0.047890149 0.47858953
-0.3385005 0.055736586 0.74509788
-0.10474014 0.059822544 0.30242705
-0.88853949 -0.38188887 2.0151503
0.21725994 0.052171677 0.26521301
1.1001177 -0.22363599 2.2203276
0.17056489 0.057850305 0.24907064
-0.49711651 0.057073146 0.63365841
-0.090629101 0.061918695 0.29701757
-0.11056215 0.058327906 0.37471414
1.1184611 -0.252186 2.2697933
-0.77550679 -0.022556428 1.6524532
-0.24111032 0.054833576 0.37671304
-0.19917089 0.053984933 0.44851089
0.17076015 0.04493406 0.77295089
0.051297903 0.056335032 0.31516933
-1.0205696 -0.13946596 1.3211844
-1.0266485 -0.015525606 1.3884947
1.7794065 -0.050687216 2.1149328
-0.76776105 -0.019403569 1.6366913
0.22042888 0.051288135 0.26335692
0.17289263 0.045253605 0.78525567
-0.82422668 -0.20216934 2.0570734
-0.90080553 -0.32541263 1.9131324
1.6165159 -0.054412797 2.2270858
-0.062014967 0.058523595 0.33373213
0.22478473 0.046701472 0.33955455
-0.55633098 -0.16320123 0.73106551
-1.0278041 -0.13940884 1.3308713
0.31156075 -0.12472419 0.66651344
0.44591868 -0.14442262 0.75007892
-0.72420639 -0.42875713 2.7738993
1.8245041 -0.057343498 2.1720579
0.078775048 0.056012269 0.44308138
-0.23680955 0.053989429 0.36834383
-0.48429519 -0.15359962 0.85243678
-0.4869408 -0.12708342 0.82293963
-0.53503567 -0.1201977 0.82802272
0.26404464 -0.004912734 1.0175831
-0.07487309 0.056180578 0.28523278
-0.48945409 -0.13625903 0.83881116
0.30982077 -0.10358949 1.1982491
-0.10319209 0.05594372 0.85459971
-0.52542412 -0.13566391 0.7356174
1.1588333 -0.033604454 1.8978236
0.18267363 0.053618819 0.90150571
-0.49353927 -0.15980999 0.858217
0.079289138 -0.16219416 1.3363078
0.067444444 0.053437211 0.30799413
-0.70107824 0.023556918 2.6913154
-0.77266186 -0.0192619 1.6452281
-0.65936893 -0.23801295 3.1362579
-0.69909459 0.021141749 1.442445
-0.34627789 0.056159139 0.80895734
0.86336869 0.025992978 1.2291486
0.069099009 0.052634098 0.30940485
1.8633561 -0.36208504 2.2156551
0.40418148 -0.098839559 0.57088232
1.1633399 -0.027237281 1.8530805
1.7374682 -0.07563173 2.5170619
0.077335179 0.055117346 0.42817521
-0.53658372 -0.1131428 0.8227818
0.80430448 0.036599733 1.0211432
-0.0413872 0.053373877 0.65535474
-0.44680578 -0.048580378 2.0985882
1.0478907 -0.025215428 1.6656697
-0.61310059 0.0061929226 2.9351137
0.15721506 0.055230629 0.50583529
2.0957263 -0.11426082 2.6233857
-0.1103583 0.062937036 0.44442892
0.21570748 -0.15909007 0.72341537
-0.19349033 0.051490087 0.37090254
0.090313137 -0.20330465 1.6026685
-0.17875612 0.058951594 0.40450454
0.32289082 -0.15743002 0.76086068
0.30178702 -0.13764553 1.1843302
1.9680622 -0.4177382 2.301975
-1.1112351 -0.42191261 3.2599599
-0.049750656 0.052936971 0.55499339
-0.8076759 -0.24260114 1.8463309
0.31047928 -0.12659854 0.80365443
-0.6154055 0.01093258 2.7205288
0.51215762 -0.13919343 0.77726197
-0.6195572 -0.3416912 4.1652689
-0.17780918 -0.34207338 2.9897492
-0.5658291 -0.17611371 3.7059543
0.085914195 0.053521384 0.55983019
0.2180782 0.048380259 0.38716078
-0.49650842 0.063193783 0.81074309
-0.10420781 0.061690759 0.27123952
-0.49889553 0.064213797 0.74413085
0.24609643 0.044602938 0.38432002
0.23330659 0.048399732 0.36647224
0.34922725 0.035024479 0.87511659
0.22318536 0.044970669 0.59248495
0.17770612 0.052734725 0.40795493
0.36601996 0.036020312 0.58606696
-0.35851103 0.060491208 0.54297328
-0.46704245 0.060599629 0.63942027
-0.19641477 0.052973986 0.38735461
0.2982887 -0.12484036 0.60555315
0.34404576 -0.16284023 0.84240794
-0.089924514 0.026351403 0.30478287
-0.027172565 0.053316459 0.29976034
-0.21107435 0.054799028 0.4419415
0.13615382 0.056560811 0.3236568
0.21875989 0.050955802 0.29524803
-0.49579239 -0.13854863 0.85121322
-0.79840535 -0.1345679 1.792526
-0.11531663 0.045786619 0.31768584
-0.52339035 -0.14588258 0.90447116
0.34310079 -0.17197663 0.85269141
0.078427076 0.056905519 0.44710326
0.36144 0.036402147 0.90923476
0.21629608 0.062571898 1.1338131
0.32558459 0.030358538 0.73466277
0.36440778 0.04158124 0.54967952
0.2240296 0.049800828 0.403512
-0.36181283 0.058890447 0.92770934
0.16837299 0.056616873 0.33135486
-0.20366305 0.054176055 0.39574289
0.21706396 0.050873544 0.29204464
0.33673036 -0.0067479238 0.71886587
-1.0111699 -0.040624782 1.3722279
0.56723958 0.025685035 0.69911814
-0.045270234 0.05984867 0.281775
-0.7867834 0.041906208 1.1715505
0.23211271 0.05587912 0.27958894
-0.81906003 0.024500713 1.1158569
-0.090260148 0.053908706 0.34346843
1.0358629 -0.024140041 1.6479948
-0.49229187 -0.12687741 0.68500304
-0.49937117 0.064242616 0.68871903
0.34871256 -0.0067200437 0.74874902
-0.087228268 0.064962849 0.31763101
0.35558218 0.036119528 0.74034953
-0.1098603 0.06477607 0.40070868
-0.5033685 -0.12973978 0.70196867
0.45660919 -0.12911628 0.57974815
0.80755705 0.024521604 1.1607044
0.19873339 -0.1473783 0.73554063
0.45980698 -0.12691665 0.57568264
0.45827401 -0.15115933 0.7940805
-0.056649685 0.054173432 0.30451465
0.47386545 -0.11957745 0.70322013
-0.82744938 0.043576948 1.2345831
0.19604427 -0.15820897 0.7361567
-0.48866582 -0.1367107 0.83839869
-0.52277392 -0.12366593 0.80764937
0.13685399 0.056585886 0.37593699
0.37231159 -0.14639674 0.96490741
-0.18442887 0.054124888 0.67390132
-0.95704979 -0.16969877 1.2676642
0.83983082 0.020091403 1.3010032
0.31547099 -0.15334941 0.85915923
-0.48264021 -0.12408569 0.87236333
0.32203543 -0.16018869 0.83125949
0.2983579 -0.14434116 0.81393504
-0.69765884 -0.20957755 1.635905
2.0009887 -0.10720371 2.4936578
0.39339334 -0.078842178 1.1697609
0.16747367 0.044049747 0.76485801
0.32931936 -0.13499756 1.1711304
2.0239146 -0.43143076 2.3731177
0.34745383 -0.17396878 0.8667767
1.5324092 -0.060439438 2.0044649
1.3043618 -0.03083887 1.8165863
0.18558919 0.016499087 0.83465743
1.1667228 -0.26244968 2.3690579
-0.085477412 0.050031088 0.88626885
-0.65107697 -0.35843587 4.3741636
-0.041262776 0.052558031 0.63762593
-0.83653194 -0.3099373 1.9644825
-0.12637049 0.050286688 0.68483782
0.073802054 0.055689618 0.31510472
-0.82983536 -0.35418755 1.8714235
2.9741652 -0.47370368 4.0622721
-0.82453948 -0.22930552 1.8678467
0.14462918 0.039688557 1.0241706
-0.32479113 0.06126361 0.50823784
-0.80048376 0.042468898 1.1950271
-0.47585958 0.04675144 2.1712596
0.22052103 0.046729632 0.94890666
-0.80179924 0.043159842 1.1976702
0.12628692 0.052373156 1.2219589
0.31613076 0.019538864 0.71951246
0.14750099 0.041339427 1.0355327
0.13003916 0.035829693 0.92993236
1.3215475 -0.031775862 1.6512787
-0.039507508 0.050689973 0.78423524
-0.2733776 -0.085037619 0.99912
-0.47833151 0.022383697 2.3352783
-0.52532089 -0.18821856 1.3576515
1.1694555 0.04349298 1.6828387
-0.46909994 0.017711267 2.2920516
-0.7023651 -0.3945896 3.6043508
-0.40169621 -0.10549434 2.7082465
-0.59078306 -0.18843423 2.6967237
-0.94118422 -0.3373633 2.9409759
-0.61767477 -0.0045155957 3.7950566
1.2078321 -0.054596432 1.8552625
0.96958846 0.1160993 1.3565285
-0.60470122 -0.25770491 4.118494
-0.4243629 -0.34802663 3.7913768
