# .PCD v0.7 - Point Cloud Data file format
VERSION 0.7
FIELDS x y z
SIZE 4 4 4
TYPE F F F
COUNT 1 1 1
WIDTH 393
HEIGHT 1
VIEWPOINT 0 0 0 1 0 0 0
POINTS 393
DATA ascii
0.9373005 -0.074337795 1.2488564
0.63188028 -0.10945789 1.1883063
0.64588213 -0.13337994 1.1878363
0.94473135 -0.22244158 1.2913957
0.62664926 -0.14784805 1.1718543
-0.93527097 -0.013402194 1.7180632
-0.85884219 -0.10099013 1.1217481
-0.59500891 0.045154106 1.0421448
0.21650958 0.056843378 0.47761333
-0.72698587 -0.16122299 0.97993934
0.67101061 -0.14116584 1.2558274
-0.88865143 -0.11032336 1.1519587
-0.20500807 -0.053971857 0.42870176
0.74916011 -0.1713578 1.2084633
-0.75559288 -0.1718255 1.0372015
0.64245045 -0.13290811 1.1802353
-0.70867306 -0.13624826 0.94660568
0.65655231 -0.0065516499 1.2836678
-0.87666786 -0.088520654 1.0917226
-0.92576838 -0.06977918 1.3609728
-0.21904096 0.056389924 0.35826945
-1.3617357 -0.096320719 2.2368307
0.97620177 -0.27370235 1.3461384
0.36567834 0.030656395 1.3068411
-0.24410677 0.057848673 0.32370108
0.84650993 -0.11807249 1.2489552
0.33394271 -0.14697295 1.1935798
0.36949211 0.028843137 1.3057888
-0.20310494 -0.054976426 0.42193377
-0.73199677 -0.16160183 0.97879469
-0.22519135 0.026442816 0.4463439
0.067886911 0.059891887 0.53763878
0.21686186 0.057176776 0.28551883
-0.36855459 -0.138776 0.90612388
-0.96461648 -0.12554778 1.8684524
0.23490855 0.040971212 1.6590997
0.93224823 -0.073833533 1.2389128
0.24652922 0.053934764 1.0306926
0.85109115 -0.033974119 1.2684193
-0.20251927 0.055963863 0.36769664
0.21237767 0.060462452 0.31315845
0.84917831 -0.11932501 1.2543532
-0.58109426 0.030373765 0.72159874
0.22144306 0.056456678 0.41603673
0.31845579 0.018729523 0.4565779
-0.26749849 0.058231886 0.33316743
1.1100098 -0.25563556 1.4757525
0.42685467 0.042139728 0.85654557
0.96616197 -0.2046849 1.2958757
0.27226385 0.041803461 1.3845159
0.36866423 0.025855051 1.543203
0.065437138 0.060696054 0.30536979
-0.14068045 0.053465761 0.43115854
-0.39359263 -0.14864139 0.87226319
-0.20794377 0.041259628 1.2287794
-0.60127532 0.048783306 1.0732048
-0.93631947 -0.01289854 1.7138649
0.93273348 -0.072370723 1.2475635
-0.20878348 0.058341514 0.29091358
-0.83224481 -0.14299534 2.1817889
0.21263033 0.058566995 0.31669492
0.14693397 0.059421808 0.58366942
-0.14154123 0.053931646 0.43510842
-0.93795979 -0.1091385 1.8767978
-0.83846927 -0.15692511 1.0321363
-0.20092662 0.036274403 0.81816208
-0.87447876 -0.10342708 2.1472697
0.55657786 -0.16356647 2.6532054
0.78730345 -0.17834751 1.2356571
0.35641152 -0.16320242 1.2942001
0.91210377 -0.073031463 1.2095029
0.22639479 0.053870056 0.6086483
0.16071382 0.063046575 0.37246621
-0.87858307 -0.10498059 2.1555657
0.19664213 -0.33545679 1.506797
-0.86806715 -0.17326537 2.133812
-0.86027157 0.045787137 2.1785622
0.3560167 0.045734905 0.82190323
0.13554268 0.057679914 0.5681926
-0.99433851 0.034778561 1.7331482
-0.80595011 -0.13333002 1.0074688
-0.81923175 -0.14197697 2.1384015
0.34336343 0.018337838 1.3107038
0.76923037 -0.05009811 1.9210008
0.21335825 0.058425516 0.31856173
0.13559875 0.057911068 0.57257295
2.0968914 -0.36382559 2.3979955
-0.13321149 0.051740471 0.82680786
-0.85181701 -0.10806286 2.0569072
0.41174492 0.040592674 0.80531144
3.3240678 -0.60341418 4.2488594
0.15573202 0.056536503 0.7916671
0.55623925 0.049920749 0.6505475
0.47511268 -0.072559312 2.5561457
0.3104116 -0.19004756 1.9078547
-0.19732504 0.056056693 0.39025629
-0.8629328 -0.10876384 2.0806837
0.94927579 -0.22405408 1.2983705
0.31514326 -0.1387399 1.4526342
-0.19981501 -0.062506557 0.80957139
-0.86154091 -0.10072088 1.1289438
-0.20218612 -0.05352056 0.42181635
-0.20872489 0.042758327 0.42122865
-0.51642764 -0.20558961 0.94694245
0.61460614 -0.1991459 1.5542947
-0.20314473 0.0018538614 0.81924808
-0.89772296 -0.091077901 1.1291012
-0.20171767 0.056097768 0.36628616
-0.20637806 0.057888325 0.33910048
-1.3194513 -0.18681592 2.3364053
-0.20073664 0.058315262 0.31360704
-0.24614793 0.05789306 0.33008933
-0.23929991 0.057628781 0.31607437
-0.19636598 -0.061039295 0.42162633
0.35152268 -0.17346096 1.080909
0.36985448 -0.17357551 1.6269141
0.22108172 0.059664797 0.60276258
0.077726446 0.05509251 0.73893619
0.2500625 -0.17584263 1.5746804
0.61356944 -0.21469112 1.7680939
0.63596082 -0.2076128 1.6093248
-0.052768834 0.054183275 0.67580056
-0.19792119 -0.0231227 0.4215498
-0.53988719 -0.1905711 0.89084494
-0.20697127 0.034636486 0.84583116
-0.26727834 0.0026337928 1.0733536
-1.4784678 -0.11618239 2.3997569
0.79121536 -0.053806618 1.9531237
-0.21089533 -0.020937977 0.42841494
-0.18995586 0.056026705 0.38202488
-0.95802569 0.031450186 1.6684316
0.22154152 -0.065595344 1.2999412
-0.049951278 -0.1797208 0.80991936
-0.9275403 0.045721307 2.3746004
0.2812939 0.042695936 1.4333681
-0.92005885 0.00016113976 1.8521413
-0.11246733 0.05704109 0.26055598
0.2235381 0.044069875 1.628636
0.26939654 0.050181653 0.66046464
-0.20537591 0.057362601 0.33660364
-0.19026098 0.055819664 0.38254929
-0.20648742 0.050967604 0.76191425
0.52530158 -0.14579771 1.3073899
-0.41625661 -0.18508162 0.81365049
0.42887062 0.04261652 0.85519743
-0.19183765 0.050775621 0.48325431
-1.177441 -0.042255599 2.7462468
-0.19670808 0.047561496 0.41739345
0.29571947 -0.1828872 1.8225149
-0.18780446 0.054767434 0.37549412
-0.21346429 -0.020002272 0.44339252
0.1431717 0.061728623 0.36529851
-0.58702898 0.0078067486 0.72192228
0.21779831 0.056635406 0.47883666
0.89150208 -0.053287618 2.4465914
0.55813491 -0.0037992974 3.1997328
-0.70746183 -0.13186276 0.93378711
-1.4473993 -0.19918627 2.6206603
0.30022582 -0.076394469 0.43295908
0.21124081 0.05809724 0.31411368
0.21756497 0.055094142 0.40616763
0.29938835 -0.013622632 0.48609161
0.77229017 -0.052857164 1.9020153
-0.8507756 -0.035181679 1.9765178
-0.064875633 0.061859138 0.31129432
-0.94918227 -0.11164339 1.8898481
-0.059092738 0.057370055 0.52477634
0.68610394 -0.10328128 1.4270478
-0.062535219 0.061048057 0.56744242
-0.26400974 0.057735376 0.32886028
0.52876651 -0.097647175 1.0660124
0.21613999 0.056208991 0.47569263
-0.56063604 -0.21346447 0.94413316
-0.067195162 0.059218198 0.45766866
-0.12469116 0.049665544 0.38116109
0.21531196 0.057664581 0.58629692
-0.14253399 0.05445613 0.43870962
-0.70118612 -0.12951118 0.91208696
-0.14588793 0.057688478 0.30924237
0.40390038 0.046695389 0.87727726
-0.19264798 0.021731669 0.44574928
-0.20610352 0.05779323 0.28453445
0.18217474 0.040242359 0.74821162
-0.92752469 -0.033202533 1.7384616
-0.19972712 -0.063518152 0.80957103
-0.19915067 0.055149611 0.36132693
-0.60902363 -0.18035442 2.0350475
-2.6027541 -0.20633641 4.218884
-0.17929685 0.050389033 0.47529423
-0.50842869 -0.14368486 0.78198028
-0.94014829 -0.012669154 1.7285751
-0.71453983 -0.15640198 1.0575324
-0.11539933 0.046336602 0.72215295
0.19555914 -0.20390363 1.1999946
-0.69476128 -0.14579767 0.92334986
1.1767043 -0.22521056 1.5474278
-0.20139934 0.048431441 0.43067443
0.2511099 0.053353652 1.1515908
-0.58821994 0.013223378 0.76193285
-0.61793685 -0.17496142 0.97168267
-1.2403184 -0.26722455 2.2397804
0.21478972 0.056580652 0.28249466
0.64058036 -0.030513188 2.8047557
-0.10291522 0.055015713 0.48641264
0.15720265 0.061500963 0.35909736
-0.99044144 -0.14157172 1.8068527
-0.92300391 -0.10527705 1.8538657
0.34084654 0.029224413 0.92775214
-0.066272214 0.05825869 0.44319487
-0.9924866 -0.14350967 1.8069011
0.40686813 -0.13446184 1.6627995
-0.57872403 0.022194227 0.76550138
-0.20693013 0.043444611 0.41726363
-0.70208716 -0.12701888 1.0527284
0.065230399 0.060142148 0.29840457
-0.53231835 -0.20600808 0.94737148
0.23850641 -0.22370583 1.6910576
-0.68289477 -0.2039417 2.0738969
-0.063233539 0.060727116 0.30715662
-0.42103061 -0.14311084 0.89330184
-0.085718505 0.059253808 0.25836849
0.22689976 0.054554943 0.60900486
0.33754706 0.050076421 0.58108819
-0.12938733 0.052618168 0.84316337
-0.16651236 0.059840258 0.26309919
-1.0787379 -0.011833267 1.6634923
-1.1842713 -0.048494615 1.8438836
-0.18869318 -0.0054534269 1.1884619
-0.1095061 0.057683963 0.6891247
-0.41870287 0.038048007 1.5308002
-0.69003063 -0.15014121 1.0134451
-0.063338503 0.06085087 0.30799806
-0.073229671 0.062456466 0.28169221
-0.70526469 -0.12857543 1.0577048
0.28360987 0.054158296 0.53455949
0.58767456 -0.13431539 1.2383767
0.29999936 -0.010197105 1.0593165
0.31090215 0.021538813 0.43716955
0.74216729 -0.050639264 1.8289825
0.29677752 0.050617147 0.63188183
-0.15343575 0.061751425 0.38591933
0.37301791 0.037002962 0.73322296
-0.096569285 0.054207817 0.33407974
0.85800993 -0.054007623 2.1398969
0.72284591 -0.017305868 1.7357863
-0.06946072 0.061057031 0.4656117
0.20747897 -0.14305159 0.87637651
-0.14397599 0.057318319 0.30610186
0.10716568 0.061009053 0.3090741
0.0044676978 -0.38358837 2.4895329
0.15292701 0.057034023 0.78297114
0.47432584 0.041729163 0.83813202
0.36075419 0.027361521 1.2686892
0.26691157 -0.18406703 1.6786331
-0.87781608 -0.054480299 1.6618229
-0.75274181 -0.18002799 0.9847163
0.069288574 0.060037903 0.52100039
0.18076669 0.053243775 1.1456323
-0.93344319 -0.092200167 1.8617047
-0.14033788 0.058136415 0.26199019
0.0046118367 -0.39225394 2.5827947
1.0064727 -0.27670816 1.342383
0.064995088 0.059880622 0.29545206
-0.073817477 0.063178785 0.31016147
0.13457669 0.058238547 0.33871996
0.34258831 0.05036854 0.5896275
-0.13944636 0.05542833 1.3809797
0.20266391 -0.17948832 1.1888936
-0.061439775 0.057260107 0.51197362
-0.11139213 0.05242914 0.52522326
-0.92831111 -0.031290725 1.734552
-0.22680846 0.0015089628 0.93034494
-0.13312773 0.053227644 0.41861618
0.016098173 0.060859311 0.29616165
0.21507113 0.056570128 0.47428775
0.20336463 -0.17041393 1.0426484
-0.6472646 -0.11436818 0.88225484
0.26761103 0.049976073 0.65928733
0.46770555 -0.14692608 1.9194425
-1.0941767 -0.011186125 1.6877156
-0.63585484 -0.17725711 0.96091318
-0.20034373 -0.03910419 0.85447121
0.28993225 0.028183041 0.5163548
0.32680488 0.039794501 0.44723332
-0.24662745 -0.13194151 0.97055495
0.38864216 0.045995958 1.1112127
0.37495175 0.043310292 0.72404122
0.20956531 0.056113709 0.30029124
0.31114739 0.022374084 0.43795919
0.62405783 -0.13745962 1.1984935
-0.22781983 -0.36932936 2.6257668
-0.21124285 -0.039850153 0.43669581
0.29576132 -0.17964742 1.7147218
-0.68255597 -0.1138625 0.91426373
-0.97999752 -0.10617699 1.7245456
-0.19256535 -0.059725624 0.41130352
-0.23588297 0.05762136 0.35002601
-3.196692 1.259074 7.8116198
-0.066227026 0.058098253 0.43360937
-0.22457784 0.055933058 0.36570299
-0.20297445 0.056661375 0.36928964
-0.21469288 0.049413458 0.4139818
-0.15748492 0.057941418 0.35736549
-0.42868268 -0.14590342 0.85986257
-0.46700662 0.038816765 1.717724
-0.10347075 0.054457489 0.53376877
-0.13646469 0.052109156 0.41333735
-0.63242477 -0.21550323 1.2910593
-0.65655029 -0.19438171 0.99031913
0.071525753 0.064840615 0.51958001
-0.25089565 0.051550228 0.67799127
0.14027941 0.059349157 0.34682906
-0.86458617 -0.10091398 1.1307688
-0.26573497 0.057927959 0.33363307
0.36428788 -0.12314898 1.3301591
-0.58499593 -0.17589071 0.97322023
-0.20716669 -0.039088473 0.42637086
-0.14136343 0.054408703 0.43443358
-0.2315498 0.056319714 0.34166753
-0.84567875 -0.14309236 1.0530695
0.21706223 0.059051711 0.58479166
-0.82973033 -0.1426692 2.182631
0.30297801 -0.024687339 2.850059
-0.1588272 0.05820889 0.36104321
-2.0118668 -0.73249805 6.34484
-0.20441446 0.039355364 0.8323406
-0.18896073 0.055963404 0.38032472
-0.96966439 -0.055967923 1.736142
0.23276164 -0.1966892 1.2209687
1.016127 -0.040869281 3.2384729
1.0075498 -0.27683851 1.3383437
-0.037333332 0.066273764 0.31322414
0.40650427 -0.12752017 1.6569568
-0.054626577 0.060688645 0.27505261
-0.058634236 0.062182028 0.64383137
-0.040118024 0.053695753 0.32588476
-0.20823058 0.057381544 0.39144504
-0.26595494 0.02599437 0.9334383
-0.11551347 0.059301864 0.28734511
-0.0072317813 0.052086536 0.44454837
1.105629 -0.2720058 1.4727436
-0.19513205 -0.056742195 0.40746152
-0.16130319 0.059581321 0.30063397
-0.63019723 -0.1866364 0.94547606
0.14350322 0.058250122 0.56885481
-0.14107993 0.050074443 0.50703752
0.50133735 -0.16208096 1.024842
1.0338999 -0.28195435 1.3785378
0.2139506 -0.22346605 1.332327
0.58054143 -0.13377443 1.2257081
-0.43179253 0.063412361 0.55938411
-0.20015168 0.056151252 0.33534038
-0.26359409 0.057518009 0.33017385
0.49692008 0.0264543 1.6385888
0.70150465 -0.17127325 1.1928022
-0.13155076 0.05741718 0.29238188
0.21237364 -0.23694453 1.5341026
-0.19007063 0.019981766 0.43883467
0.72567838 -0.029808419 2.270854
0.21100138 0.054947313 0.27359086
-0.55462319 -0.1654586 0.9008261
0.25557232 -0.15463215 1.0053142
-0.69909501 -0.1867331 0.94055414
0.52926242 -0.028660635 1.1734971
0.58686012 -0.034681115 1.14224
0.44264841 0.044681065 0.57916677
-0.7301023 -0.13399816 1.0275663
0.39757782 0.043889303 0.92294729
0.21038339 0.056088183 0.27628475
0.067999877 0.059153873 0.51030481
0.21965909 0.057499629 0.29837704
0.1388997 0.059529725 0.34968174
-0.67590195 -0.15798447 1.0039978
-0.22933291 -0.15336944 0.82018411
-0.67237407 -0.15113838 0.92477584
-0.80384099 -0.13615596 0.99778163
-0.061051622 0.061385594 0.56711042
-0.67184401 -0.14653076 0.92301369
-0.57871902 -0.1732174 0.94444251
-0.62949193 -0.16060574 0.90723801
-0.16234493 0.046896376 0.79543138
-0.14968294 0.059338938 0.32019669
-0.21426019 -0.082116149 0.84816027
-0.23368691 0.056325283 0.34472501
0.73277247 -0.11540573 1.7628299
-0.12139498 0.066783845 0.43256497
-0.13187301 0.056993831 0.33535182
0.27133623 0.05186775 0.50832391
-0.58682001 -0.17569727 0.97634542
-0.13766971 0.059625294 0.30871212
0.26691663 0.051115733 0.67898679
0.19735472 -0.22805321 1.2408074
0.14814508 0.06201268 0.37189639
