# .PCD v0.7 - Point Cloud Data file format
VERSION 0.7
FIELDS x y z
SIZE 4 4 4
TYPE F F F
COUNT 1 1 1
WIDTH 569
HEIGHT 1
VIEWPOINT 0 0 0 1 0 0 0
POINTS 569
DATA ascii
0.21812093 0.049547225 0.41487145
0.71564251 -0.049595326 1.0301299
-0.67891961 -0.16687177 0.98564219
-0.74809402 -0.18895483 1.0062265
0.22170162 -0.027101209 2.6739221
-0.67356896 -0.19114357 1.0086255
-0.54439241 0.048317485 0.74076676
2.6644132 -0.13709264 4.1115837
1.8455553 -0.090253763 2.651031
-0.27174202 -0.30242038 1.5447276
-0.6770429 -0.16619469 0.98258376
-0.27562565 -0.26297542 1.539084
-0.32099485 -0.20012151 1.5245404
0.39146391 -0.19756432 2.1691856
-0.54498214 0.002212584 1.1066322
0.42147124 -0.16835496 1.4504764
-0.41214058 -0.16346796 1.5236626
0.64758396 -0.007178545 0.91130853
0.37423366 -0.13298723 4.1723027
-0.27079275 -0.2188887 1.5595732
-0.19098219 -0.31663918 2.0625441
-0.27354875 -0.25937667 1.5328898
-0.20035765 -0.31408128 1.9927282
0.43930817 -0.21425989 4.1731558
-0.74376464 -0.18569422 1.0009835
0.31483245 -0.01591227 2.047698
-0.51926315 -0.05865448 1.079602
0.25396216 -0.1654103 1.3683901
0.31249654 -0.034753129 2.8841109
0.21566176 0.055228405 0.46282816
-0.53648841 -0.036471091 1.1057184
0.6488297 -0.0067779068 0.91341686
-0.93459386 0.023074247 1.1536226
-0.27991608 -0.19657025 1.4999824
-0.96863502 -0.2934112 1.3174515
-0.54525512 0.0010307003 1.1074922
0.53026032 0.067046858 0.6947968
-0.9284057 -0.13093369 1.1945834
0.23240602 -0.02513825 1.8620405
-0.55608839 0.030260861 1.1229682
-0.55693972 0.029930009 1.1272187
-0.36391634 0.054472543 0.94512773
0.57957149 -0.097914763 3.3920097
0.49816185 -0.1694538 2.1448958
-0.27157789 -0.25947678 1.5261486
-0.29722539 -0.25783271 1.4937572
-0.32059336 -0.23459885 1.3613751
-0.56448847 0.02024761 1.0513959
0.46658921 -0.22403862 4.4930992
-0.2018604 -0.29719716 2.37783
-0.21184558 -0.26402795 2.0326352
0.83825397 -0.057529479 1.0571952
0.47005057 -0.42186898 4.9886065
-0.23574972 -0.34274122 2.0756314
1.6539505 -0.073889382 2.0107203
0.77342457 -0.074513815 0.96245909
-0.56337023 0.020013969 1.0510719
-0.5270322 0.0049249679 1.0382822
-0.18548489 -0.24573931 2.3028169
-0.48539478 -0.1483842 1.6787956
0.33647409 -0.16468816 1.332283
-0.64711553 -0.13826156 0.97355032
-0.58830214 -0.13341853 1.0283725
-0.44916511 -0.1860707 1.2588897
-0.38893452 -0.16412215 2.5715618
0.48853391 -0.23376971 4.7214632
-0.45972216 0.012832955 1.6341214
0.29738173 -0.1935403 1.1391492
-0.15931115 0.042862311 1.1084797
-0.64935648 -0.13857229 0.97739267
-0.38337576 0.031216342 1.9893553
-0.27870226 -0.23062363 1.9871426
-0.60334414 0.051108211 0.99244022
-0.54200184 0.048179377 0.74469161
-0.45811826 0.020428777 1.6260824
-0.23441115 -0.23366264 1.6964672
-0.62731797 -0.1780425 0.98194408
-0.54801685 0.047152735 0.74321103
-0.29676083 -0.24509954 1.5241344
0.33787227 0.047390621 0.44995689
0.47642395 -0.10642036 1.3147464
0.88321608 -0.098146245 1.13044
-0.31059903 -0.40033329 1.8985305
0.43045738 0.0036626048 2.2967098
-0.19057587 0.055988744 0.41034484
-0.60407859 0.050279632 1.0000544
-0.67287689 -0.16515988 0.97654796
-0.68546098 -0.17728086 0.98145127
-0.58211923 -0.16315305 0.96510601
-0.56095535 0.060022585 0.79626894
-0.61833054 -0.16149841 0.97873497
0.27510485 -0.24074668 1.465735
-0.43524414 -0.18274494 1.222003
-0.49341136 0.0082322583 1.4733109
-0.90620452 -0.17025547 1.2552433
-0.71566117 -0.18481398 0.98278451
0.049888782 0.047024071 1.0091982
0.54447466 -0.21381593 3.1728354
-0.12783983 -0.18029916 1.614548
0.21803477 0.056778379 0.46434402
0.31566906 0.042549923 0.46018004
-0.68242377 -0.19698574 0.99666166
-0.38634628 0.058527432 0.82150531
-0.56003851 -0.022920104 0.71192551
-0.65099895 -0.13822842 0.99141502
-0.49847126 0.026599558 1.3150454
0.074700721 0.059049726 0.40684605
-0.35898864 0.053824089 1.066968
-0.45491028 -0.20134819 1.4760838
0.53652471 -0.17400022 1.8139255
0.43353671 -0.17640007 1.5079205
-0.56048936 -0.035330042 0.73471928
0.37420836 -0.21467854 1.2905791
0.32652771 -0.15961373 1.278074
-0.50851101 -0.12354743 1.7045481
0.072697602 0.057151034 0.39954233
-0.50823557 -0.12339922 1.7071464
-0.32730144 0.025527481 1.8382211
-0.7071839 -0.15736063 0.98516726
-0.92841452 -0.21483426 1.139329
0.43785024 -0.15555009 0.81593609
-0.38484722 0.057826042 0.82374358
-0.91952151 -0.21564864 1.1978891
0.31750661 0.007964218 0.67081809
0.14035371 0.059937172 0.32566071
0.13374102 0.056814574 0.4047811
-0.18669191 0.056556769 0.31613839
-0.50739139 -0.19556186 1.1778378
-0.50265592 0.01847337 1.6638758
-0.50224292 -0.12039306 1.6830931
-0.49906999 0.017241515 1.6492391
0.1530211 0.054716043 0.58031011
-0.52553076 0.021955818 1.0803998
0.96904171 -0.079200208 2.2426908
-0.45603901 -0.18775466 1.2752225
-0.36186081 -0.16852048 1.0477309
-0.32515177 -0.19904739 1.5383415
-0.72207814 -0.091521271 2.3722959
0.3380478 -0.18690275 1.4655745
0.063265003 0.047150336 1.1205702
-0.2235862 -0.36983305 2.4399633
-0.47995573 -0.057044365 2.7563438
0.32701257 0.049750399 0.39878345
-0.61763263 -0.1615013 0.98097038
-0.92008883 -0.17145866 1.2032502
0.36887169 -0.16462889 0.85128474
-0.61982942 -0.17750075 0.9728992
-0.90610081 -0.017157828 1.147857
-0.3923896 -0.20271958 0.89207149
1.5338879 -0.14520548 1.9748948
0.28829199 0.048118524 0.44378519
0.72525507 0.017786188 1.5320935
-0.1990343 0.049121439 0.64436913
-0.72389644 -0.16882214 0.99634743
0.13844737 0.055301547 0.61215472
-0.72700089 -0.092035376 2.3882475
-0.43852633 -0.0024178997 2.3549988
-0.52644825 -0.10247111 2.0346975
-0.27267045 -0.15184198 2.3378973
-0.18400177 -0.094971403 1.4994724
-0.5544548 0.023329521 1.091202
0.44761693 0.021637574 1.4432271
-0.39617178 -0.2027514 1.4818287
0.78584319 0.010173675 1.5763628
0.20459807 0.056899667 0.48881078
-0.44696391 -0.1239059 1.6836133
-0.73685622 -0.09737923 2.2326832
0.1952433 0.058431 0.29959404
-0.18453512 0.057162225 0.28277731
-0.46455199 -0.17441684 0.95248771
-0.72522634 -0.093299605 2.3799896
0.20731029 0.052952848 0.43167162
-0.16110235 0.045262046 1.1688735
0.28164133 -0.24729857 1.516417
0.23090598 -0.20676103 2.2233903
-0.30241981 -0.28746527 1.531446
-0.16760054 -0.087722361 1.3311605
-0.070536733 0.058805645 0.39973164
0.27423179 0.045808591 0.40816593
-0.50758624 0.0042807814 1.5007408
0.13098851 0.054942042 0.39599872
-0.58169085 -0.035341792 0.73312378
-0.32329565 -0.18892349 1.497031
-0.5509333 0.030604716 1.1110358
-0.31995833 -0.19959252 1.0886762
0.4463729 0.022703633 1.4394958
-0.52076787 0.014395892 1.4288716
0.20803216 0.049927987 0.40999985
0.20093971 0.057262145 0.34583127
-0.906802 -0.017200423 1.1544628
1.502166 -0.11480343 1.9557362
-0.40689981 -0.15973562 1.4992347
-0.86796522 -0.26703522 1.2356932
-0.55509907 -0.001468882 1.3308992
0.23155981 0.055094525 0.65431952
-0.42143455 -0.1910976 1.6476641
0.69482833 -0.0015104096 1.1929822
0.13412568 0.057379723 0.40203929
-0.50155216 0.043217167 1.0543559
0.052005641 0.057727508 0.3694346
0.45835948 0.0042030402 1.5146554
-0.38122478 -0.16174012 2.5049391
0.045884691 0.047755793 0.96444869
-0.36154872 0.053842269 0.93389916
0.14418146 0.055710159 0.55682254
-0.0068905428 0.06119737 0.29999352
-0.55199975 0.0094348434 1.305865
-0.49760598 0.050911278 1.1596689
0.6486758 -0.057746179 0.98236084
0.0018943921 0.058667734 0.29347134
0.27585906 -0.18084282 0.95849323
0.42121571 -0.1673142 1.4460902
-0.45649737 0.01160816 1.6306329
-0.10994627 -0.13117817 1.7124527
0.70994467 -0.063003518 1.1625059
-0.445519 -0.20130163 1.460495
0.35181332 -0.042699486 3.9925566
1.0581739 -0.0725374 1.7617083
-0.22325236 -0.18156186 2.563848
-0.059455067 0.056538381 0.47198105
-0.19456461 -0.26616424 1.2506452
-0.33855498 -0.19896379 1.5834866
-0.52867144 -0.06007158 1.1072915
-0.46896213 0.021308413 1.3542595
-0.5191204 -0.21986632 1.5594869
0.68120939 -0.00079203025 1.1642251
0.34777319 0.039597802 0.67624617
0.36257902 -0.26682845 1.97524
-0.18157828 0.055015132 0.3022877
-0.30068028 -0.24779668 1.5233233
0.45076153 -0.17265125 1.2985971
-0.59923106 -0.1837275 0.9446981
-0.42201734 -0.17104062 1.5719779
-0.38358641 0.058082819 0.69333887
-0.38023138 0.057534546 0.81199408
0.30581099 0.049063206 0.40757084
0.66962832 0.026813637 1.2340679
-0.11374607 0.0600527 0.28533173
0.20817521 0.058147982 0.50358963
0.087282158 0.052341193 0.63615489
-0.54466766 -0.00029640459 1.108515
0.26042473 0.047186378 1.0136569
0.17026925 -0.018632 2.0459478
0.46067533 -0.17170922 2.1287692
-0.57742125 -0.045650423 0.73815298
0.35710156 0.045997873 0.47498536
0.50586832 0.038742676 0.69731474
-0.73842376 -0.2065949 0.99367595
-0.55042356 0.010687757 1.3084791
0.50586462 0.03405375 0.79432034
0.075690471 0.059190102 0.39813042
0.35173029 0.023585623 0.70282078
-0.38596886 0.058158956 0.69751525
-0.060931467 0.059006728 0.39044595
0.12758479 0.060359448 0.28046763
0.15624017 0.054405481 0.60311031
0.21982378 0.048851661 0.42180681
0.43368307 0.036557037 1.147799
-0.19667512 0.053107895 0.4914248
-0.18379551 0.057016492 0.28220069
-0.11677339 0.056202121 0.30008864
0.31317794 0.049699955 0.42394042
-0.56880921 0.047732793 1.0452077
0.21586829 0.055334173 0.4268837
-0.53133267 0.020722892 1.3072257
-0.41347128 0.063230231 0.61146808
0.002473034 0.059952065 0.30279601
-0.19216931 0.046749145 0.86181211
0.0773445 0.056780063 0.48845172
-0.032553047 0.058227919 0.30922794
-0.43159246 -0.18694305 1.2797823
0.2127713 0.052956022 0.41709661
-0.5704239 -0.12720433 0.98855186
-0.5164625 -0.1084829 1.086051
-0.54500824 -0.23583588 1.6727536
-0.43047604 -0.19478385 1.1939046
0.38700601 -0.20335805 1.3356004
-0.44885078 0.0001894217 1.6498015
-0.059523553 0.05653286 0.65004921
0.34663466 -0.14577606 1.3236358
-0.68409723 -0.1649012 1.0394325
-0.056759961 0.055340707 0.6488471
-0.27038658 -0.25489503 1.5110624
0.43004608 0.0026975628 1.5049953
-0.24986133 -0.30735835 2.263099
0.56800193 0.038754225 0.72375941
-0.6865496 -0.08629293 2.2351873
-0.27549767 -0.22192682 1.5718179
-0.1886808 -0.29539353 2.0821075
-0.58752435 0.018927097 1.0653894
0.24434286 -0.032455772 3.0823283
0.2672919 0.048115171 0.46203351
0.46102241 0.041162953 0.80161047
0.09838783 0.058273949 0.34432518
0.065589063 0.060357355 0.26614201
0.26627582 0.048158579 0.45305252
-0.37201625 0.056700863 0.66722608
-0.41491616 -0.1637166 1.5377376
-0.00017272681 0.056719437 0.30924487
0.19544479 0.058721699 0.29975963
-0.57562667 -0.1281276 0.99687743
0.31775069 -0.25680918 1.7571924
-0.19167909 0.057622015 0.3213104
-0.1772722 0.059270233 0.31968772
-0.16202095 -0.21210912 2.2489011
0.47242957 0.040532582 0.82603621
-0.56340945 -0.034933515 0.73839521
0.20934743 0.058008626 0.49817944
1.0317709 -0.22894374 2.5715804
-0.53448719 0.017070092 1.121202
0.15922445 0.055550225 0.61853528
0.44172722 0.039747335 0.80632687
0.59670448 -0.10681833 0.89406776
0.21503916 -0.13085204 1.3356018
-0.55846506 -0.0011621695 1.3418195
0.64773482 -0.0057886709 0.91128731
-0.25333256 0.070575066 0.47686219
-0.3628056 0.054715954 0.93605804
-0.11404825 0.060790397 0.28769732
0.60724169 -0.10773482 0.91298556
-0.161053 0.046901025 1.1838269
-0.69883925 -0.21626471 0.99175978
0.24738437 -0.24860272 1.3824348
0.35936928 0.046511956 0.47757363
-0.1902633 -0.26518732 2.4197912
-0.21462655 -0.12361524 2.1323481
-0.19244602 0.054057151 0.35452271
-0.18851471 0.053301744 0.53132224
0.14978191 0.054312877 0.62436461
0.34999639 0.039250039 0.67914367
-0.069847047 0.057728864 0.38438106
-0.29974073 -0.2426534 1.4149592
0.35444421 0.01859777 0.7054739
0.21643272 0.057294264 0.48774695
-0.55777901 0.0043068901 1.9537001
0.36172926 0.005724173 2.115803
-0.072314121 0.059139974 0.38086033
0.43880188 0.037598681 0.59810615
-0.25970292 -0.34233487 1.5930359
0.37215605 0.019095719 1.5637107
0.14758414 0.05434563 0.61592984
0.088208504 0.053664908 0.63710809
0.094197355 0.053397112 0.72326279
-0.070787497 0.059102044 0.41168237
0.59930104 -0.10718181 0.89843583
-0.51494843 0.05871255 0.72314906
-0.52180594 0.060818888 0.73781037
-0.56442481 -0.15898876 1.0094848
0.34620577 -0.12985618 0.71982765
0.34015208 -0.15392497 1.3756611
-0.41820759 -0.21896742 1.1550503
-0.28225651 -0.26469752 1.5278699
0.61801034 -0.11862757 3.2817278
0.52207905 -0.14707822 0.87927151
0.24963501 0.045091666 0.42746449
-0.56804103 -0.12753329 0.98694444
0.072868384 0.057465129 0.37615204
-0.073259622 0.05935476 0.38159966
-0.20013991 0.056223072 0.4994843
-0.16796529 0.06004148 0.33760798
-0.13205719 0.061488807 0.26418674
-0.44263354 0.0083505884 1.4777455
-0.46615487 0.012021111 1.5424886
-0.11495907 0.061815731 0.2935226
0.081523217 0.06024722 0.52959061
0.12284824 0.059355043 0.4218545
-0.18743053 0.060323223 0.48730469
-0.050419606 0.049318351 0.56933117
0.66826373 -0.15810803 0.95667768
-0.19695225 0.054872781 0.38173509
-0.5015949 0.054186068 0.98626995
0.20536324 0.055511482 0.46849465
-0.40848321 0.0092278253 2.0265598
-0.28919393 0.061757356 0.52705979
-0.6023584 0.059081398 0.98152828
0.69231153 0.026574925 1.3281498
0.39745951 -0.18095893 1.6292298
-0.1283206 0.060751759 0.33263683
-0.36343458 -0.22004418 1.4094133
-1.0275693 -0.3093932 1.3769979
-0.24114466 -0.29261705 2.1520071
1.6142135 -0.29133257 4.430409
0.35868061 0.046574272 0.475245
-0.030789152 0.058755256 0.33343458
-0.089361973 0.058073945 0.34826231
0.21428251 0.051091701 0.41712308
-0.56820077 0.00015349872 1.3380518
-0.90479952 -0.16524993 1.1155741
0.35355553 0.018023778 0.70472813
-0.57872635 0.056412905 0.98914886
0.31714314 0.0025006719 0.67116833
0.27940676 -0.25296929 1.5239508
0.35132271 -0.13265742 0.72790194
-0.75905734 -0.081453659 2.0077538
0.022089727 0.061177172 0.36951995
-0.48674631 -0.11908857 1.6213641
0.30541873 0.049397483 0.45835257
-0.18777779 0.055992544 0.41024733
0.16503787 0.049422741 0.72609138
0.33881387 0.04068964 0.46034884
0.074452497 0.061476253 0.41432548
0.066540681 0.049828373 0.39598513
0.47942954 -0.17363068 0.81123066
0.86777467 -0.13196364 1.5750747
0.37025833 0.04696124 0.45356464
0.49927339 -0.16803923 2.1405301
0.21722689 0.061361276 0.37992883
0.21324337 0.031496651 1.2603006
-0.1864298 0.052596763 0.67869854
0.35803849 -0.25472221 2.3294804
-0.2053211 0.060834683 0.4599328
-0.062466837 0.05630175 0.36609387
0.46062428 0.0078483783 1.5187426
-0.18866596 0.049161222 0.35105872
0.54060698 0.037485756 0.73767519
0.28052291 -0.19516324 1.2996178
-0.45279676 0.0039623305 1.5843658
-0.19013539 0.05265595 0.78852177
-0.1936928 0.054371193 0.35786521
-0.18612218 0.051745225 0.76854277
-0.56999332 -0.045533367 0.73044181
-0.42698026 -0.19521227 1.3032579
0.8039723 -0.081396595 1.1059263
0.41439858 0.035762504 1.0981903
-0.56341785 -0.092048608 2.2752445
0.00055963546 0.059777491 0.34149373
0.55669558 0.035932019 0.87579203
-0.25958773 -0.33569092 1.5615554
-0.60318333 0.060294323 0.98193288
-0.7530548 -0.087923072 2.1799464
0.52509457 -0.095287271 2.4237061
-0.54560101 0.029780196 1.100666
0.43391457 0.038961746 0.78948545
-0.08960297 0.026247289 0.29842615
-0.39177048 0.060247406 0.57491207
0.95586783 -0.27204221 1.4392443
0.87671334 -0.13328829 1.4511664
-0.31373161 -0.23913795 1.1257303
-0.30220565 -0.36177373 1.5611827
-0.81209356 -0.17592055 1.6104112
-0.13310459 0.03989815 0.22636104
0.13352028 0.053892709 0.58723807
-0.033064216 0.06192445 0.31907046
-0.39027399 -0.20355396 0.930269
0.21525177 0.052527405 0.604285
-0.59415382 0.056291424 0.99351311
0.29101872 0.0502965 0.43899345
0.020246588 0.058336332 0.34943593
-0.46866661 0.071514957 0.92130613
0.20799148 0.059681021 0.36669922
0.13375476 0.057482265 0.40017486
-0.73253894 -0.1858958 1.0008383
-0.56378669 0.065030158 0.76082611
-0.067726329 0.062331431 0.27354562
-0.59830463 0.051181644 0.97718859
-0.81649226 0.051230431 1.1879551
0.46311462 0.031577569 0.72302914
0.39091554 0.044812113 0.61083221
-0.37031451 -0.19352768 0.87630057
-0.38275081 -0.17024864 1.055743
-0.53899896 0.062880754 0.71655869
0.20650429 0.058991723 0.42929244
0.27245107 0.047333583 0.51943421
-0.66449219 0.056657016 1.1015465
-0.62189525 -0.16216949 0.98355579
-1.0063132 -0.25072107 1.5007904
-0.076339602 0.023486253 0.26027608
-0.54712182 -0.1903533 1.0390537
-0.53954321 -0.11351798 1.1407945
0.34081137 0.025199942 0.52041268
-0.43815017 -0.19836983 1.2072713
0.39365125 0.031072948 0.49289799
-0.042029835 0.052612863 0.71831203
-0.58985311 0.032157052 1.0261133
-0.17164576 0.052746907 1.0590904
-0.58354437 -0.16566131 0.96433806
-0.67632765 -0.19290484 1.0172625
-0.42251641 -0.16288304 1.5475841
0.1313979 0.056174859 0.3944149
-0.077779986 0.022050871 0.13936949
0.51705861 0.039491214 0.71098208
-0.19055098 0.046597097 0.85547304
0.62497616 -0.12188103 0.78691745
0.13307574 0.056519188 0.30853784
-0.12691146 0.060528353 0.3119694
0.34851384 0.04545188 0.4611156
-0.16600072 0.05948294 0.33318961
-0.14495927 0.041102678 0.37726355
-0.67716879 -0.16694629 0.98365974
-0.16080844 0.05568812 0.24216032
0.40594006 0.05051735 0.60628796
0.38502848 -0.20747532 1.3696153
0.30501193 0.049530748 0.45735574
0.39694607 0.044994816 0.62353992
-0.087220751 0.052619077 1.0012801
-0.71928477 0.059240989 1.1084566
-0.13343892 0.068899617 0.30956352
-0.5036456 0.044836968 1.0606139
-0.29398087 0.06989643 1.1448627
0.45826253 0.02512129 1.479476
0.41864637 -0.024636215 0.76860118
0.0033999607 0.060067222 0.302109
-0.48053855 -0.20185666 1.2294166
-0.0073945895 0.059924737 0.28825414
0.22152042 0.058591552 0.47113204
0.21475902 0.057047933 0.48039508
0.3483246 0.041572474 0.47497272
-0.18395084 0.058776334 0.47518468
-0.52908236 0.0098701054 1.2468472
0.58643693 -0.19783163 2.5253191
0.32514411 0.020515006 0.68618512
-0.37646204 -0.21487574 1.5358789
0.43308109 0.036505982 0.74558449
0.73263866 -0.14178878 1.0010347
0.46512297 -0.17025544 1.437207
-0.45027447 -0.20372243 1.2477541
0.43077886 0.037240628 1.1305583
-0.49208838 -0.19955195 1.1997526
-0.032945164 0.061520122 0.31780541
-0.074024685 0.063082628 0.35069633
0.29752067 -0.28909159 1.5052366
-0.22096729 -0.30700001 1.4514563
-0.92432863 -0.28513834 1.3074939
-0.25368714 -0.36123049 2.0113399
-0.8466329 0.039840065 1.2120078
-0.084178187 0.050245732 0.961169
-0.036879815 0.053409092 0.92835832
-0.18137622 0.051089063 0.43778682
0.00062537938 0.055423371 0.30723774
0.15052995 0.036473684 0.80565405
-0.50065833 0.13828148 0.93747544
0.35203448 0.04211301 0.48101735
-0.46703964 0.039714254 0.89865708
0.33520794 0.034834988 0.70683408
-0.54423004 0.040243804 0.73181915
-0.57619381 -0.046068713 0.74335361
0.067405023 0.050405994 1.1829617
0.42239195 0.0074553043 1.4993727
-0.14021078 -0.17171708 1.6858363
-0.53735512 -0.11998304 0.92580962
0.52052319 0.036675643 0.73741841
-0.54839885 -0.003148498 1.2752938
0.13434571 0.05698847 0.31211376
-0.48919982 -0.18258922 1.0783343
-0.68136436 -0.19613162 0.99647832
-0.17104527 0.058920532 0.26497221
-0.31802532 -0.17185852 1.8258164
-0.079262905 0.066115245 0.37189627
-0.93591446 -0.0095883608 1.1469681
-0.19203764 0.055719264 0.5663209
0.34569827 -0.2121107 1.554038
-0.056537986 0.055223137 0.47169781
1.5015551 -0.15169412 1.8680036
0.75248826 -0.14541504 1.0296547
0.34673098 0.022683147 0.7403357
-0.13833529 0.065449744 0.34327626
0.60662359 -0.051791385 1.7528875
0.073114343 0.05769854 0.38445139
0.48699236 0.039435972 0.61817265
-0.8741836 0.022545937 1.1112731
-0.034626625 0.052164279 0.93208241
0.55617613 -0.11170631 1.5643332
0.39014092 0.02058376 1.6565397
-0.58680838 0.027704943 1.0411749
1.0246136 -0.080921352 3.224092
0.37481326 -0.26323375 4.0955715
0.39134377 -0.029281115 0.61236215
-0.29425693 -0.1823743 3.1885123
0.24137747 -0.33683506 3.7633495
