# .PCD v0.7 - Point Cloud Data file format
VERSION 0.7
FIELDS x y z
SIZE 4 4 4
TYPE F F F
COUNT 1 1 1
WIDTH 699
HEIGHT 1
VIEWPOINT 0 0 0 1 0 0 0
POINTS 699
DATA ascii
0.1151495 0.049285896 0.37010908
-0.12046903 0.059069574 0.3818841
0.075109005 0.055078551 0.31990576
0.33673489 -0.10798832 0.74805927
0.1192987 0.023024533 0.33866072
-0.18976653 0.049033266 0.62148428
0.2908895 -0.093067147 0.59343767
0.76134861 0.014310818 1.0760913
0.84138966 0.01564288 1.1502414
1.2089038 -0.27535746 1.8002543
0.15134019 0.056589212 0.31210232
-1.1319641 -0.3406691 2.1057353
0.1455999 0.052421331 0.31220007
0.30952823 -0.11716963 0.60948563
-0.1801573 0.057845384 0.40096807
0.12245756 0.033943169 0.3476367
-0.92852604 -0.23675412 1.6413217
1.4310635 -0.34225363 1.6753526
-1.3141598 -0.4381108 2.7104855
0.56205106 -0.14710134 2.1658072
-1.3447182 -0.45640793 2.7436895
-1.2646077 -0.26673946 2.5713983
-0.10820347 0.04893126 0.86052227
1.6453176 -0.34663126 2.1756701
-1.2940878 -0.28666088 2.5774398
-0.87347972 -0.15485865 2.4094
-0.83499849 -0.26375577 2.3309727
-0.041904032 0.052789774 0.691535
-0.73482084 -0.12254096 3.4300537
-0.17159659 0.033290859 1.1869063
-0.17593646 0.054905578 0.65625381
0.015586078 0.055725418 0.44209242
0.28526652 0.045477316 0.43779516
0.13721019 0.030013224 0.38896179
-0.21925938 0.049906656 0.32466936
0.46915221 0.038186673 0.75356245
-0.20046735 0.052064285 0.35471487
0.31637388 -0.038500316 0.59274912
-0.055418611 0.059424382 0.25247908
-0.1986897 0.055592168 0.28358316
0.34346336 0.017959697 0.61687279
1.152957 -0.35281023 1.7921057
0.0050224662 0.056224324 0.37070513
-0.82346451 -0.028587051 1.0851307
0.32220876 -0.038967974 0.60109282
0.20942861 0.053642355 0.39812231
-0.142658 0.057008184 0.25599718
0.069326818 0.052225545 0.26057005
0.1110974 0.036726411 0.35691309
0.29479754 -0.10690481 0.60086727
0.12480891 0.028864592 0.36663389
0.14535052 0.056109719 0.34780025
-0.84205544 -0.14673057 1.230763
-0.17598629 0.05766917 0.40741205
0.099473 0.053195462 0.62607956
0.12571782 0.029789919 0.33646631
0.10726887 0.04501348 0.74168682
0.28988653 0.017069498 0.54988718
1.085646 -0.10838055 1.8558979
1.4732053 -0.31471041 2.0463233
0.54457998 -0.21353719 2.1160522
-0.41245341 0.061353121 0.93686056
1.6285912 -0.40856084 2.3542895
-0.15242839 -0.21037462 1.6943741
2.4160128 -0.52652436 3.3597193
0.35836947 -0.30248296 1.6811514
0.084525228 0.045018367 0.76534176
0.16967398 0.030487368 0.33402824
0.52491391 -0.37368783 2.0789804
-0.76784921 -0.15209162 3.3302765
0.33817738 -0.033161543 0.60370064
0.55366731 -0.23134145 2.7109723
-0.39409173 0.019858517 2.5650516
-0.30785799 -0.24113727 2.6376019
1.5264324 -0.27555165 2.15941
-1.0363433 -0.21239081 1.3861036
-1.0038251 -0.2647641 1.385829
0.15039915 0.026769741 0.32620764
-0.586514 -0.033779368 1.256382
-0.2394312 0.05248557 0.36554003
-0.037793577 0.059128277 0.28409433
0.18539131 0.057158601 0.27296972
0.31916475 -0.06525059 0.59442854
0.9168427 0.017453836 1.0494127
0.22951114 0.048174895 0.29040575
-0.50350392 0.044049129 0.98530102
-0.06225425 0.057858728 0.24513292
-1.0640036 -0.27729475 1.4003263
0.3275854 -0.12795353 0.59964323
-0.32256866 0.049382959 0.63355684
-0.024725437 0.029363248 0.15862155
0.23875463 0.049357109 0.29960823
0.21951878 0.04942017 0.29679823
-0.82963622 -0.22614151 1.3840933
-0.18147445 0.058419347 0.40522718
0.39462674 0.031144112 0.56009293
0.17403996 0.033489686 0.33739853
0.31839174 0.030506607 0.6060853
0.1306923 0.044849522 0.33547115
0.01395911 0.052162401 0.39470673
-0.23507404 0.051179342 0.29523659
0.093247831 0.013601558 0.32924128
0.37345624 -0.021845162 0.7834754
-0.018394768 0.058460563 0.25338316
-0.041841447 0.051588289 0.41216326
-0.85536408 -0.23345873 1.4283338
-0.039438188 0.04581961 0.28788567
0.33915675 0.039351333 0.4865694
1.1773875 -0.31782278 1.8148847
-0.99184644 -0.20284104 1.3525195
-1.1669147 -0.42118102 2.6495571
1.5108869 -0.43486425 2.1132693
1.1131731 -0.42390183 1.8208637
1.0913475 -0.020082153 1.3941827
-0.92388511 -0.16256899 2.5507159
-0.50679994 -0.056406848 1.1163616
0.013813019 0.052929237 0.39966726
0.67139041 -0.52197737 2.242619
-1.2611133 -0.15513724 2.4418154
-1.0288997 -0.21431595 2.3938966
-0.71294928 -0.064868018 0.93544531
-0.033532143 0.047489136 0.69426966
0.60712183 -0.30676439 2.1050792
-0.51968884 -0.051371485 1.6020517
0.66949689 -0.40230078 2.0681248
1.0139153 -0.016049918 1.5498643
0.61567724 -0.29918617 2.2119493
-0.90822899 -0.15837282 1.1615467
0.12490654 0.026711458 0.33447409
0.55202591 -0.36548999 2.4769807
0.34502149 0.030237673 0.6208396
-0.82601476 -0.50633937 3.932147
0.5177623 -0.42424667 2.4601707
0.65684628 -0.4192085 2.1796784
-0.23149216 -0.070856504 2.0427709
-0.27598023 -0.28512993 2.7831311
0.65898299 -0.43630621 4.2271152
0.070565343 0.053016201 0.26755762
0.16733283 0.032100186 0.32263088
0.21207398 0.057263359 0.27457523
0.0041962862 0.057734489 0.24933529
-0.17004812 0.059290886 0.27399826
-0.1820215 0.053192936 0.37158918
0.15666312 0.056254152 0.29636526
-0.060249567 0.0560873 0.23476601
0.077817142 0.05642727 0.24611998
-0.18447107 0.058193393 0.36553383
0.79290211 0.017632367 1.1040006
-0.36912274 0.058307298 0.46843719
-0.39461523 0.059838206 0.84817839
-0.11658984 0.058870587 0.34920883
1.0866009 -0.068843447 1.4698858
0.0046051145 0.05532011 0.36109114
0.35791624 -0.12352971 0.58640146
0.14903861 0.055418599 0.30214548
0.32123101 0.018462092 0.61411524
0.23398834 0.0481035 0.29335117
0.14742649 0.057168402 0.25097036
0.15401196 0.0060044825 0.33482122
-0.21298063 0.052691929 0.32567883
0.11483514 0.049633585 0.36728144
0.18504423 0.057822667 0.24910641
-0.17235154 0.057551708 0.29334974
0.25524491 0.080897428 0.38555288
-0.11323214 0.058456365 0.39710522
-0.21603847 0.053765088 0.35442352
-0.19565105 0.050407767 0.35261345
0.26349604 0.042551391 0.4968257
0.08958143 0.058993921 0.24119234
0.20883739 0.056785814 0.25845385
0.96159983 -0.037524723 1.4606919
0.22072673 0.063651428 0.34922075
0.90631938 -0.010344114 1.3899646
0.70096028 0.018099261 1.0474415
0.8908509 -0.20732975 1.3858223
0.083444953 0.057183847 0.291677
-1.0136113 -0.30620831 1.3445454
0.37159812 0.043342605 0.49793911
-0.79832625 -0.23936078 1.3184896
0.12613386 0.026869254 0.33898449
0.30178142 -0.089372657 0.59295845
-0.51204658 0.050256666 1.1279697
0.98230433 -0.040417664 1.43507
-0.84313798 -0.25160459 1.3946857
-0.036360502 0.039985187 0.20701647
-0.89662969 -0.2188651 1.364409
1.3000898 -0.33538243 1.8599977
-0.18546629 0.050070111 0.51914358
1.2861737 -0.33237016 1.8380361
0.014811397 0.053388491 0.41627359
0.17869043 -0.15008932 0.93111467
0.2817288 0.028595649 0.52409506
0.090764463 0.048519723 0.55669069
1.2361355 -0.22400782 1.8801584
-0.19548011 0.052349851 0.45567894
-0.83270121 -0.020060785 1.1049862
0.063685179 0.048523203 0.21860695
0.13879067 0.027997172 0.34083796
0.49226463 -0.3163043 2.443469
0.49867284 -0.17763475 2.1273413
-0.84916282 -0.20628437 1.2991223
0.29852587 -0.018741794 0.56906939
-0.84366 -0.15085876 2.3339305
0.35316813 -0.059947602 0.58824396
-0.73946285 0.039416648 1.190896
-0.34606433 0.031997506 0.7459383
-0.8515892 -0.20869347 1.3011894
-0.86985385 -0.21204466 1.3336697
-0.27132607 0.054029599 0.71518421
-0.6077137 0.046357561 1.3137155
0.52353048 -0.43113422 2.4974856
-0.25838339 -0.37232137 3.0225964
-0.36608481 0.057747509 0.50831366
0.17343521 0.056244377 0.24949598
0.22604841 0.047135465 0.42049885
0.77790523 0.017926 1.0598469
0.33464611 -0.064923689 0.59500742
-0.48997998 0.055931281 0.90685034
-0.053513408 0.057767328 0.24277306
-0.18627644 0.04990834 0.52138042
0.21513122 0.050984569 0.3563385
0.27436715 0.043922156 0.42697763
0.20872444 0.056777839 0.25804138
-0.28802001 0.044007093 0.5623455
-0.17114425 0.060314409 0.28336573
-0.38351732 0.059389457 0.58743191
0.076564968 0.053351752 0.26806307
0.24339128 0.049008176 0.36391783
1.0379299 -0.2343334 1.5484877
-0.92358994 -0.21802825 1.3478718
0.21748275 0.051356532 0.36082363
0.33104515 0.032267496 0.62858343
0.23493737 0.048798174 0.29384232
-0.053426802 0.060286693 0.27626371
-0.033403337 0.037020773 0.22710752
0.17373353 0.056305215 0.24998188
0.12320954 0.034709677 0.34880209
0.53405738 -0.25382444 2.3326697
0.14938879 0.053330094 0.31660461
0.29389727 -0.11045843 0.69919825
0.44098282 -0.14080215 1.0720205
-0.83340013 -0.035161309 1.0498228
0.33485281 0.032324634 0.63929319
-1.0276424 -0.26789966 1.351171
-0.90080345 -0.18953881 1.2522511
-1.0177505 -0.20847246 1.359426
-0.93577671 -0.33351743 1.4941373
0.032206535 0.023280924 0.13626385
0.09503907 0.035935462 0.95728683
-0.76762724 -0.019151904 0.98081827
1.0787398 -0.068603776 1.4083376
-0.066397786 0.063554466 0.53382874
-0.060607433 -0.51532257 3.5283198
0.13054866 0.057246394 0.4446311
-0.83118224 -0.16538817 1.2847562
0.21848536 0.0072484761 0.83752108
-0.12926948 0.058579162 0.36287165
-0.8100878 -0.016461074 1.0779562
-0.1717416 0.043300319 0.25757885
-0.8486563 -0.22577927 1.4966693
-0.18033469 0.058296308 0.39950037
0.095843196 0.052091882 0.54344368
0.59695673 -0.30050662 2.0692186
0.39091158 -0.062884346 0.80522871
0.020982027 0.054339677 0.35298252
-1.0358804 -0.39670539 2.5630579
0.31848025 -0.045401447 0.59302139
-0.97270191 -0.28487524 1.4247994
0.15538245 0.047616296 0.78704691
0.29462904 0.047571726 0.45711279
0.081094682 -0.00020524114 0.26128674
0.30529207 0.064193405 0.39642715
-0.22520924 0.050721772 0.32422495
0.62204695 -0.26828229 2.1544075
-0.19110912 0.061876014 0.35912466
0.1474641 -0.16587314 0.78712845
1.5233585 -0.097374283 2.2809329
-0.20277095 -0.18609139 2.4390368
-0.20589197 -0.18570426 2.4584341
-0.27315247 -0.37029538 2.7424827
-0.26711369 -0.40433416 3.2081943
-0.18413585 0.0016833246 1.5548167
0.91567707 -0.26605812 2.5261412
-0.86730778 0.0052447729 1.4440212
-0.19149709 -0.33095229 3.9814377
-0.31964141 -0.4099271 2.7413964
0.63544381 -0.052635334 2.6389308
0.71545315 -0.01644171 1.3962636
-0.87361205 -0.47543088 2.4825716
1.8548964 -0.10823599 2.482069
-0.82939291 -0.44539136 2.5287719
-0.82561624 -0.40199968 2.5577288
0.26841682 -0.096846186 0.63332033
2.81147 -0.1530374 4.3904605
1.1002674 -0.021955535 1.4106741
-0.61191225 -0.38274157 3.6512265
0.32618976 -0.063843288 0.60208988
1.0552764 -0.021314017 1.4046788
3.7604146 -0.17487803 6.4635291
1.0791041 -0.067021362 1.4074426
-0.84019339 -0.071869276 1.0801044
-0.89972878 -0.45876268 2.3910961
-0.96503997 -0.40905714 2.3725114
0.3192271 -0.29114369 4.2561173
-0.88142681 -0.36095074 2.3761644
1.051156 -0.020669624 1.4006715
0.26972497 -0.079747334 0.65692854
-1.0223105 -0.43812612 2.467011
-0.16169226 -0.52423084 3.9692993
1.2865986 -0.31780186 1.8547792
-0.065474749 -0.5296641 3.6777883
1.0599798 -0.021557339 1.409266
0.32332778 -0.29552957 4.3074861
-1.0022779 -0.419368 2.5015526
-0.92781389 -0.27742329 2.3774333
-1.1638293 -0.40195426 2.639998
-0.067561269 -0.529531 3.7086735
-0.98268867 -0.35266724 2.4348865
0.37368095 -0.27994975 4.0754013
-0.14022434 -0.49897411 3.6856194
-0.80720544 -0.4158242 2.5157976
-0.89598298 -0.25607681 2.7624741
-0.88769197 -0.27188537 2.45119
-1.0626566 -0.42104071 2.4940042
-1.1741571 -0.33399567 2.6401787
-1.0562739 -0.39283329 2.4338584
-0.40835148 -0.40439627 2.8271141
-0.84223092 -0.019567624 1.0848279
1.0524012 -0.067665853 1.4272561
-0.7749517 -0.2433686 2.682652
-0.79964375 -0.39389801 2.8729115
-1.1329792 -0.40638354 2.5616145
-0.81560981 -0.39910132 2.9395385
-0.010309815 -0.24189582 3.8315468
-0.8667171 -0.035936885 1.0693913
-1.5682328 -0.32098967 2.1998539
2.0608997 -0.1722137 6.1621928
-0.52960944 0.042565797 1.1520066
0.20119607 -0.013052575 0.5453639
1.6309175 -0.70020556 4.7245269
0.95896626 -0.057800442 1.4421544
2.8103633 -0.52850556 3.9698653
-0.87569952 -0.48350671 2.5039668
0.12491465 -0.29543677 3.3540864
0.1499002 0.027467651 0.33044338
0.35228723 -0.067009374 0.58937216
-0.85114622 -0.3622165 3.6067533
0.32989454 -0.11603271 0.59054565
0.32114929 -0.06536334 0.59523964
-0.84403872 -0.22370771 1.3731623
0.13743967 0.027623475 0.33486223
-0.84664059 -0.25140581 2.6193709
-0.83129323 -0.43535659 2.5796027
-0.85251021 -0.29829019 2.9930968
0.15078008 0.027725467 0.33217764
-0.99108553 -0.363094 2.277247
0.49499595 -0.031869136 1.2327766
0.33443046 0.028526103 0.58695173
-0.91509366 -0.31772047 1.4562769
0.97730112 -0.043145135 1.429996
-0.8192457 -0.3908864 2.4908223
-0.80618739 0.011965569 1.1464272
-0.75177801 -0.20915499 3.0468178
-0.98320973 -0.36264002 2.5064192
-0.18375087 0.054282121 0.51771021
-0.90656447 -0.35343888 2.4794173
0.98585188 -0.041034438 1.4422278
0.97579467 -0.27860075 1.894228
-0.83038557 -0.071287721 1.0673008
-0.90606189 -0.38718167 4.116127
-0.87963879 -0.15521702 2.4145775
-1.278832 -0.47659424 2.7927394
-0.75677061 -0.57372344 4.3778834
-0.89094114 -0.4013148 4.3133807
-0.7794565 0.026363742 2.2536025
0.14510798 -0.14859632 0.7789526
-0.86703038 -0.27490479 1.4240804
-0.94374216 -0.46189222 2.4958391
-0.9618057 -0.27817738 1.6109252
-0.90192831 -0.25201306 2.3379908
-0.77281642 0.045967922 2.2503519
0.68577027 -0.14369231 1.1290817
1.0962716 -0.12436048 1.8399277
-0.81645119 -0.025042839 1.075984
0.29475689 -0.10053601 0.7615819
-0.82479644 0.017672457 2.2791309
-0.49953854 0.040545017 0.82142305
1.1687741 -0.045918383 1.3999662
-0.70503271 -0.00030764937 2.3795185
-1.1983213 -0.42700872 2.6577168
-0.88941789 -0.25398153 1.3476768
-0.84339511 -0.39680949 4.158998
-0.70372701 -0.19158238 3.2800484
0.14476079 0.055854298 0.33746958
0.15703434 0.054702051 0.30079031
-0.84824526 -0.39815962 4.1719766
0.11705905 0.044349901 0.49458218
0.13729471 0.05689624 0.34441042
0.11941451 0.044923812 0.50583887
-0.69120073 -0.15935948 3.3828373
-0.89518023 -0.017475754 4.0906801
1.1888421 -0.046047516 1.4476609
-0.81049788 -0.29861712 4.0088429
-0.58114576 -0.37661034 3.5105271
1.1271681 -0.048863076 1.4060349
0.29336691 -0.045525022 0.59882736
1.5974483 -0.15616137 2.060987
0.16284353 0.028677762 0.33265257
-1.0904598 -0.22750995 1.4547634
1.0765071 -0.30405301 2.3358235
-1.0064421 -0.56806201 4.5067897
0.32099575 -0.06569577 0.59636641
0.30050993 -0.10640243 0.76319361
1.0845453 -0.067929603 1.4110088
-0.8330003 0.024909679 1.0759997
1.3105806 -0.30226138 1.9029002
0.19066948 0.054188669 0.37241602
-0.87129378 -0.28998768 1.4272089
-0.11285907 0.057270113 0.3840661
-1.1858293 0.026118986 1.5760388
1.1180021 -0.043431327 1.3999896
-0.56984258 -0.37733594 3.4928765
-0.89822936 -0.24126533 1.4014664
0.35273755 -0.067408964 0.59073687
-0.28951347 -0.37510827 2.7100677
-1.107674 0.026337542 1.4352422
-1.0218871 -0.43961725 2.4703994
-0.84637487 -0.46908638 2.4991865
-0.04068619 0.051305614 0.65477848
0.2946915 -0.045935392 0.60420656
0.35216361 -0.10771143 0.5584774
0.35103899 -0.10750812 0.55722857
-0.9186554 -0.15336809 1.3046217
0.85339594 -0.00765495 1.2625155
0.9324975 -0.078278139 1.4306445
-1.1539183 0.027850252 1.5208693
0.28108239 -0.057288989 0.60238123
-0.80910742 -0.41136917 2.5410018
-0.042977631 0.05089245 0.63374472
1.3661124 -0.26301682 1.9446902
-0.71438551 -0.10392693 3.6729469
-0.76776814 -0.38777757 3.9243813
1.462238 -0.33888483 1.7182422
-0.51033139 -0.048897982 2.972506
-0.85244274 -0.16967225 1.3183317
0.14539832 -0.14303106 0.76323843
-0.82442832 -0.25447425 1.3757844
0.28270346 0.045016248 0.43368673
-0.82923329 -0.078925803 1.1053181
0.089141905 0.051804453 0.60351658
0.1609953 0.063387305 0.81469774
0.41866505 -0.03018304 0.78570509
-0.86526132 -0.26475465 2.3952971
1.2914362 -0.33498192 1.8144317
-0.39039963 -0.28723976 2.6045313
0.125112 0.044926092 0.35144138
-0.17207688 0.00085987896 1.0876532
-1.0106813 -0.42506903 2.4870853
-0.56148458 -0.35845551 3.3499341
-0.84587359 -0.074489929 1.0608459
-0.92807865 -0.25103754 2.400281
0.40472829 -0.074240856 1.2797937
1.1176282 -0.047192208 1.3915224
0.11877447 0.024353484 0.33972549
0.29633993 -0.041013204 0.62650824
0.16003734 0.055466965 0.30491066
-0.34440011 -0.42959625 2.7866349
-0.758623 -0.40052617 2.5091605
-0.17043477 0.020355158 1.077301
0.50882256 0.03896283 0.88858843
0.0417974 -0.15488249 0.7953105
0.27599585 -0.090349354 0.70491314
-1.0340755 -0.27448487 1.427249
-0.8380568 -0.064612471 3.5686297
0.33730143 0.029892001 0.59464216
-1.2905689 -0.17468876 2.7039418
-1.1011134 -0.31616193 1.5513496
0.15160477 0.056426417 0.31124449
0.14497638 0.055723384 0.34365892
-0.92588913 -0.28912705 1.3528705
-0.11188489 0.056989025 0.38538313
-0.12982547 0.056846365 0.36837387
-0.83143985 -0.036988594 1.050581
0.7057445 -0.42507541 4.8965354
-0.66803169 -0.0025043562 3.0437098
0.3559196 -0.072535045 0.589293
-1.0122212 -0.040339574 1.3342724
-1.0128987 -0.21177638 1.4150553
-0.70418692 0.034068443 2.4599833
1.102237 -0.021684512 1.415823
-0.81616318 -0.064885147 3.4632893
-0.20337641 0.050581411 0.31621838
0.3314147 -0.062329389 0.58693838
-0.80957127 -0.074654795 1.1064434
0.17053211 0.023962999 0.33780289
3.1179094 -0.47868153 3.7420979
1.170277 -0.30030176 1.7889357
-0.055074751 0.054945186 0.68728447
-1.0543774 -0.19104365 1.3536968
-1.2603123 -0.45672998 2.6691027
-0.82974207 -0.077241808 1.1050391
-0.45644361 -0.19741926 2.6166902
-0.75747204 -0.39824876 2.5105281
-0.92468035 -0.32206249 1.4652138
0.14407665 0.022159146 0.33437681
0.7133466 -0.42537415 2.2207351
-0.83294773 -0.017405268 1.0501428
-0.95411944 -0.30636656 1.3712511
1.2909822 -0.32046816 1.8635964
-0.14811015 0.045129675 1.0408101
0.28428614 -0.15879247 2.9365263
-0.79574299 -0.20693532 3.1146183
-0.54397559 -0.10681199 1.6535182
0.87600088 -0.011698667 1.2793908
1.4962157 -0.30285898 1.7142119
0.17657554 0.047464259 0.3512702
0.11929816 0.052433714 0.46881437
0.23545641 0.048730254 0.29481888
0.1501562 0.02835088 0.32553387
-1.0550396 -0.24101946 1.3343592
0.56995213 -0.39581034 2.2516298
0.12283307 0.044590041 0.51608372
0.12531495 0.029380411 0.33538246
-0.50756598 0.041539442 0.83646488
0.56989932 -0.19079104 2.451086
-0.63883877 -0.17224744 3.7706242
-0.16680211 0.039690025 1.0702343
-0.39549279 0.026860204 1.085464
0.0066360235 0.054973073 0.36757898
0.31815279 -0.05410558 0.59154701
0.043953717 -0.1852501 0.80606699
-0.86701775 -0.18476209 1.3806467
1.1679903 -0.30645549 1.8191376
-0.9845612 -0.013703052 1.4054275
-1.0485512 -0.28781003 1.392272
0.121149 0.054091144 0.39512348
-1.3119783 -0.44865558 2.6800714
-1.0497427 -0.23847342 1.3241754
0.22499382 0.046889171 0.41908407
-0.92776501 -0.48463765 2.5111947
1.1525193 -0.38315094 1.8052201
0.58798456 0.033791594 0.80328512
-0.3391853 -0.16348583 2.4879584
0.32308793 -0.12920806 0.60804844
0.58955312 -0.41087675 2.3359175
-0.88278174 -0.27184626 1.3594337
0.0042124987 0.056673624 0.24573612
0.68165612 0.020254798 1.1367784
-0.1807338 0.05563961 0.52876472
-0.34789646 0.052009128 0.80585575
0.31668299 -0.045502916 0.67763281
1.3735638 -0.40531579 1.8462939
-1.0620632 -0.19269726 1.3637404
0.31812179 -0.10746575 0.60000896
0.041552961 -0.16042709 0.82196236
-0.81716204 -0.034220807 1.0243754
0.33690858 0.029440355 0.60355759
0.34864801 -0.065754823 0.59027719
0.99025583 -0.022804052 1.4467101
-0.37583125 -0.05105298 2.2991266
-0.64727497 -0.096648656 3.373641
0.65546942 -0.39871985 2.1552858
-1.0797266 -0.27341995 1.4076171
1.1364923 -0.026190497 1.9794345
-1.0678842 -0.23162147 1.3467822
-0.84495986 -0.014496073 1.0701947
-0.22392738 0.050003126 0.32120991
-0.15185857 0.046029896 0.42077827
-0.20094919 0.052329361 0.35521126
1.1045827 -0.023571394 1.4178996
-0.8408972 -0.34222236 2.4659657
0.34427285 -0.061628528 0.57570696
0.11932462 0.024642933 0.34029007
-0.19251323 0.061953463 0.45202684
0.018328726 0.054439146 0.3630662
-0.12603384 0.057292588 0.35151625
-0.2349627 0.051451817 0.29524708
0.012872696 0.057384469 0.25050879
-1.0648446 -0.25448895 2.391798
-1.2681122 -0.26730275 2.5736156
0.15130752 0.027446726 0.33198881
0.45631182 0.038235031 0.78919172
-0.18011105 0.05791086 0.40070248
-0.37524182 -0.39489964 2.735209
-0.12545645 0.057527222 0.34865284
0.3535887 -0.068966679 0.59209204
0.5475235 0.032564756 0.73138142
0.32033336 -0.06116841 0.60055637
0.12533933 0.021656778 0.34933329
-0.16460985 0.050452754 0.51473522
-0.12083113 0.058677755 0.38155556
-0.88681483 0.039303344 1.1265664
-1.0927128 -0.21801218 1.3601766
-1.003886 -0.30345616 1.3801484
-0.87740231 -0.13959268 1.236146
-1.0251675 -0.21485373 1.4354453
0.32175046 -0.035290204 0.66719055
0.95895493 -0.037127785 1.4586396
-0.80002141 -0.30192703 3.9836831
0.11979306 0.02332391 0.34102345
-0.761096 -0.34995842 2.6397481
-0.99734259 -0.28145587 1.4051738
0.94489968 -0.078368865 1.4536834
-0.95803261 -0.46529928 2.5492697
1.3929387 -0.42490968 1.8536468
0.099704623 0.054029197 0.60187626
-0.16419959 0.052841783 0.74481344
1.289263 -0.23216283 1.9013953
0.53223228 0.035373606 0.74240303
0.95362604 -0.0788 1.4689736
0.0058933496 0.055063665 0.36523581
0.31715465 -0.053938553 0.59204388
-0.8807497 -0.15674573 2.4507723
-0.89427996 -0.25571808 1.3557324
0.86524355 0.014033431 1.0697803
1.1161056 -0.40030864 1.7756062
1.155107 -0.35085872 1.7940726
0.1231491 0.044795401 0.34413481
0.13544917 0.028178316 0.33167934
0.020477533 0.055263191 0.36442947
-0.37689459 0.058722988 0.57777691
-0.050638914 0.053308025 0.66849422
0.29562801 -0.045623876 0.60802412
0.32862252 -0.038642444 0.62291431
-0.20007151 0.049681507 1.12746
0.17081529 0.023933776 0.33907557
0.24143744 -0.0044225231 0.4986763
-0.86864579 -0.21305534 1.3142061
1.233467 -0.27846137 1.839767
-0.17062962 0.051663205 0.51275444
0.22100013 0.049979117 0.2994771
0.16219771 0.055470239 0.31004
0.55674005 0.039382905 0.77876282
1.0919639 -0.37498912 1.7682691
0.9875555 -0.039131261 1.4416823
-0.1098491 0.056409296 0.37862921
1.1762849 -0.35634249 1.8292451
-0.66919041 -0.10798048 3.1057739
0.61812782 -0.4462401 2.2344947
-0.80900955 -0.26040897 2.6279721
0.46910429 -0.085539289 1.5922794
0.35135096 -0.069557734 0.58976507
1.1621414 -0.34578076 1.7881227
0.86399817 0.01479912 1.0644889
0.16358531 0.027021404 0.33350039
1.1936189 -0.22491369 1.8101115
0.94879186 -0.076953001 1.3561158
0.35276377 -0.037751265 0.70163345
0.31687349 0.033910077 0.58860064
-0.27351284 -0.37970459 2.7428932
-0.26128173 -0.27352712 2.6405959
-0.95239425 -0.46417996 2.5316553
0.23688912 0.048944253 0.29705667
0.54618359 -0.19014284 2.3396339
-0.12213254 0.060043156 0.2509532
0.48845267 -0.23828077 2.5183301
0.33729327 -0.06582661 0.60144281
0.16009784 0.05612731 0.3454957
0.45714307 0.037544318 0.73161697
0.14514875 0.022185663 0.3362751
0.13691819 0.047165245 0.77773762
1.3257067 -0.29786351 1.8971229
1.1864549 -0.21419224 1.8000374
0.17088979 0.024063205 0.33861828
-0.049435496 0.058175903 0.33659124
-1.0047007 -0.26025912 1.3092942
0.153386 0.053433668 0.324965
1.3165206 -0.3016023 1.9106922
-0.16409796 0.042268857 0.93754911
0.39266944 -0.077302344 0.66684532
0.27804041 -0.079311289 0.69260693
0.34132397 -0.06232883 0.60453606
1.48136 -0.30006003 1.69946
2.7852542 -0.078646041 3.2939596
-0.83747697 -0.049137078 1.0768967
-1.0534973 -0.30838677 2.4424882
-1.0305169 -0.1697453 1.2997899
-0.50815952 -0.056370325 1.1214342
-0.60175109 -0.16773707 3.0529561
1.4929379 -0.3787277 1.7785492
1.1354914 -0.042160377 1.40063
1.8906391 -0.054167174 2.177876
0.32620472 0.028510723 0.5833869
0.12537265 0.044254802 0.52254629
0.078813374 0.057309575 0.25234604
-0.20324767 0.05134682 0.31112719
0.15778261 0.056210209 0.29955864
-0.83046234 -0.017042737 1.0677686
-0.5415777 0.033891134 0.81871128
0.11937582 0.019476721 0.37981081
0.013093293 0.058064297 0.25136423
0.33286428 -0.050278381 0.57946157
0.21510893 0.050766364 0.35635805
0.11614406 0.05027622 0.37395334
0.046099663 -0.15898189 0.78532219
-0.5024755 0.040542599 0.82740068
0.33693475 -0.108103 0.59806299
-0.17347664 0.053977892 0.64928627
-0.34574407 0.052194219 0.80299282
