# .PCD v0.7 - Point Cloud Data file format
VERSION 0.7
FIELDS x y z
SIZE 4 4 4
TYPE F F F
COUNT 1 1 1
WIDTH 570
HEIGHT 1
VIEWPOINT 0 0 0 1 0 0 0
POINTS 570
DATA ascii
0.96012861 -0.045790784 1.2719741
-0.28166783 -0.33149076 1.6728754
1.9245334 -0.1112188 3.5508533
-0.57128286 0.0058973227 0.73008204
0.52881128 -0.13002273 2.2510056
-0.26639327 -0.29033765 1.6078513
-0.24948871 -0.32433715 1.7882967
0.343319 -0.21271138 3.9407182
-0.24999961 -0.34250709 1.7455082
0.22032779 -0.028343027 2.112752
-0.31796053 -0.19432098 1.1456711
-0.5716812 0.0053001493 0.7309432
-0.5795936 0.033612352 0.73776579
0.64820814 0.018004432 0.87555885
0.57880324 -0.10898 3.716146
0.35703009 -0.22096562 4.1747079
-0.2606923 -0.29503378 2.0272856
-0.24748287 -0.2451725 1.4623213
0.34462708 -0.41386572 4.5977416
-0.27293253 -0.26153782 1.718524
-0.52580392 -0.14571913 1.3048129
0.30377004 -0.15845145 0.97047758
0.21757519 -0.028840562 2.9781394
-0.44639051 -0.16455364 2.1764622
0.36996228 -0.22717687 4.3428497
-0.4992013 0.016213106 1.2587154
-0.50010204 0.023221448 1.2620885
-0.53053117 0.021312566 1.2647243
-0.27827823 -0.23235595 1.3532081
0.37400034 0.011485616 1.94841
0.44652647 -0.1988073 2.6520514
0.36119431 -0.20671122 4.2324319
-0.38230979 0.057183832 0.68811035
-0.38306981 0.057468764 0.6846807
-0.54391938 0.021187676 1.0204401
0.31041667 -0.1612429 1.0073946
-0.54755062 -0.12009002 1.3250675
-0.41903222 -0.081519477 1.8214071
-0.54907703 0.020306561 1.3098817
-0.54326552 -0.11753941 1.3087409
-0.56907094 0.033426676 0.74113584
0.91013342 -0.070897855 1.8928316
-0.36115444 -0.19556643 1.1655223
-0.6568799 -0.24573153 1.6071239
0.34980649 -0.38207635 4.201088
0.69721794 0.024774671 1.2125442
0.69291079 0.023684971 1.2072766
1.4204587 -0.15891291 1.6684723
-0.61942911 -0.058444917 2.130857
-0.34582716 -0.15811619 2.1061792
0.43082839 0.027841631 1.1683302
-0.79015899 -0.097540602 1.8480504
-0.18386549 0.048554122 0.75892806
-0.43633115 -0.19034556 1.9826272
0.24823761 -0.2867482 2.9576917
-0.2870082 -0.20357604 1.3342204
-0.4229992 0.034692787 1.5528827
-0.51335669 -0.020733917 3.0679531
-0.36554065 -0.18910097 1.1593499
-0.50832486 -0.22743052 1.2388728
-0.45038593 -0.15824424 1.1553948
0.66084158 0.0069592595 0.83653975
0.42009813 0.010605788 1.1573107
-0.38383582 0.058030844 0.5624392
0.38800052 -0.16196612 1.0998368
-0.49665689 0.01430675 1.2575023
-0.27124238 -0.23113322 1.5378809
-0.53258467 -0.22471014 1.2669895
-0.55449247 -0.056431264 0.72965884
-0.51152611 0.025505446 1.0109687
0.65846074 0.0074193217 0.83052635
0.33913678 -0.27894279 1.7884879
0.63429999 0.03362089 0.8767612
-0.56902468 0.005018536 0.72755718
0.2339499 0.052339926 0.64592457
0.13568521 -0.017149048 2.0999403
0.4237937 0.030325875 1.1416504
-0.57974374 0.013596145 0.92578816
0.39454576 0.041605547 0.76022291
-0.5620445 0.023531113 0.9286747
-0.19533715 0.057031088 0.58237195
-0.48701692 0.0049074944 1.2689748
0.31628522 -0.14052349 0.97604156
-0.29180384 -0.29084948 1.7894831
-0.238821 -0.29264966 1.7175324
0.17466724 -0.028198211 2.8751845
0.32524049 -0.30012068 1.7774863
1.2822001 -0.29565862 3.1684928
-0.5789324 0.0018794946 0.93536115
-0.38612077 0.05858919 0.5670414
-0.18096223 0.049085602 0.75622821
-0.28420395 -0.29579526 2.4324999
-0.35064003 -0.25217995 1.1264155
-0.28969452 -0.2808519 1.2343986
-0.53501254 0.0057265926 1.3309488
0.43447837 -0.016984979 1.7241721
-0.29153112 -0.2870281 1.7672405
-0.60025632 0.005452862 0.96022439
0.38066748 -0.18775132 0.94133186
-0.54758048 -0.12103669 1.3200316
-0.45756763 0.037263434 1.3283803
0.30004832 -0.19515292 0.99491
0.15296566 0.056891691 0.39733171
0.98741174 -0.14791515 1.5622261
0.49915648 -0.17966688 2.0726767
0.22981799 0.038869381 1.2881632
0.29925445 -0.24709094 1.9588377
-0.51404715 0.010062413 1.2930129
-0.20100021 0.054870017 0.38907886
0.38228917 0.041106343 0.73058653
-0.86248672 -0.17637433 1.2498736
-0.57767141 -0.13900314 1.393739
-0.19130188 0.055557571 0.65643668
-0.47009027 -0.16478159 1.2142537
-0.53354895 0.048223071 0.69605207
-0.57695007 0.012648282 0.91429067
0.50885475 -0.18392013 2.0914903
-0.43052697 -0.22060455 1.2337859
0.39824879 -0.15026996 0.96659112
0.3665145 0.040289536 0.6584897
-0.31209493 -0.37276065 1.7288744
0.15490431 0.047985837 0.6392858
0.31004077 -0.17665404 1.0468798
0.03701023 0.053973526 0.76375723
-0.24380887 -0.23530254 1.9889061
-0.36470076 -0.16914539 1.469384
0.3295646 -0.22634402 1.3419054
-0.32000309 -0.19576791 1.1539838
-0.21883336 -0.17182255 1.6196959
-0.51876295 0.054719821 0.78305531
-0.21951735 0.055163413 0.29879975
-0.44931036 -0.18080153 0.84527755
0.16726992 0.0530474 0.71465015
0.38722053 -0.16283716 1.0994072
0.90274477 -0.076252691 2.6523714
0.395713 0.027353782 1.1160035
0.20329648 0.057352468 0.38972044
0.304694 -0.14644423 0.98585796
-0.48778439 0.014196687 1.3422606
-0.042927958 0.053209402 0.55805564
0.51408643 -0.15610698 1.8104129
-0.42465013 -0.21800432 1.2124422
-0.40565673 0.032617368 1.6197138
-0.56796235 -0.17520174 1.4098845
0.31970114 -0.18039989 1.7890217
1.5113416 -0.36717176 4.0226331
-0.29412305 -0.37065098 1.760335
-0.47234631 -0.11756696 1.2489793
-0.48930693 -0.068137258 1.2753401
-0.12778857 0.032431632 1.2104316
-0.41810077 -0.034900017 3.0671759
1.4794204 -0.43782827 4.0689869
-0.056076504 0.057434633 0.51613021
-0.42290258 0.032776713 1.552654
0.31894669 -0.1405156 0.98726797
0.13021624 0.042304032 1.0316641
0.44805041 -0.18061933 1.9572983
-0.43894213 0.026377821 1.4443548
-1.0120589 -0.096088953 1.3442643
-0.8904444 -0.09532024 1.6690865
-0.039875366 0.056980923 0.81802988
0.33781031 -0.26108196 1.824127
-0.45894396 -0.19053189 1.037395
1.0762635 -0.2759774 2.0143428
-0.48189855 -0.12030657 1.2840095
0.30880004 -0.21590257 1.0355299
0.25539255 0.054374494 0.34051061
-0.52503049 -0.21927388 1.2383916
-0.4995991 0.026465949 1.2598484
-0.4840591 -0.13672738 1.2167449
-0.52032405 0.11489666 1.3308268
0.63013119 -0.18904589 5.428185
0.30513507 -0.46018106 4.6884604
0.29413211 -0.45967078 4.5943723
0.39632407 -0.21212244 0.95464134
-0.18946904 0.046295404 0.76545143
-0.21774328 0.047157325 0.58428407
1.0767468 -0.26514924 1.996088
0.34716684 0.030347206 1.0195334
0.36308622 0.043542579 0.62252045
-0.23738647 -0.32135257 1.7189667
0.74496078 -0.025623629 1.3110456
0.075396426 0.056739986 0.34750175
-0.30795115 -0.26051876 1.536391
-0.33985385 -0.28615013 1.7136018
0.25189206 0.048812941 0.79981923
-0.4711948 -0.11798206 1.2528653
-0.63196564 -0.055820301 2.1294661
-0.47346711 -0.27990726 1.273618
0.25035244 0.049221531 0.79478693
1.1653793 -0.24616188 2.2429566
0.39862227 0.013930025 2.1337214
0.38871086 0.0079470985 1.1165192
0.32827193 -0.20682019 1.0066183
0.58525372 -0.04748974 0.71283412
-0.78832334 -0.11028667 1.7599158
0.33038384 -0.20690486 1.0108495
-0.20068944 0.054980844 0.38825488
-0.52369004 0.044050626 0.72805333
0.7480284 0.022664577 1.6231956
0.18180177 0.052821159 0.63122535
-0.54961538 0.019226393 1.1314323
-0.12036175 0.060389981 0.27584815
1.4587448 -0.20025386 3.8396001
0.093824156 0.055202715 0.60142064
-0.47376359 -0.11960962 1.2613099
0.10464717 0.050844908 0.75791883
0.019714795 0.052030783 0.55846214
-0.30756816 -0.21892516 1.1918502
-0.21895525 0.053727772 0.3974545
-0.36904019 -0.19681135 1.1835189
0.3820146 0.042249881 0.60182929
-0.088018842 0.049372293 0.64440298
-0.51288056 -0.19558473 1.1854603
0.15308881 0.053092461 0.54844761
-0.37999535 0.057224445 0.6841855
-0.22041762 0.054127015 0.40086246
0.35521227 0.047659338 0.4743166
0.81123829 -0.14337845 1.0313623
-0.32522658 -0.23653242 1.1203232
-0.20031911 0.057385892 0.30131412
0.3894003 -0.30390453 2.0358076
0.51569921 -0.15515338 1.2291625
-0.20049176 0.049006656 0.56732392
-0.53996128 -0.11605279 1.2985852
0.44278511 -0.17854249 1.9092681
-0.24653658 -0.26341045 1.3700671
0.22665107 0.053528935 0.34425139
0.22689113 -0.25159749 1.1569061
-0.38172904 -0.22642332 1.1663749
0.77561831 -0.17493561 2.204689
-0.55340493 -0.056133777 0.72824717
-0.49650282 0.01580067 1.2565017
-0.59142363 0.025024507 0.91690302
-0.31698346 -0.19375767 1.1467886
0.41308486 -0.127817 2.8228741
-0.044807695 -0.18886501 2.2647152
0.22899288 0.054225512 0.35045505
-0.28284347 -0.24850231 1.3257742
0.19302222 0.056149669 0.67576361
0.46382979 -0.19411723 1.3304644
0.17705807 -0.051910385 1.9201281
0.36132297 0.048353158 0.48700047
0.14566225 0.060698085 0.25865459
0.13242236 0.058257125 0.33025384
0.32229605 0.047763564 0.51223302
-0.21758306 0.054942291 0.29603767
0.30037168 -0.19418906 0.99330997
-0.84263718 -0.18112604 1.4371128
0.23414165 0.052939322 0.64622164
-0.46951109 -0.097646803 0.68024898
-0.064920612 0.060377367 0.26252294
-0.20148137 0.052250423 0.47133636
-0.54013932 0.035988025 0.88620424
-0.20299354 0.049738303 0.34908342
-0.46774292 -0.27655885 1.2568469
-0.20005476 0.054832317 0.38616872
-0.5686959 0.025566712 0.79285336
0.73605192 0.023660006 1.5901647
-0.31271282 -0.22591883 1.220068
-0.058786996 0.058535285 0.37044716
-0.5258196 -0.16637966 1.2907002
0.18275964 0.054859605 0.64843655
0.54024005 -0.18053901 1.4388132
-0.42023391 -0.21533863 1.1998475
0.80757773 -0.046792716 2.0145435
0.2976869 -0.15450223 1.1206255
0.80953026 0.021170475 1.7933285
-0.19608644 0.053511709 0.55360317
-0.059633382 0.058251455 0.36658216
-0.54332578 0.059805118 0.68042707
-0.46063221 0.016252024 1.5699108
-0.25680891 -0.27715325 1.2653811
-0.52058882 -0.045926869 1.754081
-0.061036341 0.060839042 0.5574007
0.38592881 -0.1653607 1.9100285
-0.042051695 0.054851383 0.60053635
-0.49933058 -0.17677447 0.89255476
-0.25897691 -0.27882352 1.2725897
-0.11907541 0.056225196 0.77819967
-0.52761626 -0.1732409 1.3146031
-0.25780928 -0.24322549 1.2743886
0.64844251 0.025281703 0.97623658
1.2528712 -0.040631838 3.1181459
0.33569801 -0.25334817 2.5423999
0.22695091 -0.26140064 1.1313872
1.2820166 -0.17423293 3.7635956
0.56047928 -0.10231718 3.5897074
-0.39909285 0.0990154 0.97651625
-0.45408249 -0.10177764 3.3555489
-0.43913639 -0.20351529 1.140049
-0.10987195 0.034314208 1.3224683
0.20432034 0.057833187 0.39025545
-0.20233566 0.04981295 0.57562375
0.24455893 0.052322663 0.30717874
-0.066158734 0.061880298 0.27099586
0.39288789 -0.20963407 0.94356418
-0.073000662 0.060227841 0.26152587
-0.54177034 0.034000564 0.68371153
-0.53267741 0.048747309 0.6955719
-0.19586712 0.054236159 0.49456096
-0.21047306 0.051270142 0.60453892
-0.058312781 0.058648348 0.37711215
0.077103086 0.058223024 0.36595893
0.17131591 0.056954451 0.60084105
-0.19242677 0.057764336 0.70310926
-0.38683563 0.058880761 0.56698799
-0.46483767 -0.18608929 0.85000086
0.24442363 0.052107733 0.30679679
-0.073858522 0.060898609 0.26689959
0.24305394 0.051575907 0.30444002
-0.8502748 -0.17846911 1.377898
-0.058860309 0.058203481 0.37165689
0.34309757 0.030169021 1.0035069
-0.52717894 -0.1673393 1.2889977
0.73045659 -0.025036452 1.4269176
0.75584674 0.015436666 1.6756754
0.79256141 -0.046099767 1.9752893
0.32316062 -0.15670122 1.0691144
-0.059533365 0.058997631 0.52905583
0.73208344 0.020236114 1.5931895
1.0933788 -0.27715898 2.0667844
-0.085206635 0.049935944 0.66380835
1.5883887 -0.38774762 3.6000686
0.039275713 0.053674884 0.73631668
-0.18544593 -0.23384756 1.2738523
-0.091349252 0.053123787 0.71454954
-0.30832228 -0.2513926 1.1527202
-0.31576067 -0.22587445 1.7531724
-0.51188695 -0.21657075 1.2134321
0.45011851 -0.052610524 2.0590119
-0.31476745 -0.22312081 1.2259042
-0.041444413 0.05257304 0.55201888
0.38612273 0.02855519 1.0827255
-0.35595167 -0.25670278 1.9897637
1.7849861 -0.28458822 4.2914467
-0.41886485 -0.18804066 1.2525263
0.28600419 -0.37725389 4.0259862
2.5270143 -0.60052001 6.8168931
-0.70170069 -0.084304467 2.6332932
-0.34134656 -0.29839399 2.599339
0.63519216 0.034436755 0.91494989
-0.24244714 -0.41287482 3.6602201
-0.20918995 -0.4245882 4.1382642
-0.24243948 -0.33911183 1.710242
-0.32385856 -0.36966345 3.353385
0.66193819 0.0350447 0.91210055
0.49882752 0.023131985 0.70218635
0.083902545 0.053683281 0.46367097
-0.12188775 0.061292246 0.28117609
-0.34677199 0.05263235 0.61150289
-0.76196015 -0.08678101 1.412174
0.35635614 0.047583338 0.47619367
0.36545712 0.048262134 0.48884654
-0.51798159 0.055016339 0.75005198
0.26733243 0.041832212 0.59623933
0.1871154 0.062368587 0.67897654
-0.57177603 0.034829333 0.72386694
-0.4611907 -0.16883658 0.89063573
-0.51590073 -0.17099987 0.73228049
-0.20771021 0.055471435 0.36896062
-0.092189901 0.02596876 0.25482345
-0.23734111 0.045579277 0.47278881
-0.046105228 0.061748542 0.27784705
0.51906103 -0.17237897 1.0839791
-0.21975183 0.060438156 0.35709071
0.68589413 0.017901853 1.0855885
0.37127948 0.041319523 0.6737082
0.35079613 -0.12514071 0.71074653
0.22982016 0.057225838 0.29245949
-0.87656796 -0.18545832 1.3489141
0.15512097 0.057931185 0.4013989
-0.1357384 0.035285749 0.37503934
0.23361006 0.055770036 0.27388167
0.37621826 0.041459784 0.68705559
-0.20399189 0.052047156 0.42221022
-0.21171904 0.051125862 0.45994544
-0.20281821 0.054961264 0.32583165
-0.21650627 0.054733194 0.28442478
0.26823783 0.041626871 0.59838247
-0.20625705 0.055042095 0.36626053
0.22571447 0.053057276 0.34471202
-0.31651577 -0.25943142 1.1546099
0.46854734 -0.22207385 1.0139208
0.39646402 0.0064522047 1.0820649
0.26829529 -0.23517725 1.01862
-0.1100456 0.057341523 0.61186695
-0.49903464 0.039569013 1.0952499
-0.47806078 -0.16347247 0.79824519
-0.50360036 -0.14556018 1.2837982
-0.19087729 0.051399335 0.62445521
0.46870854 -0.2243315 1.0123219
0.44497398 0.037499398 0.78632474
-0.52839553 -0.18697031 0.88944197
0.67594135 0.026832053 1.1125863
0.46772075 0.03634689 0.79740477
-0.42435467 -0.22206219 1.0873671
0.4788579 -0.20339575 1.256978
0.67520118 0.022625105 1.1807079
-0.51752263 -0.20681669 1.2486923
-0.41844225 -0.14581701 1.1646774
0.55347222 -0.22333863 1.2023358
0.078368969 0.058838598 0.36430621
0.58852702 -0.036607109 1.1150563
0.46190894 -0.19520754 1.142329
0.50424403 -0.17440581 1.1165609
0.38445336 0.023522217 1.0821695
0.077231921 0.05798465 0.3635118
-0.11471085 0.054999884 0.74271941
-0.52207845 -0.17562759 0.78970909
-0.1056908 0.055311389 0.58494902
-0.10596427 0.055467837 0.59326625
-0.45981908 -0.16592424 1.5716257
0.25398222 -0.26162842 1.3412986
-0.19365111 0.050864577 0.33175349
-0.18587458 0.055628158 0.46896482
0.72375643 -0.018566886 1.362875
-0.46381187 0.033181161 1.2595224
-0.4123525 -0.08523903 1.7924004
-0.4528169 0.012280568 1.6293118
1.2276568 -0.12842537 2.5527005
1.45017 -0.25244632 2.947547
0.66555482 0.035598923 0.94046402
0.36283669 -0.0059992503 2.068656
-0.62305093 -0.056200489 2.1236639
0.40203393 0.027518526 1.1317647
1.4071395 -0.24647617 2.8487892
-0.33156821 -0.19959503 1.2963781
1.1772227 -0.034738503 2.9517393
1.4245684 -0.30141935 3.6923928
0.68520766 0.036339659 0.98383236
1.1856351 -0.037423149 2.9653316
0.36994612 -0.10809766 1.8537738
-0.50534797 -0.11937255 3.1624308
-0.022387795 0.046815425 0.72859693
-0.48676825 0.0070376452 1.2959008
1.5271358 -0.24577931 3.5372114
0.094840832 0.056399979 0.60698223
1.5377047 -0.26160878 3.3435545
-0.82169539 -0.19251394 1.785924
0.35180977 -0.30106488 1.8875499
0.66914582 0.02835216 1.0376503
-0.46870416 -0.019401973 2.3896699
-0.5735411 -0.23203638 1.4059494
-0.52518594 0.018481107 1.2038414
-0.8733573 -0.1862141 1.3449125
1.2296582 -0.090740889 2.4309955
-0.90540117 -0.094997093 1.572161
-0.50810874 -0.14156899 1.2635648
-0.36894551 0.05643668 0.54063702
-0.063620888 0.059955239 0.25850701
-0.5446049 0.029825168 0.83376789
0.42137089 0.031479001 0.71046638
-0.20582327 0.05658548 0.39946294
-0.53298277 0.030163258 0.81292391
-0.55660248 0.001503041 0.89843583
0.5578807 0.030054787 0.76289916
0.20615223 0.057860881 0.39653373
0.13996661 0.057481982 0.31809998
0.13633141 0.050955735 0.35030127
-0.10692468 0.060783185 0.63888001
0.076438196 0.05856058 0.29317641
0.21169791 0.060707636 0.280761
-0.10224528 0.053569518 0.55431437
-0.57003582 0.024330199 0.71433282
-0.22602984 0.053230517 0.35304403
-0.78997278 -0.18105407 1.6299894
0.49960235 -0.23307255 1.0438223
-0.50983369 -0.18354988 0.82976317
-0.20051676 0.055200074 0.38694477
0.074707724 0.060074359 0.25764465
0.24946618 0.048737422 0.78916407
0.69586205 -0.0012063421 0.99814105
-0.18641686 0.052511051 0.83018064
-0.20874596 0.055730954 0.2695322
-0.48167324 -0.18972741 0.82348204
0.24264231 0.051682808 0.30330133
0.23054668 0.0535613 0.3767035
0.23098671 0.055385664 0.26954675
-0.20738035 0.050087877 0.48223686
0.13758999 0.056527264 0.31120658
-0.36205667 0.054320239 0.64986277
0.25310099 0.050954238 0.45284605
0.30565062 0.041321695 0.56205392
-0.46994108 -0.1669192 0.90757036
-0.23344764 0.054976981 0.39972901
-0.2029188 0.055639252 0.39254427
0.54218906 -0.17774394 1.0259104
0.37594828 0.041338868 0.59067559
0.23238727 0.05571796 0.3426075
0.43968856 0.016484383 0.72915983
0.43452024 0.03729305 0.76601171
0.12254394 0.054181643 0.30160308
-0.036748596 0.057550352 0.40464616
-0.46401387 -0.1648549 0.8948772
-0.059456237 0.059932113 0.38807058
-0.45790988 -0.16232318 0.84656048
-0.4906494 -0.067147642 1.2812371
0.56790251 -0.18798104 1.0781932
0.51232082 -0.21817552 1.3517082
-0.14370924 0.040324774 0.60735035
0.5356794 -0.19833535 1.0423987
0.19127768 0.055372439 0.65946794
-0.093188606 0.057861857 0.36718392
-0.5290944 0.02166702 1.2164881
0.23963392 0.04970111 0.72100472
-0.45502579 -0.091549978 1.1977291
0.18299061 0.054496426 0.69620919
0.33330533 -0.1466815 1.037288
-0.58125871 0.0064316243 0.92161846
-0.092880629 0.055612586 0.7497704
0.16952345 0.052019659 0.71776009
-0.12955859 0.035343349 0.52816963
-0.038091116 0.058757812 0.41162515
0.45573786 -0.15340026 1.2683632
1.0140501 -0.26528913 1.7925584
0.67354989 0.026589403 0.98556137
1.0599939 -0.26623395 1.82144
0.49969345 -0.19047506 1.2724555
-0.44485974 -0.17096739 1.0125608
0.63474905 -0.18189114 1.2964642
0.69110644 -0.19615436 1.4143112
-0.48293906 0.012266437 1.4016275
1.2614219 -0.24432841 2.0993805
-0.030678384 0.056583531 0.52554464
1.1194824 -0.29290786 1.9847021
-0.2086809 0.056004349 0.49829125
0.16250804 0.056481067 0.51282835
0.18593097 0.055149697 0.70615315
0.71842623 0.030301549 1.8213377
-0.51732159 -0.14893959 1.3212328
-0.50745147 -0.20250417 1.2274837
-0.48212588 -0.095960528 1.2709842
-0.50562817 -0.20266233 1.2231979
0.16730854 0.050439913 0.62682509
0.40557563 0.046671152 0.69959116
1.0882913 -0.21726105 1.9083805
1.1439641 -0.29853261 2.0280237
1.0754372 -0.28024387 2.0430131
0.091400541 0.058250509 0.51987004
-0.060362421 0.059706703 0.53475666
-0.50986862 0.077080399 0.85591149
-0.30740911 -0.17014855 1.341074
0.21463317 0.051120535 0.32414603
0.9052403 -0.048699386 1.8216839
0.33621177 0.032011271 1.0251088
-0.2166397 0.054813802 0.29279542
0.93765879 -0.050414301 1.9468496
0.45000619 -0.0057872515 1.5633943
-0.28683892 -0.20782968 1.5762
0.30917865 -0.24664357 1.8763626
0.54559392 -0.13724631 2.0472102
0.22875565 0.048654966 0.28326845
-0.18762499 0.059910044 0.38133574
-0.52026552 -0.1490844 1.3256705
-0.67374432 -0.092117965 2.1523137
0.24633092 0.052747957 0.32426357
-0.48755795 -0.089155383 1.2783296
0.029685505 0.049513184 0.65350366
0.12696248 0.045987837 0.98721147
0.59486544 -0.20462382 2.14677
1.4563922 -0.19950107 3.8437142
0.54262853 0.022078529 0.78104544
0.29286966 -0.21958926 1.8057494
0.29550081 -0.2208392 1.7992897
0.41833818 -0.17651236 1.9976678
0.26947036 0.037888728 1.0838339
-0.1136381 0.034493536 1.3360209
-0.53602743 -0.1376624 0.84966207
1.0038366 -0.075687721 3.0533009
