# .PCD v0.7 - Point Cloud Data file format
VERSION 0.7
FIELDS x y z
SIZE 4 4 4
TYPE F F F
COUNT 1 1 1
WIDTH 561
HEIGHT 1
VIEWPOINT 0 0 0 1 0 0 0
POINTS 561
DATA ascii
0.6086852 -0.13225643 0.81936979
-0.98268813 -0.0071525732 1.3099751
0.60762209 -0.13249542 0.81839907
0.61619598 -0.0065707834 0.91340327
-0.91511434 -0.0083735781 1.3790486
-0.86621189 -0.027759552 1.4073069
-1.0125519 -0.11843942 1.4487784
0.21684517 0.055053353 0.64715457
-0.80456144 -0.022728849 1.3525057
-0.23503922 -0.05560445 0.46036959
0.34773922 -0.15652297 1.0861871
0.54328042 -0.19568338 1.1576178
-0.94469434 -0.011144585 1.4449718
-0.94850785 -0.0056026774 1.4678364
-0.99370605 -0.094102211 1.4485369
-1.2623843 -0.24874441 1.7503424
0.23135026 0.042102721 0.99433708
-0.98361808 -0.087036431 1.4487689
0.36407524 0.047859281 0.46916497
-0.93022686 -0.0084594069 1.4145608
-0.22040282 0.0402379 0.42206454
-0.93122959 -0.097714499 1.7296686
-0.93208843 -0.099329256 1.7286963
-1.0313896 0.040987998 1.3026531
-0.84606212 -0.023886245 1.3574779
-0.9038654 -0.14039895 1.7962322
0.72634929 -0.054606184 1.6031861
0.81701982 -0.064014286 1.7063353
0.39799598 -0.073376678 2.1629798
0.24687147 -0.18391596 1.462184
-0.9614858 -0.10771289 1.7738905
0.55019397 -0.19237676 1.1098876
-1.4818827 -0.19007826 2.0950341
0.26384008 -0.035022765 2.325897
0.31458968 -0.16887784 1.2071097
0.21817638 -0.18697065 1.3306849
-0.94945651 0.053292595 1.5378542
-0.27944088 0.0078220563 0.61097467
-0.90304935 -0.075974092 1.3709619
-0.90622717 0.047470734 1.7337489
0.19373927 0.046858545 1.4419475
0.51185596 -0.15627997 1.0167046
-1.1515087 -0.14958909 1.5947402
0.78403944 -0.053793885 1.966677
-1.3060644 -0.16541797 1.7875533
-0.84397805 -0.02661464 1.4213047
-1.0483335 -0.13782468 1.4041343
-0.9202649 0.025130235 1.4277282
0.79379302 -0.04711527 1.604104
-0.96505576 -0.026253819 1.3101478
-0.66096282 -0.17439702 1.6145229
-0.98151118 -0.0063094841 1.306946
0.20952535 0.051245693 0.71231997
-1.2809765 -0.25588152 1.7771332
-1.0387454 -0.1346263 1.3895166
-0.964899 -0.098335676 1.4235592
-1.020798 -0.13295431 1.3547056
0.35841459 -0.13487145 1.2930956
-0.73296481 -0.19669218 1.6428542
0.21387692 -0.24282305 1.4289148
-0.51577324 0.044208571 1.3306265
-0.69926786 -0.17240308 1.6240296
0.8159259 -0.061591975 1.6795642
0.6795457 -0.019389674 1.3948207
-0.075083494 -0.40326771 2.2713335
0.14544073 0.05337381 0.73599982
-0.071802929 -0.39164907 2.2027323
-0.92619425 0.023893479 1.4373205
-0.070475847 -0.39141712 2.1919277
0.2569136 0.053693004 0.30558348
0.40927643 0.03877664 0.72579777
0.3343114 0.044936076 0.66175032
0.24906184 -0.18170623 1.3676288
-3.1064875 1.1674052 6.5978928
-0.51948547 0.042470809 1.3378808
-0.99037713 -0.12093674 1.4038064
0.24618746 -0.029711545 2.8666558
-0.22105287 0.042407256 0.42438591
-1.0012616 -0.048403725 1.2938638
0.3605333 -0.12998493 1.2998028
-0.13093653 0.05806905 0.27755034
0.18300202 -0.25748548 1.3084874
0.57691962 -0.035535146 1.0273514
0.24559562 0.052888818 0.29623222
-0.43330413 0.061432999 0.74068451
-0.65149075 -0.19758976 1.6291342
0.29919139 0.033385485 0.47365594
0.34017605 -0.18650189 0.85994244
-0.12481765 0.061249647 0.28345263
0.73825508 -0.017702375 1.0586052
0.62163252 -0.15237559 0.80751073
-0.52224463 0.043019749 1.3440609
-0.24626575 0.055771124 0.36633039
0.61165124 -0.13435291 0.82623756
-0.063897423 0.05465335 0.48690712
0.31175959 -0.179197 1.1095586
-0.99587828 -0.047186345 1.2842336
-0.94485575 -0.022366632 1.7698042
0.30793786 -0.16895518 1.1891124
0.20707165 -0.23901697 1.4545619
2.6993062 -0.14777412 4.5951047
0.20501474 0.039000534 1.5977588
-0.24912779 -0.32193831 2.2455089
-0.28559524 -0.21284164 2.1752791
0.86863846 -0.063595898 1.3376906
-0.18728386 -0.32716799 2.5427411
-0.72874779 -0.23283356 1.6483173
-0.67078495 -0.1760145 1.6473112
0.14531779 0.053010937 0.72698724
0.23161478 0.053384274 0.30843461
-1.0293821 -0.073977202 1.290837
-1.2920995 -0.25587612 1.7257793
0.34352484 0.020547025 1.2067184
-1.2997956 -0.25622961 1.7343662
-0.63061649 -0.22572583 1.476768
0.66659474 -0.11428425 0.79241443
-0.060797274 0.052129675 0.27968419
-0.71183282 -0.2366263 1.6812708
0.87396556 -0.028969232 1.062923
-0.31597903 -0.24489038 1.9585593
-0.74988979 -0.20234916 1.6951528
-0.8612265 0.014166302 1.6877797
0.13433303 0.059749532 0.40631104
-0.15095808 0.055229586 0.46534312
-0.22283749 0.056054514 0.37839997
-0.94967407 -0.018964551 1.7515635
0.065641493 0.054832943 0.62748444
-0.29867202 -0.2129028 2.2211864
0.65366334 -0.1674148 0.80851495
-1.0277044 -0.007608247 1.278019
-0.74015003 -0.24060474 1.7019308
-0.96891922 -0.26943627 1.7870634
0.097643003 0.0009306604 2.3763444
-0.43184763 -0.010748261 2.4229617
-0.22438179 -0.042619467 0.42238152
0.2321855 0.04722945 0.5931915
0.42847705 -0.20443314 2.7269731
-0.2535392 -0.037713394 0.87100065
-0.077469327 0.060882643 0.325055
0.31445181 -0.16660224 1.1968608
-0.060606398 0.054116886 0.5799973
0.54612571 0.037134077 0.71310437
-0.96862739 -0.073602214 1.4094033
0.58318681 -0.1363989 0.82490265
-0.22593985 0.045832384 0.8127588
-0.98423189 -0.26527652 1.8361244
-0.24674992 0.055182364 0.36820424
-1.0998472 0.22856492 2.0893419
1.4190735 -0.060767852 2.1762602
-0.9665913 -0.27517331 1.7857311
-0.15512718 -0.08547318 1.4490955
-0.19871929 -0.22399272 2.30158
0.50080562 -0.11051352 2.4179752
-0.70499533 0.024326 1.3240566
0.58654195 -0.13640277 0.82869029
0.72578478 -0.17846972 0.83019638
-0.72665602 -0.23521534 1.6553011
-2.740706 -0.3744531 3.627634
-0.93628699 -0.013061157 1.4260187
0.34192082 -0.1654844 1.1411965
-2.7966545 -0.37930152 3.7056313
-0.27524814 -0.3788642 2.2158716
-0.98042709 -0.079714805 1.4323635
-0.99177247 0.045242094 1.630111
-0.11618343 0.055025928 0.82382095
0.17686868 -0.25937945 1.3322344
0.18070491 -0.31757042 1.3815017
-0.18145634 -0.30309775 2.6087861
-0.22484039 0.044201702 0.80538952
0.487845 0.041527379 0.5569737
-0.19475155 0.057178888 0.33360481
0.59982282 -0.10664742 0.82363319
-0.173849 0.056359753 0.2832135
-0.12510096 0.061489519 0.28408504
0.31938392 0.035191242 0.47175086
0.3056055 -0.047433682 0.48259246
-0.2621665 0.05693705 0.35025787
-0.22997876 0.056028444 0.36845601
0.30276278 -0.038943503 0.45768154
0.29680952 -0.046754122 0.46051812
0.36096224 0.046810478 0.46424925
-0.74502057 0.050109584 1.2072566
-0.86489218 -0.019464783 1.4737144
0.13043198 0.058407508 0.38781071
-1.3057585 -0.2596994 1.7470171
0.23167063 0.047786608 0.59328556
-0.96675533 -0.097809643 1.4285283
0.22291219 0.052447062 0.76081944
-0.23473586 0.0027770679 0.79741406
-0.21072751 -0.047597621 0.42597282
-0.048725761 0.059074752 0.32827628
-0.0073719565 0.060485169 0.32907546
-0.9870221 -0.0034160698 1.3121099
0.25039029 -0.1565547 1.0620816
-1.0379169 -0.11961234 1.4291308
-1.020291 -0.11710253 1.3997653
0.21515197 -0.25558561 1.3370407
-0.1082882 0.055675481 0.86599314
-0.029122325 0.054193445 0.46369851
-0.97259349 0.024090279 1.5150645
-0.065101743 0.055907991 0.60987735
-0.20800965 0.052948818 0.4192667
0.18884675 -0.25002301 1.4219728
0.45494854 -0.17599288 2.0524299
-0.94542915 0.022544324 1.4691925
0.70915741 -0.035624508 1.0678067
-0.16734615 0.055943638 0.87304842
0.15635444 0.049128871 1.0541713
-0.27810049 -0.38112804 2.2258337
0.67661363 -0.016245522 1.5154924
0.34902489 -0.10604761 3.3918552
-0.1551362 -0.33072016 2.7465653
-0.23698445 -0.26113796 2.0975611
0.47060746 -0.19870183 4.2666378
-0.27207857 0.056997582 0.34830403
-0.18975136 0.046249658 0.43076742
0.1525851 0.060197268 0.33269739
-0.35527796 -0.29189938 1.6096203
0.22159319 0.051090639 0.75197828
-0.15110116 0.057459056 0.34527135
-0.27503455 0.057918027 0.35318112
0.18251182 0.059558541 0.35132921
0.35913306 -0.18391533 1.977895
-0.22074623 0.051250644 0.41585672
-0.22128899 0.051505998 0.41631496
-0.21909945 0.055201475 0.37090695
0.29940897 -0.071747161 0.46673751
-0.21561085 -0.057947554 0.40371776
-0.1942866 0.050920855 0.42999756
-0.26919326 -0.38695896 1.7923064
-1.2897106 -0.25871488 1.7298191
-1.2764913 -0.2564393 1.7517653
0.21117117 -0.0099802678 1.4084597
0.32383141 0.035504386 0.47676957
-0.19608487 0.051984329 0.54122043
0.76931584 -0.047984157 1.6941805
-0.21698053 0.036287982 0.42692816
-0.84287661 -0.028224967 1.4189818
-0.76388663 -0.25189552 1.7704268
-0.17689465 0.049179129 1.0238152
-0.22220977 0.043278236 0.42716873
0.11970584 0.044875499 0.59407675
-0.9713307 -0.075786084 1.414427
-0.4295395 0.061544698 0.73488605
0.19115341 -0.16015713 0.88876474
0.31364983 0.013100604 1.0566108
-1.0196348 0.025915135 1.3003776
0.54794991 -0.12206241 0.83957982
-0.5905953 0.063845672 0.87526405
0.36709523 -0.18329506 1.0528953
-0.45232749 0.064304024 0.76157069
0.77860403 -0.038218148 1.1959493
0.33981481 -0.034014683 3.1222434
-0.28424159 -0.22389476 2.5150061
0.0092866626 0.050006274 0.81102979
0.32365882 -0.19846469 0.86705208
-0.28015888 -0.20506701 2.0931113
0.22570071 0.047657035 1.0252652
0.42488915 0.0120275 1.9424679
0.80143148 -0.057228774 1.1362364
0.35240275 0.048120052 0.43122351
0.7669487 -0.062117621 1.7383256
-0.95584852 0.060544781 1.3122206
0.66465235 -0.11461268 0.78955483
-0.14867821 0.058301009 0.28224826
0.23756751 0.052545194 0.29557455
0.6344986 -0.13310692 0.79476714
0.57056659 0.030706093 1.3136308
-0.21802127 -0.045209333 0.42012584
-0.25867009 -0.067801267 0.88821709
-0.17522508 0.056654885 0.29272604
0.18661062 -0.28834578 1.3497028
-0.18597746 0.054383673 0.43404424
0.68480629 -0.015726276 1.535253
-0.31118295 -0.42187652 2.174834
0.13006316 0.058729269 0.3869617
-1.0469308 -0.024753779 1.3221362
-0.18029872 0.048510764 0.82634604
-0.87430048 -0.01504721 1.4098907
0.15890916 0.059727799 0.32227516
-0.92740285 -0.10137713 1.7120578
0.30744532 0.0072015459 0.46050739
-0.96248549 -0.029096447 1.3399036
0.23432952 -0.18209757 0.93715096
-0.14807798 0.057837646 0.2813617
0.066393748 0.055415507 0.63454318
0.34444135 0.045216996 0.48443067
-0.32058796 -0.38693032 2.3807471
-0.23145263 -0.3743811 2.405689
-0.34080732 -0.28105387 1.5419974
-0.20465544 -0.025392622 0.42984378
-1.0256977 0.0531734 1.3309984
-0.22677617 -0.087700874 0.42483604
0.3007628 -0.0063208388 0.45801914
-0.1454508 0.055706408 0.32674003
-0.98626965 0.057207897 1.3346779
0.33117285 0.049644642 0.42069972
0.44224295 -0.18440457 2.3273211
0.30397442 0.0050191535 0.45872641
-1.0002939 0.056940578 1.3543258
-0.41671342 -0.011828148 2.378454
0.30504873 0.024312146 0.45600021
0.13111429 0.048462018 0.66075087
-0.31745076 -0.3500399 1.6734676
-0.28249979 -0.38404661 2.2463639
0.24828769 -0.17953312 1.3564727
0.22397324 -0.19860813 1.1954191
0.44742444 0.038733192 0.91426468
-0.21636541 -0.041030265 0.42120564
0.29426306 -0.14821564 1.2097943
-0.12380923 0.0562451 0.5872159
-0.22298948 0.0061711473 0.42644572
-0.30764669 -0.27017379 1.5653148
0.53141344 -0.085557595 0.79574156
0.012264756 0.059953786 0.33395779
-0.31373322 -0.27832103 1.6008627
0.1701183 -0.15687764 0.8042028
0.37554634 0.03603081 0.66336763
-0.22759353 0.025882244 0.8377105
0.63007993 -0.11987992 0.83174193
0.26630065 -0.029050667 2.3931851
-0.54275 0.0090197632 1.7609992
0.38510048 -0.01658595 0.47864282
0.42635041 -0.17132355 1.338764
-1.1082031 -0.30487001 1.7936914
0.35810828 0.046782643 0.4558537
0.29981887 -0.0078401333 0.45606899
0.61827832 -0.02570973 0.78640354
-1.0423257 -0.093293086 1.4081831
-0.94308782 -0.023426607 1.7713866
-1.0010202 -0.007797013 1.3380022
0.22926681 0.052390147 0.39619625
-0.15507503 0.05918147 0.56892824
-0.13240732 0.045432821 0.68552256
-0.90916544 -0.086252019 1.3728819
-1.0073166 0.067824587 1.4340677
0.32900518 -0.12282677 0.91698778
0.25181413 -0.16895488 0.76591563
-1.0022109 0.069987893 1.2412894
-0.40080899 0.057377212 1.2486105
-0.14214559 0.058003664 0.44891798
-0.18755728 0.052657519 0.54743135
-0.077947423 0.060821641 0.31622732
-1.2808092 -0.25838 1.7211916
-0.14889146 0.060785603 0.48075283
0.65133244 -0.12751688 0.78905594
-0.16409604 0.055046894 0.84271133
-0.068817258 0.059849177 0.3266964
0.29844171 0.0051956889 0.46027148
-0.67756152 0.055698205 1.2133863
-0.94050997 0.065905057 1.3998137
-0.16564094 0.062926024 0.6221236
0.12063128 0.058370471 0.38766849
0.61421454 -0.14931625 0.79591012
0.40678251 0.038217463 0.72951424
0.3386046 0.043558907 0.46893609
0.62398106 -0.16189693 0.81921804
-0.11380953 0.06110527 0.43585587
0.39048368 0.042046394 0.45116508
-0.072171472 0.057026338 0.35684335
-0.22721861 -0.087938793 0.42599547
-0.12328771 0.05752819 0.5875107
-1.7361019 -0.23157875 2.2557976
0.43440837 0.039663341 0.89904201
-0.18486337 0.057667598 0.27183974
0.2353176 0.054441381 0.31633389
-0.2113492 -0.049416877 0.42941797
-0.070912398 0.060618516 0.41207898
0.30580041 -0.068973385 0.46000254
-0.14555167 0.059142709 0.46688676
-0.077850908 0.060873844 0.31517494
0.68238217 -0.016297285 1.530596
0.44445211 0.038623732 0.90425646
0.17195952 0.059613302 0.31617677
-0.15694608 0.060538102 0.31739271
-0.19666801 0.053946566 0.40338635
-0.21898289 0.055365652 0.3718487
0.63070387 -0.14835684 0.74761331
-0.83294469 -0.069911137 1.2523518
0.30956119 -0.070009522 0.46745944
0.31571347 -0.08792942 0.47972333
-0.12249525 0.047441836 0.23561633
-0.20252894 -0.071746185 0.4409281
1.1529267 -0.032937448 1.3959959
-0.13050988 0.059922412 0.36247396
-0.27039903 0.058891915 0.36424541
-0.20553415 0.044776764 0.43134463
0.58644956 -0.096007392 0.83241081
0.30214012 0.0055449912 0.46807063
0.46869266 0.041389458 0.96528435
-0.18442498 0.062956557 0.34200346
-0.98411006 -0.061618224 1.3105929
0.17542955 -0.18220176 0.84848797
-0.069671087 0.056241021 0.5233413
-0.069317415 0.06031429 0.28749824
-1.3635337 -0.27989396 1.8480108
-0.14686121 0.053824395 0.45303798
-0.31206608 -0.3634581 1.747612
0.29923329 -0.0072597126 0.45499468
0.36744946 -0.14350982 1.2380569
-0.34247261 -0.28294691 1.5886321
0.30815393 -0.14193399 1.0233872
-0.22082587 0.055792741 0.37229455
-0.069124311 0.058375996 0.54626489
-1.2592994 -0.27621838 1.8142405
-0.055747338 0.049094185 0.70245433
-1.0752691 0.026343033 2.0699871
-0.20020784 -0.21091586 1.2593009
-1.0358511 -0.12942496 1.2868757
-0.3160398 -0.27919942 1.6049201
-1.0178179 -0.0078623416 1.260083
-1.0312302 -0.13148241 1.3308554
0.23748024 0.050555263 1.1025574
0.36599594 -0.19666721 1.2205315
0.38625202 -0.060328975 2.3267753
0.44720435 -0.14696099 2.2260571
0.0042672958 0.05213568 0.76221371
0.0046175625 0.051411755 0.7465831
0.36085331 -0.1367718 1.3071802
-0.97025722 -0.11149471 1.4030924
-0.4162257 -0.18956967 2.3516588
-0.91165549 -0.036049847 1.7493329
0.74447358 -0.059453383 1.7030623
-0.42165497 -0.19100341 2.3801239
-0.54078478 0.015336358 1.6668851
-0.046996042 0.04734141 0.87233913
-0.85674745 0.050116848 1.603585
-0.5539524 0.010623183 1.7836149
0.55256844 -0.23475464 5.1574774
0.57117385 -0.23962198 5.341023
-0.15357576 -0.30163053 2.9575949
0.63294685 -0.15491459 0.79800391
-0.39826006 -0.0069160024 3.1272364
0.9475407 -0.058119573 1.82987
0.57405889 -0.43866587 5.7596035
-0.19841866 -0.35392779 2.7235794
0.19447644 0.061832041 0.25731885
0.20055091 0.054203447 0.61367452
-1.2503392 -0.27012908 1.7169502
-1.0476403 -0.13166691 1.2966204
-0.67839426 0.056104645 1.2109621
0.34305012 0.042690683 0.8287499
-0.30612323 -0.37057742 2.247659
0.21292567 0.058463108 0.50075781
0.12598789 0.056207351 0.36520636
1.1047678 -0.082094252 2.1587882
0.38446099 0.042860013 0.67670727
-0.15789537 -0.28240192 2.7643578
0.14693163 0.047289792 0.98655057
0.0096719172 0.060250908 0.33905375
-0.62381214 0.053694494 0.95322609
-0.23128529 0.045334741 0.79154801
0.21123657 0.049034484 0.57272053
-0.20375983 0.034847602 0.43215907
0.29948813 -0.089184105 0.45471084
-0.28283757 -0.22447544 2.5365303
-0.26759589 -0.33829889 2.9825144
-0.25359493 0.056377608 0.37562621
-0.22855775 0.047695339 0.77749181
-0.21952839 0.042956065 0.42080176
-0.21801795 -0.070473224 0.40646756
0.70989299 -0.16422173 0.81344104
-0.21177165 -0.042614032 0.42095709
-0.33791065 -0.37266806 1.8167231
0.68649673 -0.11758694 0.81934178
-0.11029814 0.059329867 0.41849601
-0.59946567 -0.18106225 1.5829463
0.15551494 0.056166902 0.52749753
-0.19913571 -0.070374444 0.43241715
-0.25257781 -0.32733104 2.0907609
0.36035308 0.046983916 0.45988119
-0.3825646 -0.12429641 0.54591668
0.056427024 0.062438149 0.27762282
-0.97808808 -0.30036023 1.7209446
-0.060686246 0.054770604 0.60002184
0.34871846 0.047814306 0.4262979
-0.17854075 0.048540294 0.81750011
0.46017474 0.043587789 0.56231833
0.75578731 -0.074799508 1.450176
-0.15636535 0.057051819 0.49625218
-0.13723888 0.057627097 0.3343538
0.30775082 0.024316594 0.46143293
-0.18436225 0.051914435 0.53847635
0.38469237 -0.1686502 2.0559037
-0.56674904 0.015691392 1.7589507
0.29604086 -0.088463321 0.44855201
0.85481197 -0.040903859 1.0322685
-0.52592915 -0.0044988515 1.7391961
-0.90850955 -0.048333783 1.3917103
-0.31477311 -0.32866737 2.0141215
0.44285554 -0.032133684 1.1779327
0.34622476 0.012852577 1.0317948
-0.20413089 0.055878125 0.35351634
0.05950658 0.058780365 0.36021411
-0.36401072 0.031388413 1.0063298
-0.20869847 -0.081409872 0.39260828
0.35063565 0.045737218 0.49117362
-0.19089176 0.056668758 0.26594543
-0.1393498 0.055745568 0.37570894
-1.0298586 0.027867157 1.3062859
-0.21916358 0.043961667 0.40703857
-0.067530058 0.054314312 0.50001764
-0.070775092 0.061561588 0.39656723
-0.18258642 0.051636979 0.44052935
-0.14801462 0.0568441 0.3853184
-0.17712481 0.057266027 0.27341259
-0.94067103 0.025435023 1.4628241
0.37635574 -0.16797446 2.0133338
0.61902291 -0.13386923 0.83453488
1.1376444 -0.044444881 1.3647523
-0.059534989 0.05569176 0.8791641
-0.99353474 0.044663321 1.285289
-0.16687085 0.047109533 0.87312853
0.20054115 0.062723041 0.41789281
-0.20509936 0.056814868 0.38523054
-0.13033277 0.05993972 0.62242424
-0.52376413 -0.0028950181 1.7317259
-0.14659964 0.062185504 0.35587335
-0.10822783 0.047143754 0.23059726
-0.18484329 0.052372821 0.53965211
-0.3418383 -0.2938917 1.5927839
0.20740066 0.056470975 0.48533499
-0.21097863 -0.069883376 0.42809677
-0.18893944 -0.0780017 0.43711638
0.23424472 0.053409595 0.30891478
-0.12368461 -0.22822183 2.5699053
-0.15800406 0.052548859 0.80680001
-0.93577498 0.025465468 1.4538476
0.34388888 -0.17758672 1.6039629
-0.22223453 -0.074332587 0.45649076
-0.24657266 -0.39200076 2.3435562
-0.32853293 -0.23425359 1.5405164
-0.21546175 0.028754648 0.41022038
0.41664886 -0.21819055 1.2526994
-0.12420975 0.060931712 0.34344947
1.5582695 -0.048875298 1.9117291
0.15195796 0.059797138 0.32467663
-0.4719891 -0.16044942 2.4060431
-1.0271252 -0.08891125 1.3242159
0.0054723751 0.04816819 0.70145261
0.38170683 -0.17879082 2.0162094
0.15295024 0.009291904 0.48010206
0.0084148701 0.058846097 0.33066154
-1.0369862 -0.076214105 1.3029943
-0.62643731 -0.14574759 1.5922167
-0.33770442 -0.2412165 1.5881472
0.1256046 0.0040169088 0.4272294
-0.92962295 0.031202 1.4785743
-0.17225872 0.052541826 0.45411098
0.71513969 -0.049588952 1.3518736
-0.99356073 -0.0010281857 1.2903314
-0.18793111 0.051586181 0.43497682
0.29830837 -0.19539116 1.4086874
0.61502826 -0.11180598 0.80642819
0.35245144 -0.024297841 0.619802
-0.23384042 0.042919494 0.84057415
0.23185715 0.047575332 0.5890851
-0.035419308 0.063309684 0.37459219
0.51467282 -0.12681921 1.2446711
-0.1893461 0.055365428 0.3204217
-0.18333656 0.049281605 0.41839123
