# .PCD v0.7 - Point Cloud Data file format
VERSION 0.7
FIELDS x y z
SIZE 4 4 4
TYPE F F F
COUNT 1 1 1
WIDTH 492
HEIGHT 1
VIEWPOINT 0 0 0 1 0 0 0
POINTS 492
DATA ascii
2.0725129 -0.095637657 3.1323957
-0.025216371 -0.2118856 3.4235525
-0.074772149 -0.39691111 3.6783257
-0.027957171 -0.013392776 1.8882747
-0.02363196 -0.21153361 3.4518728
-0.026514202 -0.19666436 3.5014658
0.75175261 -0.056612223 1.0546494
-0.036618382 -0.38300079 3.5428891
-0.55741251 -0.16226709 0.90715742
-0.067416281 -0.021567915 2.7013793
0.35252991 -0.12076161 1.3266759
-0.064045876 -0.0092390105 1.7852225
1.1038487 -0.25929579 3.223002
0.69236696 -0.056635819 2.0587373
0.70305777 -0.058116667 2.1009903
1.2672547 -0.39607278 3.7632289
0.98818171 -0.36875534 2.7608314
0.12647197 -0.18107393 4.7996054
-0.1166856 -0.42683718 3.57199
-0.12697819 -0.44922805 3.7908363
0.83263981 -0.076046057 3.5857744
1.1466047 -0.19250101 3.2199545
-0.54550505 -0.36638248 4.0906401
-0.67223752 -0.49181601 3.3481503
0.59748769 0.03566552 0.7413063
-0.8567307 -0.045114949 1.3338838
1.0265144 -0.029808544 2.5216064
0.2510781 -0.094812252 3.0284181
-0.087249368 -0.38351759 3.4051943
-0.648 -0.44879264 3.6450658
-0.78174591 -0.43878913 3.2964635
-0.52697492 -0.066056184 0.7757678
1.2253875 -0.23909333 2.2835879
0.97808027 -0.024687782 2.3814569
0.97908235 -0.02610261 2.3784332
1.1845558 -0.22207087 2.6789684
1.1015456 -0.083439939 1.9502916
-0.62357998 -0.4606612 3.3732042
1.1567568 -0.18443581 3.2710071
0.89061189 -0.26691613 1.2025857
-0.8908093 -0.082073241 1.1712165
0.38659003 -0.1281738 1.3643703
1.2393377 -0.29337013 2.7158327
-0.96398616 -0.071281992 1.7886987
-0.7296176 -0.14691642 1.1891966
0.30043808 -0.050759964 1.6574211
-0.64925468 -0.43799916 3.6010327
0.20418885 0.0092708096 1.3073049
-0.51087677 -0.059251629 1.4992471
0.94887435 -0.13157937 1.2064743
0.37694588 -0.21516305 1.5194278
0.20736519 -0.20796067 1.0131955
0.14230409 -0.23433968 1.0931001
1.0039115 -0.28627989 1.291307
-0.65874147 -0.26740912 3.4804597
0.20226887 -0.16900909 1.1354513
0.33615145 -0.026374727 1.6371856
0.27589914 -0.26631796 2.9158268
-0.82354403 -0.069966763 1.1106412
0.2876406 -0.027446479 1.5478282
0.62416232 0.017182406 0.83293366
0.73844302 -0.029115178 1.050431
0.36503038 -0.14061582 1.5330954
1.6762794 -0.33627778 3.303967
1.3258238 -0.36612311 2.7138224
0.20288876 -0.15816453 1.1109602
0.20952478 -0.15266594 1.7340374
-0.54647183 0.015653968 0.83866811
0.51939714 -0.17160901 1.0368836
1.1239696 -0.23643145 1.3181005
1.0063841 -0.28444222 1.2896652
0.10351565 -0.29355162 2.3760581
0.50732076 -0.16797134 0.99603987
0.94847751 -0.19858405 1.2755251
0.93141651 -0.22323817 1.1731753
1.4908841 -0.38972074 2.7204547
-0.52334094 0.015052233 0.77673531
0.98533535 -0.23658171 1.2361479
0.080034226 0.061726645 0.40821671
0.24534294 0.037659973 0.89885426
0.36200246 -0.11409125 1.6600041
0.81066847 -0.04449147 3.0548806
0.18539062 -0.24603713 1.0905056
0.44096103 -0.22063118 1.6003966
-0.1878477 0.055515252 0.41414642
0.22645375 -0.18262777 1.1519265
-0.76437366 -0.063288197 1.9035025
0.75062644 -0.084223308 1.034569
0.60022724 0.038376827 0.71309662
0.65054476 0.035381794 0.84416771
1.0011277 -0.026167847 2.4533019
0.35602018 -0.043959469 1.123992
0.39585993 -0.073835358 1.4962864
-0.73299718 0.062512949 1.2086701
2.2857227 -0.094215594 3.6559339
0.38967714 -0.033645257 0.83236027
1.7771599 -0.09875498 2.4412646
0.78261364 -0.024687156 1.7681117
-0.022691429 0.040950425 0.9943912
-0.75290859 -0.086277865 1.1240668
-0.1966801 0.056131765 0.43614268
0.74471629 -0.02919507 0.96283674
1.045606 -0.17509985 1.3337507
0.24622712 -0.046866663 0.38286781
0.081821918 0.052028351 0.55372024
0.37537023 0.018596403 1.2340126
0.76797426 -0.029517062 1.0089593
0.1941711 0.039053533 1.2096281
0.99409509 -0.13800964 1.1772223
-0.29297391 -0.34826931 3.7424283
0.32922474 -0.04592973 0.65679312
1.619085 -0.063816667 2.4481797
0.91979706 -0.25357613 1.2130542
0.31107852 -0.055467509 1.1370554
0.95311499 -0.17066282 1.1672192
0.40816423 -0.084339358 1.5637517
0.77825451 0.027260751 1.3445263
0.3740519 -0.14078781 1.5602522
-0.17689589 -0.037156038 0.80081558
0.32930562 0.023835815 0.66953444
1.1986759 -0.03905081 2.3311367
0.32738474 0.022109799 0.66374111
0.19126555 -0.16384968 1.0945277
-0.69366086 -0.098847695 1.1155865
0.36227122 -0.023194298 1.2033029
0.18441007 -0.20002994 1.0963337
0.22461602 -0.16635075 1.1289191
0.075118661 0.056427602 0.38029838
0.075476408 0.05656819 0.38693523
0.21611962 0.054703008 0.37488556
0.415436 -0.13635466 1.4687133
-0.044998616 0.050999671 0.58178949
-0.64034128 -0.18195757 1.3523664
0.24134418 0.026057029 1.3079157
0.39930627 -0.080110066 1.5252805
0.14433143 -0.22994027 1.0903416
0.98346138 -0.16828623 1.3340263
1.5827024 -0.081281617 2.0200601
0.98384929 -0.19516498 1.2731824
0.38516983 0.042199049 0.55648565
0.23985818 -0.044949181 0.3577776
-0.18843761 0.055584669 0.41711259
-0.81591272 -0.082562543 1.1119447
0.76155519 0.027264301 1.2964177
0.6741631 -0.15320462 1.1056042
0.20375946 -0.16878942 1.1157401
0.076182276 0.057104357 0.39679933
0.97328413 0.066954955 2.3245158
-0.40752617 -0.29726878 1.9979515
0.17982224 -0.19141003 1.1344991
0.0318214 0.033470944 1.7969437
1.2054049 -0.35187951 1.9182048
0.2033312 -0.16843382 1.1193459
-0.74376392 -0.098596819 2.0719323
-0.17027965 0.043071669 0.80248713
0.36488101 0.018653031 1.1910777
-0.70030582 -0.48120829 3.2713175
1.0910345 -0.044329755 2.4188805
-0.062204778 0.057727531 0.30500293
0.36021164 0.033704035 0.86449146
-0.7198143 -0.4948304 3.3695407
0.36300167 0.021758849 1.1269598
-0.72527754 -0.39983442 3.0433645
-0.23671964 0.050987728 0.3790648
-0.063671023 -0.052557364 1.4842944
0.25970367 -0.16901687 0.98270297
0.23749152 -0.044745721 0.35467911
0.59993696 -0.31449196 5.1235738
0.76263285 -0.060694687 1.0351081
-0.6393311 -0.25994611 3.365603
0.21647725 0.054576419 0.37523246
-0.055914819 0.054484464 0.54150081
-0.73856747 -0.16181815 0.91438675
0.22699246 -0.21756315 1.0159442
0.38764796 0.019909859 1.1353459
-0.80931747 -0.060607478 1.1054082
-1.2923032 -0.13542676 5.0496473
0.23990765 -0.21436745 0.96119738
0.35856929 -0.10159319 1.6504507
-0.84833777 -0.084203713 1.3943243
-0.81323135 -0.45174989 3.3313541
0.26491711 -0.17331299 1.0031881
0.21403447 0.057884593 0.30316615
-0.052418649 0.054173388 0.36559701
0.18557999 -0.55905646 4.6473536
-0.1991736 0.015600991 0.33317566
-1.0723717 -0.028359383 2.9289231
0.99524403 -0.040188916 1.3056169
-0.12868577 0.032883167 0.73452353
0.55477333 -0.16553292 0.91773582
-0.44696036 -0.24445248 1.2390561
0.42464694 -0.12325122 1.0438666
0.20798102 -0.20349568 1.056083
-0.63389027 -0.050447263 0.92715168
0.73447931 -0.027560771 1.0484717
0.64417791 0.035657816 0.83438587
0.18272677 -0.1979908 1.083107
-0.77340722 -0.13918206 1.1968598
-0.46096858 -0.2042602 1.4144726
-0.093355238 0.057361744 0.29848528
0.23370817 -0.18873841 1.1922259
-0.21721801 0.027914485 0.32730937
0.18386337 -0.54660004 4.5033779
1.2078465 -0.038664304 2.3436823
0.022715122 -0.0038736612 1.4887309
-0.22265497 -0.099733569 1.6088614
0.61250949 -0.32346943 5.2345777
-0.78255081 -0.47070023 3.4474754
-0.81342423 -0.44994035 3.4712148
-0.96519518 -0.42990616 3.6032739
-0.71701193 -0.52364147 3.5870552
0.18475744 -0.55462986 4.6042657
0.14485127 0.058755554 0.27311683
0.20761219 0.055473335 0.38520694
0.59251404 0.038513005 0.70218158
-0.14929658 0.035793778 0.96160316
-0.12314644 0.051468346 0.5318253
0.23128936 -0.1977202 1.0290537
-0.34078303 -0.2283155 2.6740594
-0.10416952 0.055270147 0.43785167
0.11351123 0.056595586 0.31707978
0.07230401 0.056481451 0.26696873
-0.77901363 -0.36809689 3.3072972
0.77549195 0.023795381 1.4161353
1.1973782 -0.038496464 2.3286853
0.22343609 -0.14907652 1.0603776
0.11384153 0.056658465 0.31580663
0.37058273 -0.12591839 1.533843
-0.59550738 -0.4260107 3.1166821
-0.23430052 0.050334148 0.37371516
-0.93434727 -0.10241529 3.4588647
-0.66790473 -0.17526215 0.93613744
-0.44385597 -0.24868914 1.1848335
0.18620536 0.048353173 0.7314868
0.3812035 0.046573482 0.47388244
-0.18850377 0.05327145 0.4023447
0.11183104 -0.51810867 4.520431
0.056346506 -0.022192731 0.65399885
0.074166 0.057545684 0.27537084
-0.16812417 0.038766786 1.1009765
0.23886487 0.042786155 0.74741721
0.88332939 -0.26698261 1.1953464
-0.78502536 -0.20341957 1.1069143
0.21901181 0.051606402 0.43365049
0.94691002 -0.29023123 1.5408111
-0.60510457 -0.43292579 3.380785
-0.050397873 0.05325586 0.35799813
-0.44560191 -0.24347982 1.2425251
0.21278062 0.057638172 0.26412463
-0.085601151 0.049485825 0.55086088
-0.68362451 -0.27767724 3.6364202
1.1019585 -0.046505503 2.4465461
-0.09241727 0.056948636 0.29734349
-0.05901292 0.054694571 0.28557372
-0.82575071 -0.083501421 1.1245489
-0.20226595 0.019374616 0.33814788
0.10646638 0.040118478 0.93903875
-0.69795835 -0.27693653 3.1574111
0.1549755 -0.25957707 2.6206083
0.16592643 -0.21853286 1.1410384
-0.6398257 -0.1280964 0.98396897
-0.74318373 -0.46659639 3.3061199
0.97910249 -0.17693186 1.2050548
0.95879912 -0.11461783 1.1812258
0.23626021 -0.044541351 0.34959769
-0.61400294 -0.095294021 0.91081643
0.76574016 -0.031798817 0.97748256
0.0077114403 0.053172804 0.42546821
-0.21344593 0.048848078 0.41077495
-0.49174038 -0.19640505 1.113513
-0.062335879 0.056998949 0.26247001
-0.16543266 0.042436484 0.77923965
0.66833353 0.040845133 0.91523361
0.23372748 0.036097124 0.34246087
0.42859718 -0.13789436 0.70822191
-0.055774629 0.053439833 0.50630951
0.21744201 0.055075433 0.37856436
0.4396278 -0.13674265 0.70805097
-0.16211495 0.011845877 0.25919008
-0.21047345 0.04117658 0.82072258
0.10756251 0.05850938 0.34501576
-0.19215646 0.012071192 0.33558941
-0.1887714 0.050233707 0.46229577
0.21644315 0.054654997 0.37481618
0.14205226 0.056006599 0.35725665
0.31653902 0.03612797 0.72975731
0.36515781 -0.16812554 1.007401
-0.46960422 -0.19660482 1.1653676
-0.19759944 0.018061634 0.3199687
0.64722943 0.03570731 0.8375659
0.59456825 0.038790002 0.70536208
0.22907057 0.046842471 0.55714011
0.37512222 0.019786026 1.0970924
-0.44193068 -0.16030014 1.1277213
0.18510613 0.048259363 0.73246741
-0.7220906 -0.097000651 2.0153799
-0.47752193 -0.23176366 1.7518935
1.0389614 -0.16569963 1.2342162
0.095775515 0.048180085 0.76097488
1.294353 -0.10089383 2.3365765
-0.44162014 -0.23481369 1.2081785
0.086522192 0.052579522 0.62549686
-0.6800853 -0.087086238 1.8569293
0.28917941 -0.26194862 2.2275529
-0.23000965 0.049987916 0.36479282
-0.46746799 -0.14256501 1.1910248
0.36499998 -0.14263475 1.5424256
0.24937376 0.016878869 1.3398724
0.28403619 -0.10362837 1.6370716
-0.19404736 0.057233527 0.46518683
-0.79649186 -0.29735157 2.9067593
0.2836915 0.01472518 1.5349879
0.16504672 -0.23405841 1.0998418
0.66655028 0.019279318 1.8091092
0.072427094 0.057439588 0.34045553
0.95533335 -0.22108138 1.1898284
-0.18727347 0.054403394 0.41556001
0.22864261 0.043885671 0.64443779
-0.19987538 0.049906194 0.43548107
-0.088811785 0.051605813 0.58263254
0.14550015 0.057329077 0.36479735
-0.18010238 0.048202284 0.49726939
0.22933659 -0.19592825 1.0136616
0.1777918 0.055036768 0.47931647
1.2049302 -0.043988504 1.5855961
0.21462122 0.049734987 0.41232991
-0.67157066 -0.39555407 2.1977196
0.36006919 -0.077120997 1.6172237
-0.21998551 0.048818361 0.40300369
0.21698883 0.054864325 0.3752439
0.082877368 0.053977769 0.51413059
0.12846279 0.056113794 0.27371764
0.60528517 0.010542549 0.71831703
0.21694347 0.046907298 0.45188904
0.88626313 -0.20606035 1.2144532
-0.5501039 -0.15243664 1.1566916
0.24929193 0.040007234 0.90824199
0.22901264 0.046842352 0.55865192
0.60569406 0.036777079 0.85192585
0.1059657 0.057672895 0.33758092
0.9948591 -0.13898715 1.1803021
-0.10818636 0.049799591 0.28652644
0.35165331 -0.017433345 1.164247
0.21168295 0.057221703 0.24352551
-0.48833999 -0.19067293 1.1917558
0.071358502 0.058143619 0.27396822
0.18330893 0.057622559 0.41287994
-0.061995208 0.054845612 0.26934934
-0.20238289 0.051039014 0.27499557
-0.92882442 -0.033934958 1.7174225
-0.055874735 0.053432591 0.5115757
-0.34495929 0.05796694 0.44649863
0.45232514 -0.14383689 1.0678022
0.33221176 0.029570062 0.67697287
0.3202447 0.0066823699 0.66315722
-0.57738566 0.030844266 0.77449703
0.26298842 0.045725007 0.48500395
0.74687552 -0.070269629 1.0512922
-0.19812509 0.049314618 0.42912436
0.35603598 0.032496907 0.85769701
-0.0037581921 0.057411309 0.24491096
0.34340987 0.033750519 0.6757772
-0.22090134 0.048755381 0.40338564
0.38074127 -0.17181918 0.93201613
0.32718745 0.022553638 0.66593432
-0.73579228 -0.32807085 2.5187945
0.9420073 -0.20343664 1.2532949
0.22660294 -0.21637252 1.0073779
0.44346759 -0.14637804 1.5664759
-0.5461601 -0.15106708 1.1701527
0.22459635 -0.1675745 1.1319098
0.86547089 -0.16684541 1.2086706
-0.54803312 -0.27847561 3.217761
0.44412741 -0.16274405 1.1540351
0.76551247 -0.063840069 1.0370123
-0.49078807 -0.3692134 3.1784697
-0.22939727 0.045461256 0.3211503
-0.19193193 0.05123413 0.48146844
0.60644162 0.038627774 0.71624184
0.99185169 -0.22914097 1.2399449
0.10286081 0.051480379 0.27699614
0.42981139 -0.14098549 1.5160842
-0.6239773 -0.39613587 2.2327504
0.36181727 -0.16933689 1.0009747
0.34185639 -0.1431632 0.96889186
0.9404341 -0.20181063 1.2095299
0.21344766 0.058136065 0.26611996
-0.3485404 0.043579802 1.3064413
0.65568662 0.04239475 0.77576923
0.23308358 0.050355189 0.28143883
-0.21423134 0.051971942 0.37385345
-0.19704351 0.013169445 0.35014915
0.80758667 -0.017656282 1.4464931
0.23857668 0.049376629 0.42349577
0.46296993 -0.13694757 0.65444207
-0.054010659 0.056807373 0.29311991
-0.19515279 0.012193434 0.34402323
0.91294765 -0.1509378 1.1285386
0.069018811 0.053848967 0.2501595
-0.144171 -0.089270033 1.1812677
-0.044282705 0.05199682 0.61934185
-0.52723062 -0.007662233 2.4259124
0.3356708 0.033271998 0.65534687
-0.050812513 0.054461647 0.37233615
0.12389141 0.053958435 0.27851462
-0.21339688 0.053736471 0.29453015
-0.1927183 0.058126431 0.31480241
0.013636976 0.055545449 0.30933046
0.1418198 0.054866306 0.50294685
0.011476159 0.056072839 0.56067061
0.11395141 0.056830827 0.31441307
0.37411395 -0.18431574 1.3711872
-0.054095119 0.056949958 0.25912499
0.92983258 -0.1523152 1.1470551
0.074791193 0.058313943 0.27699327
0.22932479 0.042902 0.46952677
-0.47702375 -0.2421844 1.2006907
0.39207748 -0.17320415 1.026257
0.97220361 0.26381657 1.2884474
0.21021011 0.057777807 0.26521826
0.45534578 -0.13506976 0.64376497
-0.042315245 0.049928389 0.83387065
0.15653786 0.047605455 0.24074554
-0.029790759 0.058726311 0.25050592
-0.81823397 -0.059145197 1.1128404
0.10118154 0.059769396 0.25968671
0.9766463 -0.22436762 1.2175074
0.076280713 0.057334594 0.39896965
-0.099878341 0.060219642 0.3151474
0.18652585 0.05826135 0.31370187
-0.12313795 0.055884864 0.3282671
0.13664439 0.055267528 0.32541537
0.74311793 0.0085883923 1.0225909
-0.056172282 0.058835905 0.30747414
-0.061548322 0.057168026 0.2980032
0.77784824 -0.053411908 1.0676885
-0.10121632 0.052979782 0.34938741
-0.84001935 -0.2440252 3.2504849
1.8352437 -0.092813484 2.2486601
0.62531745 0.0099817086 0.74605298
2.1032393 -0.11815546 2.7101107
0.23493335 0.03602732 0.85503793
0.44946876 -0.16553354 1.1688099
0.44029322 0.048013542 0.53562093
-0.8575145 -0.3888647 3.195344
-0.039622158 0.059376419 0.28088737
-0.15213782 0.01645595 0.21622038
0.93282044 -0.24365389 1.2369933
0.21653661 -0.21317258 1.0519371
0.24737313 0.019010257 0.36015368
0.36445394 -0.14343247 1.5449467
-0.061622173 0.056477468 0.26050687
-0.52862179 -0.38588274 3.394187
-0.36347607 -0.08246617 2.2446504
0.27090517 -0.19864157 0.98602176
0.50552678 -0.15886652 1.2019067
0.38937476 -0.18572852 0.99540329
0.31221363 0.045978952 0.43134522
0.43297419 -0.12809357 0.61141086
-0.045922279 0.052169662 0.62010121
0.92359817 -0.21745425 1.2544217
0.12529019 0.049656644 0.30771756
1.4112328 -0.071039476 1.7253647
-0.05145812 0.049896751 0.47436929
0.48253253 -0.13420382 1.1607318
0.75340879 -0.13694087 1.3911028
-0.43676612 -0.17809635 1.0722477
0.36817673 -0.11613905 1.6889458
0.23343655 0.050731771 0.29399753
0.29652879 -0.015644889 1.045788
0.27266708 -0.19616508 0.93257999
-0.44343337 -0.20087454 0.88714552
-0.71874511 -0.085767753 1.5627999
0.36707839 -0.060709067 1.5433736
0.30307177 0.034007389 0.63015318
0.15204349 -0.21498191 1.0721745
0.98619521 -0.22855601 1.2319584
0.25385794 0.049118958 0.36274672
0.19967726 0.0095587522 1.3002825
0.74849892 0.045264386 1.0613654
0.26516142 -0.19812837 1.0357594
0.25535396 0.049504168 0.36616707
0.085804731 0.069184259 0.36597085
-0.053324014 0.056589343 0.39281249
0.97299349 -0.12085695 1.166728
0.37422952 0.15434496 0.7880187
-0.21656778 0.047098204 0.33455348
0.29418823 0.0016978234 0.60494018
0.62078357 0.031200822 0.79431653
-0.79167581 -0.079430945 1.0698092
0.35477385 0.040074103 0.42318606
-0.18664864 0.0370887 0.77055359
