# .PCD v0.7 - Point Cloud Data file format
VERSION 0.7
FIELDS x y z
SIZE 4 4 4
TYPE F F F
COUNT 1 1 1
WIDTH 568
HEIGHT 1
VIEWPOINT 0 0 0 1 0 0 0
POINTS 568
DATA ascii
2.3306601 -0.0936139 3.5722446
2.3653142 -0.10457989 3.3560462
1.8110749 -0.067959405 2.2635875
0.23425095 -0.20747241 3.8100109
0.16288112 -0.018331463 1.9472675
0.23630695 -0.20912983 3.8909712
0.20661448 -0.39321604 4.1800246
-0.3159802 -0.25504383 1.3426788
-0.42364109 -0.21178524 1.2686319
-0.55882484 -0.13800694 0.92929697
0.24237238 -0.21207471 3.9967742
-0.53344029 0.030366207 0.8906076
0.37410516 -0.19111082 2.3650455
-0.24858321 -0.20641717 1.3106749
-0.57435012 -0.11037409 0.92546535
-0.57459092 0.026593674 0.90944839
-0.57547772 -0.10919002 0.92871475
0.85332757 -0.061436526 1.5611968
1.4129727 0.20077714 1.8813658
-0.83774543 -0.080834404 1.6187732
-0.50782478 -0.10989977 0.88859153
-0.20266764 0.05507233 0.39647555
-0.47647172 -0.17348966 1.532758
-0.4626478 0.041620046 1.1730146
-0.60263801 -0.011335956 2.7010107
0.14938192 -0.025556268 3.4726911
0.29582423 -0.27485648 1.5020225
0.078260645 -0.0086411741 2.0176463
0.4360683 -0.19716966 2.0605135
-0.32103902 -0.20440081 1.4437253
0.090895936 -0.015140699 2.5290284
0.31167418 -0.33488566 1.73002
-0.3055172 -0.22137927 1.8407917
-0.19862498 0.055205084 0.38761449
0.29421651 0.021799382 1.7934856
1.0740879 -0.037787914 2.9501266
-0.34074259 -0.27692533 1.4008765
0.48363364 -0.19187053 2.0140219
5.446454 0.80570883 6.9118867
-0.58411521 -0.12658177 0.93365359
0.45605958 -0.17677996 1.8000445
-0.38239652 -0.1515004 0.99919224
-0.2961297 -0.18740594 1.5067296
0.062405333 -0.43916807 4.448257
0.87866515 -0.069953524 2.5321374
0.35817361 -0.10911509 0.76043391
0.36264437 0.035017472 0.76689315
-0.89459848 -0.086117022 1.1675239
-0.44640231 0.040518545 1.2341204
0.27709854 -0.17681926 1.5346742
0.43146861 -0.34954885 5.2617803
-0.35949379 -0.21203056 1.0459003
1.0422802 -0.027200675 2.740591
0.14273252 0.059026644 0.33001423
0.24662219 0.040382087 1.4110448
-0.056617379 0.060530901 0.39112639
-0.50896078 -0.11062863 0.89115834
-0.33847076 -0.20861401 1.5258217
-0.53656715 0.033530436 0.90024304
-0.35896116 -0.17026204 1.3756731
0.48804975 -0.17978987 5.3616676
0.15903823 -0.44593745 4.2871089
0.80145437 -0.018464005 1.5519292
1.0108244 -0.25254068 1.658896
0.70748055 -0.016804295 0.98025584
0.22805874 0.055647612 0.44370461
-0.71712106 -0.051606454 1.8421521
-0.42138094 0.0067265369 1.6962652
-0.31506938 -0.2011942 1.419466
0.33844632 0.024458259 1.8060331
0.70715344 0.032043125 1.310271
-0.50671309 -0.1086828 0.88761306
0.088913456 0.059795417 0.46800995
-0.57441235 -0.10830192 0.92603421
0.42053419 -0.18237729 1.7545886
-0.53356928 0.02284196 0.89525414
0.38171625 -0.135473 3.0245528
-0.16658597 -0.26241821 3.1681838
0.39674866 -0.17191926 0.88221574
-0.38960701 -0.46587121 3.6756797
0.21630521 0.059252001 0.29835629
0.71176541 0.029991407 1.3402278
-0.69062507 -0.046968304 1.7898116
0.30282211 -0.29167023 2.7307706
-0.6992892 -0.068462484 1.7689271
0.47246319 -0.093807094 3.4240284
-0.14831056 0.042415775 0.98432374
0.59162778 0.041190907 0.81044555
0.67796552 0.030587543 1.2414458
0.31148696 -0.16943611 1.2178218
0.019354597 0.058566026 0.34654784
-0.1090218 0.059054442 0.34982395
-0.38480645 -0.22927815 1.4966848
0.35447359 0.036268737 0.73612261
-0.33555627 -0.38228703 3.1110773
-0.36645824 -0.44859821 4.2149715
0.6561842 0.02590064 0.75462699
-0.52353257 0.046431057 0.71466613
0.7231124 0.034503713 0.97416425
-0.4542172 -0.13996424 0.80913162
0.64104056 -0.035444595 0.95735359
0.91571218 -0.15024127 1.5268874
-0.12712817 0.059234813 0.34353852
-0.38430691 -0.15505324 0.83134127
-0.64576429 -0.19700126 1.6674919
-0.49490356 0.040494919 0.88143611
-0.5079565 0.021186501 1.2959034
-0.70655274 -0.049744807 1.8250384
1.1406204 -0.024538251 2.7803903
1.1292584 -0.025714843 2.7401552
-0.50032651 0.021193668 1.2764726
0.30590975 -0.29823366 1.5987422
1.2286419 -0.076787494 2.3412685
-0.94071937 -0.086593457 1.1738937
-0.55770761 -0.13781093 0.93087411
-0.85024643 -0.17677169 1.2831633
-0.51428127 -0.058089457 0.88186312
-0.20027293 0.056650721 0.40686274
-0.56200558 0.030221019 0.84538007
-0.51137435 -0.08828266 0.88986182
0.4106729 -0.13981128 0.89573503
1.0856092 -0.28789455 1.7174773
1.0855761 -0.28441364 1.7115316
1.1121535 -0.29200229 1.7617135
1.005618 -0.26846555 1.7004352
-0.36656255 -0.17496702 1.0730085
0.87033349 -0.038630977 1.5389867
0.77907997 -0.035024241 1.3756909
-0.38636249 -0.23330468 1.489783
-0.041785032 0.056771748 0.46406031
-0.58752948 -0.14042138 0.95072436
0.40002698 -0.18102655 1.8981047
-0.53496075 0.033175681 0.89402413
0.84790176 -0.065838695 2.4586358
-0.45252359 -0.13865142 0.80698967
-0.12619038 0.059124 0.33663034
1.1928437 -0.25197348 1.9135132
0.40300602 0.011716641 1.2067444
1.2207484 -0.23466951 1.8265171
0.29815263 -0.13554119 0.66168833
0.25163805 0.049552716 0.79619241
1.0485044 -0.18405907 1.5861795
-0.80050653 -0.089355223 1.8257504
0.46739864 -0.12347648 1.7193217
-0.83624172 -0.080056652 1.105648
-0.3764236 -0.15005386 0.80084515
0.10380433 0.05274301 0.6805737
0.31454206 -0.22707653 2.3192348
-0.85251439 -0.17612158 1.2159536
0.64540833 0.031611398 0.85016155
0.22304063 0.056702659 0.33998537
1.0691426 -0.16860373 1.5993328
0.29123914 -0.23515037 1.1479969
-0.46577126 -0.16340545 0.7904532
1.198209 -0.25176966 1.9262738
-0.72779238 -0.097799383 1.6996102
1.1777786 -0.35931897 1.7967696
-0.5655992 0.028477948 0.85230541
0.95793527 -0.041758642 1.8158231
-0.3486172 -0.30611187 1.402545
1.3013418 -0.085302532 2.2957702
-0.52695513 -0.064776979 0.89054036
0.30479574 -0.26949689 1.6285267
-0.61030865 -0.14920391 1.7505231
0.29814631 -0.21175259 1.5320282
0.015638515 0.056456797 0.36427474
0.4344964 -0.056441538 2.1429496
-0.3400194 -0.15786202 1.4884088
0.51482403 -0.15333951 2.3938675
-0.36539334 -0.42870897 4.0845623
-0.55245703 -0.060341708 2.2289343
0.1315717 -0.003605267 1.2205026
-0.88609779 -0.22469553 1.2724817
0.22497316 0.057314247 0.34455919
-0.8483243 -0.21900977 1.275804
-0.49896061 -0.16281378 0.79888725
0.45109975 0.041081544 0.61187601
-0.50839746 -0.10920485 0.89010072
0.6590488 0.03578037 0.80825043
-0.11218296 0.055868149 0.36905646
1.0900773 -0.15559715 1.517102
1.2375987 -0.23928252 1.846416
-0.11751039 0.057488151 0.3853302
-0.86848629 -0.17214116 1.1065967
1.1546675 -0.3526693 1.7553043
-0.055855006 0.058890939 0.35821462
0.28001934 -0.16218492 1.1754637
1.0575864 -0.13489152 1.6878867
0.67023075 0.024998922 1.257319
-0.63997304 -0.19442286 1.6484978
0.25641441 0.051059499 0.80800033
-0.49599832 -0.057480395 0.83819818
0.27733099 -0.012478763 1.8301978
0.47302741 -0.21251898 1.8940668
0.46254319 -0.017017024 1.495312
-0.3258568 -0.29250625 1.4964437
-0.78363192 -0.087638564 1.7829261
-0.51715517 -0.05876936 0.88816524
-0.51237941 0.021277636 0.98292613
-0.054721341 0.058645956 0.35880876
-0.17399783 0.04258142 0.94419098
0.23791222 -0.2326639 1.5756342
0.28738582 -0.25341254 1.5193813
0.24471806 -0.24050024 1.6382048
-0.030337647 0.053565472 0.62347126
0.30670542 -0.29513139 1.5896463
-0.61285973 -0.10745635 2.7391467
0.41491282 -0.34695646 1.9510384
0.66832811 -0.19559927 2.5077024
0.14302699 0.059591807 0.33071256
-0.54984677 0.025377585 0.74724197
0.081840411 0.057052847 0.35292125
-0.52692807 0.020429671 1.0460196
-0.85639429 -0.17472818 1.2236538
-0.20765616 0.053011924 0.39508486
-0.13457681 0.061015368 0.5374434
0.23478408 0.058601461 0.45498204
0.37556762 0.03860037 0.96772146
0.56713533 -0.1727619 1.1475344
-0.20268188 0.057290889 0.36091971
-0.50499785 -0.10615943 0.88403702
-0.53214061 0.14541608 0.88305116
-0.3800379 -0.21151608 1.2350812
-0.38011432 -0.2732603 1.3339672
1.1209381 -0.29106995 1.7719169
0.36900234 0.032567848 0.74915195
-0.10302709 0.056257427 0.52686
0.017251626 0.059636965 0.4202261
0.017170742 0.059638217 0.41558814
-0.33882356 0.051455259 1.0243618
1.1535631 -0.35075849 1.7472062
0.30670041 -0.19824184 1.1405897
0.015973493 0.057927109 0.39571285
-0.70061064 -0.11953076 1.7638679
-0.16498376 -0.11279873 1.4452999
-0.17183657 0.041644283 0.92518663
1.0270755 -0.25334486 1.6331553
0.32511157 -0.18548149 1.791862
0.30916834 0.033403091 1.7706499
-0.040070608 0.056812391 0.6397593
-0.57704794 0.014360464 0.76301408
1.6385446 -0.50874531 3.9537458
0.98415422 -0.071953572 2.7196345
-0.056331739 0.062807836 0.25978255
-0.04140234 0.057357475 0.47822142
-0.05014798 0.058490992 0.49923277
-0.51371706 0.023307933 0.94333601
0.34508169 0.035611566 0.53019714
-0.86498868 -0.21810454 1.1650698
0.6587202 0.039561011 0.89017892
0.65989208 0.028147336 0.79851699
0.34574759 -0.16512562 1.6514843
-0.50001001 -0.10413039 0.87346768
0.60237825 -0.043097414 2.8284569
-0.73069149 -0.12432493 1.8529983
-0.69283235 -0.086828172 1.75809
0.17231099 0.054980919 0.62700272
-0.77957058 -0.086798273 1.7665763
-0.5348891 0.030170012 0.76212144
0.0070935935 0.057703536 0.33374977
0.2218423 0.060828984 0.30778599
0.65845829 0.029183812 0.85887122
0.31678176 -0.28281206 1.824573
-0.38237935 -0.20329042 1.2087936
-0.51512629 0.048714768 0.82135606
0.34619594 0.045566473 0.43922377
-0.30473757 -0.27925196 1.4043279
0.16229947 0.060061127 0.31385922
0.67754203 0.0054687411 0.81341076
0.39574891 0.021710936 1.116189
-0.53186566 -0.17835923 0.8103106
0.4309119 -0.22272339 2.817101
0.24825285 0.052073739 0.69337678
-0.50798273 -0.08514376 0.87974024
0.091337189 0.058393285 0.48314643
0.15483017 0.057988666 0.32023382
0.0058708638 0.059470892 0.3462677
1.1032124 -0.17487581 1.6561675
-0.52850115 -0.082040884 0.88452029
-0.76503289 -0.22616968 1.8593931
0.1369697 0.05229786 0.25494218
-0.73810786 -0.081990197 1.7672153
-0.35576451 -0.21274917 1.3815577
-0.32011747 -0.23864365 1.3792543
0.31600904 -0.1776523 1.7128286
0.22360329 0.05577473 0.26605225
0.41695601 0.015440559 1.2463484
-0.26096886 -0.1776669 1.5317266
0.28884917 -0.28148678 1.5848451
-0.1772757 0.050280932 0.34934425
-0.49901509 -0.16460866 0.70468593
0.02082254 0.059235781 0.34401846
0.29927415 -0.14677238 0.81909132
-0.38278729 -0.2813949 1.300338
0.31942505 -0.29414961 1.6062901
0.47632211 -0.17952846 0.86385965
-0.20585005 0.052725233 0.3905654
1.1298993 -0.27054194 1.5249157
-0.19226365 0.054996502 0.39130712
0.2571125 -0.16299371 1.4116583
0.22052608 0.057585604 0.37854433
-0.36436325 -0.27858427 1.3315127
0.15296604 0.058499843 0.39246225
0.082494333 0.057673976 0.35030031
0.081199571 0.05762957 0.36133194
-0.19716357 0.060736351 0.28520966
0.25083941 0.05902116 0.61631155
0.39504552 -0.16649066 0.80702376
-0.9353267 -0.19308998 1.1972182
-0.54164022 -0.15451512 1.3229449
-0.086628303 -0.057092749 0.71311641
0.17188181 0.054691039 0.62111235
0.29845089 0.049500369 0.51391912
0.2045906 0.060396634 0.34165931
-0.85044765 -0.2170002 1.2110815
-0.15688147 0.042773284 1.0278103
-0.12341113 0.060280353 0.32550454
-0.056084543 0.059090376 0.3583672
0.31225848 -0.156014 1.6694231
-0.029565319 0.056184448 0.68363953
0.2251942 0.057374254 0.45970654
-0.86633635 -0.18878074 1.118309
0.080855802 0.057189751 0.35576773
-0.19888563 0.056243613 0.31938076
0.53136075 0.038553175 0.76706409
0.65689397 0.019404426 0.87453222
0.44955641 -0.13306789 0.74056625
0.2257707 0.057300873 0.34583044
0.39666045 -0.15076707 1.4203203
-0.73076904 -0.052854545 1.8758774
-0.77812374 -0.08741045 1.7758203
-0.39913905 -0.23321521 1.4810925
0.28484553 -0.025804983 1.3930266
0.4530406 -0.14003778 0.76807046
1.9070027 -0.072426118 3.0701814
0.15898754 0.059694842 0.32822132
-0.36374009 0.056232143 0.66843057
0.4695189 -0.14591482 0.95152092
0.2340043 0.0546536 0.56999755
-0.10722239 0.05906149 0.3588171
0.16211538 0.060766406 0.2698071
0.36716282 0.038862653 0.7650454
0.15257539 0.058374304 0.38690972
0.30785799 -0.21342589 1.131758
0.56442636 -0.017478814 0.76228404
-0.12264697 0.059337884 0.32280374
1.1459522 -0.22837362 1.5884411
0.3985585 -0.17092542 0.8212173
1.2805462 -0.10188486 1.531075
-0.52406973 -0.023961535 0.88990307
-0.49818122 -0.16179164 0.79683447
1.147531 -0.25528651 1.7981524
1.0889449 -0.039771438 3.6898165
0.22616859 0.057753891 0.34584808
0.22386949 0.057441153 0.34177566
-0.51796639 0.046254739 0.70557904
-0.36313391 -0.26288295 1.2850542
-0.54060501 0.04900565 0.85311198
1.1723061 -0.31947744 1.6568165
0.48929048 -0.16089562 0.78976202
-0.31136429 -0.25160107 1.2528038
-0.59471095 -0.11352753 1.7122302
-0.6672132 -0.095066674 1.7238569
0.31515843 -0.26181489 1.5809658
-2.787303 0.87477911 3.7761455
0.50149864 -0.14704996 2.0794134
-0.3608011 -0.2166656 1.4188168
-0.22197615 0.034422483 1.0850432
0.35784233 0.012872659 1.7519484
0.084421858 0.059017774 0.36576962
-0.12253867 0.055704966 0.48483324
-0.43726152 -0.21527632 1.6839943
0.30038625 -0.16408426 1.6203549
0.4088397 -0.17613748 0.82996154
0.37153763 0.038800605 0.95471334
1.8659633 -0.11619925 3.2126241
-0.043038592 0.060710475 0.51202989
-0.10429807 0.057937741 0.35043812
-0.16180457 0.038805023 0.85517216
-0.17098148 0.041351765 0.90657592
-0.49424154 0.041376486 0.88067341
0.58128732 0.039227761 0.78956509
0.39853358 0.041509643 1.028944
1.2442193 -0.24671766 1.7714925
-0.44278133 0.045250751 1.1126368
0.18506871 0.060492799 0.35248375
0.2321208 0.054351211 0.29166198
0.87026083 -0.037525617 1.5244198
1.2256349 -0.16167128 1.4958551
-0.12231143 0.061411694 0.36416626
0.15614478 0.058936201 0.29700565
-0.47531432 0.032999299 1.0423553
0.28985143 -0.14363119 0.78181171
-0.23225759 0.065438516 0.49084496
-0.19392385 0.059492096 0.34152246
-0.11942025 0.060869463 0.35164666
-0.85843563 -0.21428303 1.0888758
0.36635107 0.038819246 0.77398634
0.19824947 0.058933362 0.32936239
-0.5246014 0.033574373 0.87795925
1.24435 -0.13328329 1.4771283
-0.36386549 -0.21857177 1.4168971
0.45571154 -0.018678056 1.5680733
-0.10037406 0.05651268 0.55261087
0.45087802 -0.13965955 0.76463699
0.2519058 0.028537851 1.828825
0.54152346 0.027746614 0.6745944
0.60317194 -0.1733893 1.51336
0.45651078 -0.11912655 1.6567855
2.2974868 -0.077176161 3.6799564
0.090186253 0.058186568 0.48042798
-0.10808842 0.059839815 0.36403513
-0.30473822 -0.16995579 1.384819
1.1241734 -0.28882071 1.7733912
0.51754785 -0.14987494 1.4394391
0.18225037 0.059143879 0.34455085
0.29347885 -0.20469111 1.4837878
-0.041588798 -0.074220896 0.96771479
1.4606911 -0.11699759 2.1267138
0.20550136 -0.1978087 1.9131675
0.7919578 -0.079288438 1.4181864
0.26465619 -0.21856263 1.1499016
-0.4933911 -0.16555206 0.74542379
-0.6074301 -0.17927243 1.5540786
0.47190428 0.039451234 0.55473256
0.090231761 0.058461823 0.48318195
0.22308813 0.055354215 0.42782807
-0.56928104 -0.13696668 0.90875769
-0.11863066 0.06056983 0.35514736
0.11852072 0.049068049 0.86508489
-0.52559936 -0.071745917 0.88425827
0.15963779 0.060206577 0.26276326
1.1027145 -0.26209915 1.6568713
0.083885953 0.054130249 0.42840433
-0.52806216 -0.19629736 2.0300956
-0.31620258 -0.30334556 1.3822942
0.41206801 -0.013356848 0.55805564
1.2378279 -0.23867443 1.7765713
0.50008327 -0.018368864 1.9747629
0.022162661 0.06056837 0.35166645
1.0627568 -0.20270321 1.7586598
-0.37469292 -0.23256889 1.4282694
1.1803778 -0.0546652 1.6899657
0.30196488 -0.26601636 1.4808438
0.26213121 -0.22394103 1.6092734
-0.62173313 0.18699661 1.2902865
1.4237854 -0.10521784 1.7677832
1.4684715 -0.10200345 3.6360888
0.41910148 -0.1514515 1.3595338
0.28250211 0.056368351 0.91098332
0.20008512 0.046732657 0.47652912
0.25744015 -0.21611728 1.6192737
-0.011033699 0.048924927 0.8471086
-1.1157849 0.34524396 1.6209075
0.30559999 -0.15551785 1.6100979
-0.35939628 -0.17447898 1.0686417
0.20885931 -0.06070406 0.28779888
0.63482422 0.028290905 0.8270309
0.15188505 0.061512381 0.33802152
0.14065935 0.054080389 0.45872855
-0.48064542 -0.14444639 0.778584
-0.55995905 0.026369747 0.87802768
0.4490186 -0.1383457 0.76093125
-0.57148445 -0.10912079 0.91891909
0.16710411 0.063802682 0.4352603
0.14061306 0.059061818 0.32401276
0.28582567 0.047346361 0.54613996
0.40054339 -0.12094929 0.7035296
0.35680342 0.034246322 0.74762344
-0.83584523 -0.16862875 1.1264706
-0.19540016 0.055699229 0.41390467
1.0201123 -0.19490205 1.6784286
0.15700276 0.059524812 0.2574203
-0.43359405 -0.13291693 0.77233338
-0.19733174 0.060123235 0.28433704
0.27443796 -0.13940978 0.63888168
-0.49085796 0.039779812 0.87278032
1.0649767 -0.13598935 1.4189758
0.084914252 0.060374789 0.29496861
0.47311956 -0.14171694 0.84495354
0.26364136 -0.13407992 0.65107608
0.14486642 0.06072735 0.33653593
0.69979805 0.0060437974 0.84020758
0.0098016709 0.069193877 0.39235258
-0.92636514 -0.078077354 1.4302423
0.71038586 0.031063057 0.93039823
-0.58841938 -0.11173294 0.95574474
0.1556177 0.061185516 0.28030229
-0.20872755 0.055246737 0.31880045
0.023001596 0.061378799 0.41911769
-0.2127225 0.056584686 0.30204058
-0.56623131 0.017322149 0.6928854
-0.12994491 0.059155621 0.35346293
0.15734251 0.059217647 0.29450035
-0.37287092 -0.14343596 0.78838968
0.21961205 0.059915923 0.31620359
-0.48384678 0.041465089 1.0256832
0.20519005 0.061552115 0.34417367
0.42237312 -0.18303286 0.83050919
1.2689785 -0.24061942 1.6122372
0.97149181 -0.11934809 1.5452542
1.1210864 -0.24276447 1.7913876
0.0051385313 0.061073773 0.35458732
0.33072197 -0.23998335 1.1467903
-0.86226726 -0.17633229 1.164273
1.125756 -0.24279264 1.8000627
0.3047297 -0.19577497 1.126965
1.1689253 -0.25230289 1.6002421
0.45247376 -0.17337756 0.85444713
0.42950326 -0.15497652 0.78104162
0.43685669 -0.16637641 0.81902838
0.17273839 0.055273369 0.30755067
-0.47716391 0.048208389 1.1164358
0.55593026 0.025838323 1.0179317
0.81614029 -0.074239016 1.5694165
-0.4902873 0.051136628 0.9416554
1.6555018 -0.067084938 2.6471691
1.0449578 -0.16636652 1.5638132
0.29535222 -0.33646795 1.6707001
1.7259487 -0.39309338 3.2019033
-0.46489215 0.0078243446 1.4314508
-0.87322021 -0.22143672 1.2461057
-0.49278587 0.024251096 1.3579819
-0.57732534 0.010726957 1.7781582
-0.33660769 0.1013415 0.62542272
-0.68329674 -0.20340434 1.7564187
1.5572562 -0.41549903 2.6927061
0.38570446 0.0021025781 1.3676157
1.2113729 -0.23440859 1.7448268
-0.7578119 -0.085674472 1.800736
-0.54149556 -0.073455222 0.91714549
0.28941387 0.025997799 1.224489
-0.73199832 -0.069602057 1.7559361
0.16292705 0.052757449 0.28677058
0.50729686 -0.14905275 2.1064825
0.48657346 -0.12087779 2.1261234
0.43643939 -0.19177927 1.8818202
0.25437838 -0.20873393 1.5768294
-0.47742999 -0.004465485 1.4081993
-0.032392874 0.054317072 0.63559079
-0.35868907 -0.25768811 1.2544572
0.86118901 -0.087076582 1.552263
1.7639623 -0.070822194 2.8151798
-0.25154328 -0.22812948 1.2366545
0.11571158 0.048776291 0.82535052
2.0179498 -0.075216882 3.0761323
-0.97443581 -0.090659656 1.4642036
-0.48605418 0.0091548786 1.4414463
0.29465514 -0.17270508 1.6471026
1.1121657 -0.041796669 3.7895193
-0.30004549 -0.26276901 1.4478323
0.22444402 -0.1645162 1.751862
0.99684364 -0.26240838 1.6700349
0.32287169 0.006241329 1.8810763
0.32784027 0.03327971 1.4058666
0.052914485 -0.0011092164 0.12593508
-0.17711766 0.027467871 0.83228517
0.46599478 -0.11425989 2.0135388
-0.31537014 -0.23549482 1.7456589
-0.61784852 -0.1823681 1.5763311
0.33431822 -0.37255061 1.6104698
1.038316 -0.042017452 3.5051789
-0.85219157 -0.17346025 1.2333612
-0.51784825 0.054524623 0.69610572
0.29400504 -0.21175097 2.4967384
1.0981239 -0.28142226 1.7310309
-0.28502142 -0.050958119 1.3154931
-0.34003788 -0.31406555 2.6808372
