# .PCD v0.7 - Point Cloud Data file format
VERSION 0.7
FIELDS x y z
SIZE 4 4 4
TYPE F F F
COUNT 1 1 1
WIDTH 269
HEIGHT 1
VIEWPOINT 0 0 0 1 0 0 0
POINTS 269
DATA ascii
-0.1310118 0.049429026 0.65552652
-0.13839819 0.046097692 0.60548955
0.4364641 -0.13700889 0.59658593
1.0139716 -0.082323968 1.8040217
0.35233131 0.045198988 0.61885422
0.7852385 -0.132447 1.967689
0.69994199 -0.13959032 1.7102971
0.99629146 -0.22554742 1.7961643
-0.075070545 0.068279915 0.77707148
0.36399779 0.050231554 0.47676742
0.67915696 -0.15282193 1.6890068
-0.097184077 0.055910323 0.26412922
-0.19006924 0.052956726 0.37437034
-0.08340355 0.05694329 0.46974856
1.295276 -0.38607812 2.2651494
1.0948796 -0.35198006 1.9469862
0.33260542 -0.17265438 0.82854146
-0.81021488 -0.027265916 2.2192299
-0.70505643 -0.07348796 1.8937058
0.36961326 -0.17203145 0.90810215
0.298379 -0.17994662 1.2106967
1.2403331 -0.43764359 2.2857251
1.2497077 -0.29783595 2.1133664
-0.14543632 0.042959359 0.8832503
-0.17239918 0.046560686 0.96404362
-0.60120475 0.004659649 1.3593421
-0.71411383 -0.18003418 1.5698406
-0.06502828 0.05484106 0.44284004
-0.16976529 -0.23647413 1.2376742
0.19967432 -0.2452762 1.114681
-0.54345179 -0.0061999559 1.2861687
-0.16793792 0.050735056 0.52235872
0.21718384 -0.18222597 0.88531727
-0.9419291 -0.1355515 2.0595679
0.24847077 -0.1756644 0.85095435
0.28075257 -0.19413731 0.90438235
0.29966798 -0.20445307 0.90100682
0.18847996 -0.16630191 0.98144484
0.18789244 -0.18407936 1.0633199
-0.086388789 0.055264197 0.25756198
-0.069737315 0.063385747 0.2942993
-0.13897508 0.048315074 0.50386494
-0.16871755 0.051906992 0.58660579
-0.58576459 -0.19433944 1.2172246
-1.0953336 -0.12003497 2.6245601
0.21985002 -0.21352445 1.0925671
0.22750753 -0.25216636 1.1563492
-0.06087777 0.059146829 0.52424526
-0.081733078 0.070283286 0.62730032
-0.15959255 -0.079610266 1.0008658
-0.07032346 0.056934051 0.37014794
-0.96532285 -0.040307958 1.2216718
-0.97118753 -0.23311931 1.1943197
-0.50526077 -0.22474448 1.073889
-0.86527836 -0.16861418 1.3147355
-0.67465043 0.022114381 0.85752118
-0.207946 0.012631761 0.32792777
-0.61780971 0.020221401 1.3841202
-0.21233703 0.052385963 0.3319695
-0.24029604 0.054073904 0.35938209
-0.13772108 0.054090187 0.28160387
-0.21001342 0.040300731 0.66603589
-0.20530166 0.016569253 0.66037452
-0.17933102 0.039991673 0.68048561
-0.53722179 0.033189971 1.6432359
-0.037847485 0.061958965 0.33147132
-5.0223374e-05 0.058511559 0.34212232
-0.036523614 0.062924042 0.47591925
0.14703795 -0.18909031 1.1362181
0.37547001 -0.1731129 0.87250727
0.32431716 -0.21334419 0.91343081
0.31324601 -0.18587708 1.1657927
0.07461863 0.061985891 0.35511047
0.044152465 0.064661033 0.29561877
0.0471338 0.063603245 0.29256564
0.2457262 0.048067573 1.0126137
0.16478136 0.064295299 0.76189232
0.077962458 0.053998552 0.59477782
0.17788766 0.06259305 0.35257983
0.29192534 0.048353363 0.64996707
0.28636569 0.052060321 0.70532018
0.59578693 0.03884431 1.5870497
0.46140945 0.028395135 1.6532174
0.4107075 0.015382243 1.5583137
0.1415396 0.061970394 0.43583071
0.25258753 0.063583054 0.73213595
0.68841261 -0.020906186 1.1133788
0.66562009 0.0096936822 1.1735457
0.85159343 -0.063681401 1.0005023
0.78729367 -0.074040927 1.0316393
0.73424971 -0.04573762 0.97256887
0.70360827 -0.046146441 0.88959122
0.59014499 0.015033258 0.89147538
0.31128088 0.054768149 0.45604694
0.49915147 0.044323023 0.63985282
0.55061018 0.025108192 0.65241069
-0.1671665 0.054391626 0.34440023
-0.16164054 0.055974677 0.3847177
-0.17352013 0.056102563 0.38558364
-0.1039466 0.052183386 0.25290161
-0.087492622 0.055493519 0.26222587
-0.20201379 0.052969363 0.50233275
0.32717487 0.026939392 0.60003304
-0.15334775 0.051893376 0.43434596
-0.21105725 0.051579274 0.32859975
-0.16653007 0.053990245 0.36812997
-0.10147949 0.053834479 0.26747853
0.36704111 0.038527828 0.4523173
-0.64380312 0.028030882 0.84799689
0.10090963 0.064774781 0.27840948
-0.10509329 0.051692862 0.29070193
-0.17221548 0.050101783 0.44848365
-0.075440645 0.058779709 0.36538291
-0.059042066 0.0484454 0.29784596
0.39095733 -0.13787025 0.5989393
-0.20488113 0.054793794 0.37202841
-0.14087072 0.052805584 0.35526949
0.27139401 0.056049444 0.42684597
-0.10648673 0.056433868 0.28623182
-0.082798235 0.055307813 0.26696694
-0.078338221 0.05691015 0.32581383
-0.10613625 0.057259668 0.25737005
-0.097428456 0.054021288 0.38021678
-0.13882539 0.055312876 0.38375235
-0.15478933 0.056273296 0.37132776
-0.11399866 0.05249304 0.39270419
-0.31142041 0.055501223 0.40039647
-0.23958844 0.053725086 0.35800368
-0.29572245 0.05227023 0.44918674
-0.072324224 0.057193097 0.25087965
-0.15663148 0.046674401 0.47891724
-0.016868407 0.060784671 0.2902801
-0.070592426 0.064092167 0.30234784
0.074130908 0.061185032 0.35334259
0.24141684 0.064105235 0.46339238
0.14650522 0.063082993 0.52835447
0.72654694 -0.042057905 1.0226053
0.38935402 -0.13743512 0.59635228
0.44097883 -0.13881293 0.60414308
0.78677934 -0.075075082 1.030921
0.36929181 0.050501328 0.48616338
0.34335464 0.021022473 0.6706655
0.27568483 0.056802895 0.43432695
0.57481092 0.024206948 0.75085014
0.40139419 0.046734333 0.49148321
-0.17391603 0.053778622 0.33991784
-0.21542844 0.054293785 0.44768929
-0.11853368 0.048821986 0.38168776
-0.098261207 0.051328015 0.36923039
-0.18282901 0.058519188 0.40181249
-0.088129453 0.055855684 0.2644341
-0.31444663 0.055918887 0.40473908
-0.1942054 0.04816829 0.32720822
-0.18781982 0.047289517 0.36050129
-0.25922027 0.055581581 0.3488301
-0.60105485 0.061475798 0.88395989
-0.19389717 0.050416913 0.47732502
-0.075458415 0.058434851 0.36456448
-0.017899299 0.063673578 0.30687249
-0.070887856 0.064534537 0.30621165
0.069621436 0.057798639 0.332744
0.093811013 0.058570594 0.37520355
0.15381938 0.062884443 0.34561884
0.23558199 0.063065641 0.45028704
0.16825782 0.060399324 0.43744993
0.33289656 0.048170831 0.46289212
0.38485608 0.047682617 0.51704657
0.37286189 0.04790796 0.50368375
0.38305297 0.041593168 0.63771766
0.35769323 0.044643495 0.62859851
0.21465358 0.057359196 0.3664847
0.30583006 0.047212716 0.58180082
0.55996966 0.025364822 0.7305578
0.39680749 0.046230935 0.48531181
-0.083169289 0.06147477 0.31357867
-0.082583472 0.057065394 0.28291756
-0.091198124 0.056333598 0.35374993
-0.10518394 0.052832559 0.27297658
-0.11876633 0.055655006 0.33221895
-0.12402109 0.054874878 0.31780094
-0.6387912 0.016439635 0.90777993
-0.65062737 0.023156023 0.88424641
-0.61377478 0.060533911 0.78868663
-0.73243719 0.06149004 0.91328418
-0.22557403 0.042609476 0.35523713
-0.2047049 0.05134882 0.3485173
-0.26653013 0.056594856 0.36008888
-0.15096807 0.046645835 0.48644978
-0.16493958 0.053124201 0.35442269
-0.19905894 0.05181266 0.49276412
-0.06532485 0.05990541 0.27923161
0.041464441 0.060023241 0.34150338
0.10984162 0.06765496 0.39151073
0.19475339 0.063556224 0.45744973
0.17107414 0.061468739 0.44564235
0.59034574 -0.013208702 0.95259893
0.24716634 0.065610804 0.43586487
0.32250556 0.052731518 0.48050487
0.30735451 0.052941158 0.43924832
0.35964864 0.044282507 0.6294812
0.56074047 0.025903365 0.73166239
0.39694807 0.046522874 0.48708743
0.81050545 -0.061560474 0.95176232
-0.25966537 0.049056474 0.35106575
-0.62159789 0.061276574 0.799371
0.13135217 0.057117719 0.40254229
0.34391052 0.042097285 0.59974629
0.60344595 0.029291881 0.79488271
0.3794556 0.047283504 0.50741899
-0.19842911 0.053775176 0.35736728
0.21231028 0.053385537 0.61543924
0.16571735 0.06011042 0.42819577
0.32007718 0.056976426 0.39202237
0.40429658 0.046909373 0.49747401
0.36557525 0.047383167 0.46937913
0.30182636 0.027176118 0.54469734
-0.19335802 0.048548505 0.32529968
-0.057583589 0.045972172 0.27758509
0.21474148 0.057513963 0.40614027
-0.15485586 0.060395107 0.38451797
-0.58125508 0.020675579 0.78108287
0.12892793 0.056140166 0.39430988
0.36464638 0.045870055 0.4849236
0.29395872 0.058357153 0.46635973
0.23438376 0.055716012 0.39122272
-0.16971226 0.05470429 0.40883285
0.065961584 0.05530367 0.32232606
0.068299763 0.062365483 0.37220722
0.21198019 0.060073044 0.38319695
-0.64068305 0.064096712 0.82616681
0.38472468 0.047298253 0.6773116
0.23357879 0.058095261 0.43602777
0.46744922 0.047054246 0.62539047
-0.12349725 0.058281302 0.35173094
0.16173756 0.058902822 0.41663659
-0.14048511 0.055077203 0.39476079
-0.047120161 0.037329908 0.21874551
0.34087732 0.040363159 0.62520826
0.29874966 0.033289962 0.58121514
-0.094672993 0.05686269 0.3668679
-0.10245313 0.057772942 0.3365711
0.10665327 0.066378109 0.3797785
-0.26048544 0.055441815 0.35083455
0.39516881 0.052330889 0.51514626
0.4791857 0.071866505 0.66522223
-0.26379317 0.050204169 0.4197576
0.22937387 0.05539123 0.38267004
-0.11907697 0.056643691 0.37023532
0.343187 0.040091813 0.62941676
-0.19467551 0.027384462 0.33016169
0.20306136 0.052712239 0.58721441
0.30287212 0.050004963 0.40800542
-0.14256287 0.052902382 0.41172796
0.30285975 0.048988156 0.42620885
-0.065174438 0.056477237 0.35403198
0.655617 -0.044724513 0.8641634
0.25580385 0.057497598 0.38310033
0.14109273 0.060062788 0.43933994
-0.15717083 0.054872841 0.41876191
0.35572249 -0.011307906 0.65810722
0.42815703 0.044663146 0.56898379
0.53355062 0.079665326 0.74624556
0.25502282 0.057122145 0.38171041
0.070974655 0.057484567 0.40080178
0.33569917 0.036502484 0.66382354
0.29024246 0.012234913 0.56080168
0.61303186 -0.019547051 0.98366833
0.24924153 -0.01267623 0.48684824
0.2288063 0.06060075 0.64460301
