# .PCD v0.7 - Point Cloud Data file format
VERSION 0.7
FIELDS x y z
SIZE 4 4 4
TYPE F F F
COUNT 1 1 1
WIDTH 361
HEIGHT 1
VIEWPOINT 0 0 0 1 0 0 0
POINTS 361
DATA ascii
0.65456772 -0.10780467 1.3941796
0.65883529 -0.12985919 1.366519
0.97341657 -0.2190696 1.4951704
-0.92002511 -0.025994331 1.9253898
0.28007323 -0.18165423 0.90460855
-0.18616074 0.051672287 0.58195907
-0.19725822 0.05080995 0.56373686
-0.76718897 -0.1799729 1.1832359
-0.85818875 -0.11424293 1.3461754
-0.18872857 0.039258637 0.25480813
0.2239231 0.056304861 0.66777498
0.56507277 0.018188186 0.67221421
-0.60633814 0.016164586 0.91802341
-0.73117244 -0.17620762 1.2146156
-0.71960038 -0.17162378 1.2029791
-0.59242988 0.016937159 0.8906011
1.0471421 -0.1834489 1.3392923
-0.79171818 -0.20861147 1.2845175
-0.84275639 -0.20366511 1.2146685
-0.59672862 0.018537501 0.8993631
0.51772672 0.047272485 0.76493579
-0.72827601 -0.20219821 1.0908544
0.20292979 0.06437216 0.38969898
-0.5733037 0.016160984 0.89646858
-0.19884603 -0.059492502 0.62778705
-0.59400088 0.019253507 0.89388412
0.3930749 0.049644925 0.58533102
0.26907495 -0.15892331 0.88096112
-0.84715885 -0.20550425 1.225507
-0.81629235 -0.17745297 1.2016292
-0.83150423 -0.17220771 1.211329
-0.75116116 -0.17071353 1.1798344
-0.17641684 0.046337482 0.67027849
-0.94309759 -0.090492353 1.8418784
0.29853165 0.025014304 0.92962211
-0.18735547 0.03720649 0.24995804
-0.14585443 0.052008662 0.52210468
0.36671254 -0.092585467 0.68542761
-0.68039161 -0.18300027 1.0424836
-0.21651582 0.021961085 0.64194447
-0.79734761 -0.19326004 1.1390555
-0.62667501 -0.18078838 1.0605128
-0.69975245 -0.16873683 1.1346717
0.10252805 -0.22834568 1.0435426
-0.74539042 -0.17066953 1.1634743
0.53482813 -0.029292606 1.1215038
-0.86643767 -0.21172741 1.2741208
3.2972639 -0.61570483 4.448976
0.50823426 -0.15913959 1.3865252
-0.17905042 -0.0799594 0.58575934
0.14947882 -0.13108054 0.66217655
-0.82627821 -0.14721555 1.2587433
0.20431438 -0.15136115 1.0015268
0.99347222 -0.26744184 1.5263288
0.57332778 -0.035624269 1.7893963
3.3724341 -0.60960925 4.583343
0.43424228 0.048442781 0.55406922
0.37716448 0.030943669 1.4782145
0.33653259 0.030898307 1.342154
-0.39765424 -0.19462387 1.0266798
0.22332075 0.058422942 0.32026076
-0.041379299 -0.18819104 1.0178845
-0.8937875 -0.027201809 2.1040094
0.4815377 0.047412358 0.68401009
0.064093277 -0.21590483 1.0411205
0.085453652 -0.19917262 1.0245457
-0.76749903 -0.1742055 1.2053552
-0.79954946 -0.044850767 2.0207436
0.50786644 -0.04479624 1.8283763
-0.89722538 -0.10066084 1.408402
0.4337365 0.048911277 0.55274719
0.3795346 0.02968251 1.4707601
-0.081577912 0.054108884 0.43223894
0.76407737 -0.13192111 1.417551
-0.2385404 0.052697025 0.5165562
-0.7430262 -0.17700803 1.2560618
-0.19041538 -0.044754799 0.63082749
0.086665891 -0.19359428 1.0024748
-0.1982667 -0.059540141 0.62545782
0.062630862 -0.2147796 1.0332687
-0.65122801 -0.16071185 1.0331287
0.1042392 -0.22804135 1.0437794
-0.21871372 0.022378031 0.64190012
0.38771135 -0.0080573214 1.405983
0.25661677 -0.008632184 0.48025429
0.22175616 0.056507412 0.47302771
-0.94941866 -0.13897704 2.0834856
-0.026388334 0.05845046 0.32597607
0.48657465 -0.12147518 2.3285513
0.16986361 0.027801551 1.1909139
0.94154423 -0.067481726 1.4107363
-0.13725868 0.056996055 0.35215378
0.25203547 0.053063802 1.1824284
0.73396367 -0.0022073183 3.386862
-0.063267656 0.058551785 0.69773585
-0.19534966 0.051060881 0.55631727
-0.75249869 -0.060410146 0.97948009
-0.82782865 -0.044053297 2.2080889
0.21829775 0.060237233 0.50335425
0.18969835 0.064215802 0.30573976
0.3765915 -0.16411696 0.89986593
0.21364239 0.060558368 0.27444267
-0.19946335 0.024485454 0.70980603
-0.20106073 -0.064380668 1.0387313
-0.57184857 0.012693461 0.85820216
-0.26519001 0.053566143 0.53411132
0.051686872 -0.23595192 1.062737
-0.57723325 0.022224549 0.92908198
0.21742961 0.059460714 0.5000422
0.23111764 0.056604601 0.61592466
-0.97075081 -0.12901819 1.5487025
-0.69107723 -0.1654408 0.99171644
0.8409096 -0.1834459 1.4196563
0.42077261 -0.16402124 1.710943
2.8096993 -0.49810591 3.879354
-0.0058334931 -0.22866674 1.0581167
0.88319135 -0.15855914 1.432411
0.51206148 0.05010891 0.74502295
0.39183393 0.049353946 0.58370644
0.8658433 -0.15078884 1.391758
0.10117844 -0.24242686 1.2650595
-0.76496404 -0.20844547 1.0850017
-0.89587951 -0.028549239 2.1104834
0.071574494 0.059529342 0.51026678
-0.18946311 -0.021953873 0.24632829
0.30909377 0.020610824 0.60326451
-0.18781254 0.023239009 0.98666877
-0.90948898 -0.023794055 2.1636972
-0.21304739 0.020985592 0.63218731
1.2053553 -0.26714444 1.7777975
0.45387527 0.044623069 1.0885975
-0.19464545 -0.028262764 0.62666839
-1.1989629 -0.2631138 2.4157801
0.29978079 0.02898619 0.63387758
0.21725345 0.059150405 0.49919325
-0.087905943 0.053983659 0.30963397
0.9564389 -0.19078742 1.4355662
0.1880171 -0.28538522 1.4223921
0.16942158 0.064613134 0.88247436
-0.18077482 0.051801857 0.48748034
0.02193526 0.057546489 0.47217369
-0.12833941 0.053454507 0.32104123
0.96057862 -0.097950406 1.4310043
0.28469008 0.040619452 1.5530906
0.40276167 -0.058130417 2.1279454
0.38407126 0.026172955 1.7215471
0.067277156 0.063970119 0.2902661
0.073279426 0.060331345 0.51573747
-0.93303621 -0.10943581 2.1130557
0.070444018 0.058024168 0.49009413
0.22308326 0.058342498 0.31959701
-0.13855755 0.050779331 0.64944524
0.38388234 -0.24130958 2.4438894
-0.58016467 -0.0013402915 0.92472416
-0.59768391 0.04160184 1.2917864
-0.078116544 0.05556792 0.33845949
0.42163426 0.050031256 1.0938363
-0.9104594 -0.025060121 1.894933
-0.20717055 0.054361667 0.46302432
-0.075153492 0.059301272 0.27106518
0.12852022 0.063486971 0.2883563
0.069166496 0.05833583 0.49038792
-0.08720322 0.053536084 0.30594271
0.24708369 -0.1189906 1.3294704
-0.20409445 0.053896323 0.48647887
-0.041434277 0.048250366 0.79458278
0.38502517 0.044650115 1.0448272
0.1776766 0.06541346 0.32187372
3.0975375 -0.52328241 4.3173952
0.21933877 0.058241531 0.50870889
-0.42073292 -0.171481 1.0638845
1.0289875 -0.20420587 1.5473812
0.16373159 0.06151418 0.82888943
0.30617729 -0.10622409 0.63135141
-0.89633608 -0.026883688 2.1167269
-0.13682149 0.050576486 0.63911635
0.46277338 0.044613805 0.65596944
0.2043059 0.060668901 0.36024261
0.50484347 0.048011549 0.6295827
-0.22256321 -0.12375095 0.72354561
0.49084058 0.049529146 0.70404512
1.9949247 -0.28138119 2.75511
-0.9451412 -0.12526947 2.1487586
-0.071195081 0.060248289 0.42230266
0.49408957 0.046632078 0.61202949
0.21063593 -0.26382473 1.5915246
-0.17816888 0.033721931 0.61793619
-0.23946431 0.05409234 0.42578626
-0.83548981 -0.11260981 2.3005693
0.40851927 -0.013283626 0.64254004
0.6601755 -0.18388157 3.2550075
-0.0010833158 -0.22037396 0.99559838
0.8059094 -0.17441431 1.4238219
0.37150154 -0.16271386 1.4755597
0.29158211 0.032740932 0.4115665
0.94328946 -0.16367528 1.4522102
0.07328555 -0.22091168 1.0558734
-0.90131819 -0.1028945 2.1069899
-0.596192 -0.0067978678 0.90989405
-0.62699121 0.020529203 0.91055697
0.049562395 -0.23695758 1.0515773
-0.5044139 -0.22891475 1.1621256
-0.13622493 0.051868025 0.50247836
-0.18552379 0.04953821 0.55813032
-0.85407209 -0.11665587 2.3530085
-0.6172778 0.03752372 1.3407044
0.20001087 0.064393245 0.38319325
-0.078564808 0.055602904 0.33838224
2.1991882 -0.33295608 2.6751449
-0.97669578 -0.15498276 2.0233331
0.18149629 0.064208455 0.30857182
-0.18186468 -0.21914855 1.1564784
-0.84760779 -0.18568334 2.3444626
-0.079452962 0.056042224 0.34166747
-0.84125704 0.034501221 2.3909364
0.3540929 0.045120019 0.97087079
-1.247532 -0.20029792 2.5435145
0.21709085 0.06068486 0.25674307
0.45161188 0.042698354 0.58289629
-0.77026606 -0.0023272261 2.2836623
0.13287136 0.065871291 0.30087668
-0.20485295 -0.097679891 0.60733205
0.087999247 -0.23888548 1.0567074
-0.9040274 0.02072686 1.7800398
0.83085746 -0.17824525 1.4153857
-0.80463797 -0.14441773 1.2275178
0.23812443 0.057292763 0.29034513
0.35651931 0.043806717 0.97288865
0.041058801 0.055822715 0.45762771
-0.82270551 -0.045896057 2.0811534
0.34106344 -0.052670557 1.0319822
-0.24223739 0.054392692 0.43269962
-0.42197683 -0.22287701 0.99581867
-0.61707133 0.040674318 1.3357034
-0.077777103 0.056152355 0.33978307
0.7962817 -0.045314472 2.1212392
0.22305538 0.0588376 0.51921934
-0.029120171 0.063987076 0.36997259
-0.41853166 -0.20764579 1.0293586
2.1817172 -0.35672316 2.6400292
-1.2304531 -0.19993928 2.5047319
-0.26853874 0.056479089 0.51512098
-0.18742086 -0.043550804 0.61835951
-0.12675294 0.048894551 1.0583439
-0.88424355 -0.12794898 2.4186513
-0.074385926 0.058287896 0.26779866
0.83086085 -0.15292497 1.412792
-0.12936941 0.053970508 0.32464528
0.43661505 0.043007355 1.0301397
0.066792443 0.063899897 0.2886464
-0.40465492 -0.19792508 1.0413287
-1.2191979 -0.28378013 2.2189605
0.43130699 0.048018608 0.54970092
3.0150807 -0.46775278 4.1249852
3.2236693 -0.59160453 4.3128176
0.16916509 0.056031182 1.0090332
-0.20897539 0.055542562 0.46824002
-0.22091497 0.04976096 0.51832825
-0.20226079 0.053813424 0.48213255
0.40849373 0.044564605 1.1110482
-0.12986386 0.051719509 0.30338329
-0.90130973 -0.12635829 2.4849596
0.90357554 -0.056836102 2.2549379
0.45395699 0.045720082 0.65205902
-0.044876713 0.055385731 0.31992579
-0.19696327 -0.028310169 0.63558656
3.6668949 -0.58729553 4.7168417
-0.087177418 0.053287506 0.30435717
-0.2793802 0.05711836 0.46525776
1.1468769 -0.053216841 2.7553308
0.5745874 0.054198533 0.85260731
-1.335374 -0.1835243 2.6106601
0.46317607 -0.014259336 0.72288972
-0.015500737 -0.21891689 1.0214386
-0.93506479 -0.026464168 2.2352822
-0.18122977 -0.072991133 0.59248072
-0.18127525 0.00070045888 0.72570509
-0.40104061 -0.1806249 1.0242994
-0.089129686 0.054738238 0.31576204
-0.071600884 0.061616555 0.44599241
-0.14217557 0.050669283 0.23805541
0.47036302 -0.068518005 2.5467823
-0.081734277 0.059308272 0.32797098
-0.22795168 0.022154104 0.68337184
0.35000426 -0.19941327 2.2163486
-0.21471807 0.057912659 0.66960794
3.3071866 -0.62293297 4.4443936
0.21247554 0.062367596 0.37362605
0.59213877 0.016916014 0.82557529
0.12748593 0.063133687 0.28463072
-0.86460096 -0.1256668 2.3541915
0.9689008 -0.2180998 1.4844704
-0.1459136 -0.26399389 1.2358303
-0.10691023 0.05521448 0.41358268
0.32455385 -0.13589859 1.5949295
-0.20116064 -0.040819932 0.63099712
0.065726936 0.063050225 0.28295135
-0.19053376 -0.067976892 1.0145779
-1.1283039 -0.28501657 2.3486972
-0.8536799 -0.11276222 1.3397896
-0.20564409 -0.061578337 0.65498024
-0.59543973 0.040370304 1.2867472
0.58674783 -0.18109328 1.5828559
0.45430738 0.043947197 1.0761755
-0.49836713 -0.21206452 1.1327357
0.56940484 -0.17473713 1.546864
-0.18018651 -0.0030876547 0.92666274
0.57377839 0.022911012 0.72571963
-0.19253007 -0.038838942 0.59749383
-0.17188857 0.036930893 0.31278008
0.091447666 -0.19596021 1.0188844
0.019626698 0.060725421 0.30874538
-0.051040705 0.061625313 0.36230248
-0.057313632 0.058965582 0.73401612
-0.20118324 0.052872136 0.57739156
0.39289486 -0.17952576 1.8711524
-1.3323534 -0.20518793 2.6232808
-0.49291664 -0.2386274 1.1181092
0.31546775 -0.14285375 2.2568517
-0.11622684 0.045172058 0.97798175
0.42384982 0.041028965 0.60204464
0.070481762 0.060491096 0.41591632
0.2598114 -0.02238242 1.874934
0.45863736 0.048277579 0.60526389
-0.2396846 0.052917663 0.52164453
-0.24713585 0.054637164 0.54093653
-0.05989806 0.059190914 0.50685263
3.0847516 -0.5841912 4.1470962
0.23567516 0.056600917 0.28632128
3.263314 -0.59595239 4.4529037
-0.11468323 0.059021559 0.45043892
0.41021413 -0.18168403 1.9187341
-0.64687026 -0.1796169 1.1096275
-0.23777869 0.053027872 0.4226709
-0.14171796 0.05671424 0.47559607
-0.93487942 -0.12495568 2.0688853
0.39339358 0.047031354 0.58110303
0.34551838 -0.066063896 2.3757746
0.22100063 0.054781202 0.58483618
-0.13936572 0.0515108 0.23008907
0.24042766 -0.15920703 1.5569758
0.59579396 -0.18260778 1.6084514
0.55481082 -0.1842774 1.6834092
-0.088308692 0.054464869 0.31313848
0.69371992 -0.21397115 1.903739
-0.045383614 0.052387975 0.90237015
-0.90795207 0.030748077 2.2785838
-0.83579075 -0.035675466 2.2978623
-0.53241646 -0.20041116 1.099159
-0.11075506 0.053213362 0.29005957
-0.87932599 0.03719065 2.1581311
0.21127047 0.062174961 0.36849385
-0.19449979 0.02945286 1.0272167
0.025705716 0.061589055 0.28830063
-0.27957505 -0.0019908715 1.3880472
-1.4704883 -0.13548924 2.639719
-0.94893909 0.021879967 1.8881059
0.21233068 0.060278248 0.27319884
-0.038182426 -0.18528733 1.0153913
-0.0011139191 0.051716205 0.64757174
-0.91478884 0.033166822 2.6104732
