# .PCD v0.7 - Point Cloud Data file format
VERSION 0.7
FIELDS x y z
SIZE 4 4 4
TYPE F F F
COUNT 1 1 1
WIDTH 473
HEIGHT 1
VIEWPOINT 0 0 0 1 0 0 0
POINTS 473
DATA ascii
2.0623178 -0.090914354 3.1002319
2.0917504 -0.093866736 2.847265
1.6873193 -0.10719702 3.1000922
-0.034931779 -0.20352745 3.3564045
-0.037087202 -0.20308298 3.3882396
-0.088047028 -0.38819313 3.650142
-0.03347367 -0.0081273466 1.8353937
-0.035977483 -0.20329149 3.4250276
-0.049436212 -0.37508738 3.5214512
-0.10236955 -0.33334666 3.7879055
-0.070100725 -0.0041230023 1.7466362
1.0934714 -0.25285932 3.190347
0.68622339 -0.052132688 2.0257375
1.223129 -0.37808442 3.5989983
0.96946537 -0.35945034 2.6888669
-0.13022333 -0.419067 3.5523255
-0.14103937 -0.44051707 3.7666757
-0.56361365 0.016377434 1.2119734
0.9647845 -0.22688654 1.3925207
1.1173469 -0.18352784 3.1110795
-0.57153165 -0.36186448 4.1479435
-0.6837939 -0.48184326 3.3059685
0.653929 -0.032466322 1.2070086
-0.55406088 -0.13218926 0.81194949
1.0214338 -0.024697907 2.4975111
-0.80320632 -0.056674585 1.1032016
1.0531441 -0.03725493 2.4510305
-0.098516166 -0.37324852 3.3513138
-0.66246748 -0.43943447 3.6142666
-0.78573453 -0.42386529 3.2130153
-0.78137434 -0.19011779 1.0906742
-0.53464848 -0.06265036 0.74910474
1.2262795 -0.23866728 2.2749498
1.2219299 -0.35861439 2.7072585
0.98817599 -0.020568524 2.4095185
0.98199892 -0.021602169 2.3822539
0.62644327 -0.021720283 2.0933192
1.1052104 -0.080915317 1.9405072
-0.63629961 -0.45139572 3.3382156
1.0941269 -0.2288526 1.3101904
1.1505973 -0.17789392 3.2540486
0.38354427 -0.12528679 1.3366711
1.2280219 -0.28779781 2.6758029
-0.97147918 -0.064543828 1.7494895
0.29360998 -0.046297058 1.6070564
-0.65981913 -0.42650256 3.5477931
0.19993401 0.012873251 1.2710078
0.32705218 0.02527578 0.63149476
0.45129377 -0.15543687 1.0044644
0.20391238 -0.20553857 0.97820878
-0.80997074 -0.097471401 2.1544063
1.1003053 -0.22994208 1.332958
-0.68468618 -0.26233327 3.5250523
0.19558239 0.041593708 1.2197597
0.33157086 -0.022363164 1.605799
-0.7955153 -0.067649573 1.0896919
0.33096468 0.021751408 0.64537692
-0.79134572 -0.35522211 2.8174694
2.1247401 -0.080497071 3.3794196
0.20296085 -0.14796099 1.095196
0.36064184 -0.13730392 1.5018561
1.6515324 -0.3277359 3.2365148
0.19964427 -0.15561971 1.0800006
0.32153302 0.046585843 0.41343045
-0.21675724 0.049013816 0.2884028
-0.21747142 0.049176492 0.28844619
-0.79753065 -0.10813589 1.0831788
1.0042446 -0.28310612 1.2588742
1.3462551 -0.11973864 1.7153947
0.75504816 -0.081622049 1.0093389
-0.73826265 -0.17397061 0.99026155
1.2344844 -0.097894236 3.2270186
-0.82466197 -0.062324844 1.0704699
0.15614903 -0.20755747 1.0584943
0.078910261 0.063425161 0.37248659
1.7228214 -0.070452437 2.479254
0.24115396 0.040136859 0.85382223
-0.74634433 -0.17605528 1.0043356
3.0938866 -0.14745836 4.8932705
0.18056095 -0.24141484 1.0438299
0.44686252 -0.2233465 1.6236088
-0.19056278 0.058060836 0.37883687
0.22051412 -0.17775765 1.0984986
-0.78338814 -0.05316706 1.0630138
1.0019113 -0.27499568 1.2858541
0.99546695 -0.021545105 2.4249818
1.9727331 -0.071996525 2.9563863
0.35325783 -0.041346326 1.0913041
0.39410305 -0.070839494 1.4746783
0.21830583 0.05677174 0.35088801
0.060906231 0.041351825 1.2443383
0.21581846 0.058453564 0.37836623
0.59736472 0.038670316 1.1313212
-0.02650246 0.045873016 0.99141502
0.44915897 -0.10889173 0.56964111
-0.19577658 0.057481073 0.3848114
0.73374873 -0.026636783 0.91000581
0.081519842 0.054943375 0.53714275
0.3647368 0.021323964 1.1676705
0.19126874 0.042683102 1.1829979
0.99129367 -0.13623011 1.1435173
-0.31548023 -0.34752834 3.8303659
1.0031357 -0.25949076 1.2325914
1.5602878 -0.057248577 2.3171856
-0.78565168 -0.18339999 1.0766177
0.29948539 -0.051854737 1.0595753
0.40322274 -0.080777809 1.5284183
0.76901698 0.029914686 1.2961605
0.3699888 -0.13770494 1.5309012
0.11137104 0.045689873 1.0044804
0.17961097 -0.15336435 0.98758745
0.22789991 -0.17251599 1.0694125
1.0078852 -0.17218648 1.3426964
0.94807804 -0.2236712 1.2780573
-0.46413898 -0.1660582 0.81660414
0.18042397 -0.19733569 1.0599902
0.22136879 -0.1640617 1.097172
0.073878765 0.058064066 0.3423481
0.074252307 0.058315437 0.34958291
0.2145108 0.055976197 0.33507276
0.41145486 -0.13332389 1.4369853
-0.047357261 0.053444106 0.54853034
0.23686224 0.029526141 1.2686441
0.39305335 -0.076237477 1.4823596
-0.0089343786 0.040273543 1.1368535
0.14144117 -0.22904995 1.0652213
1.0742532 -0.091821313 2.3272202
0.82253891 0.018646298 1.5753305
-0.45221043 -0.16284303 0.78677773
-0.18992501 0.057681661 0.37664437
0.66318405 0.028619241 1.1269429
0.092610419 0.061847035 0.6522572
0.76254344 0.030165136 1.2710588
0.19965714 -0.16586453 1.0780847
0.074675173 0.058683835 0.35713768
1.1216046 -0.031728633 2.3495061
-0.4289012 -0.30079636 2.0438254
0.17445862 -0.1869466 1.0854599
0.19892389 -0.16513923 1.0786407
-0.74552786 -0.090878457 2.0108683
-0.17234075 0.045872189 0.757586
0.35881156 0.021316526 1.1439526
1.1010029 -0.040845238 2.430166
1.0415672 -0.038201809 2.1996367
0.35892814 0.035965607 0.8315258
-0.73142779 -0.48449913 3.3266251
-0.76271188 -0.10075098 1.0293136
-0.23794115 0.05311951 0.33826375
-0.072791696 -0.050154597 1.5183213
0.31677157 -0.035985082 1.1150424
0.25413382 -0.16568568 0.93673825
0.58625948 -0.30452606 5.1255751
0.75918919 -0.05876188 0.99865365
-0.65857899 -0.25312495 3.3714759
-0.66466939 -0.15355548 0.93107891
0.21563989 0.056128956 0.33797789
-0.056796432 0.05596853 0.48708439
0.75180656 -0.039890684 1.0384767
0.22214985 -0.21402898 0.97209549
-0.80344045 -0.054004602 1.0471749
0.23540503 -0.21098953 0.91883111
-0.82051504 -0.073400423 1.2817919
-0.82352149 -0.44095218 3.2832558
0.26161879 -0.17114611 0.9679389
0.2162559 0.059759278 0.27253056
-0.054194093 0.056282606 0.33019829
0.16976333 -0.54879212 4.6191196
0.52141339 -0.15195809 0.81447816
0.093934894 -0.52240634 4.6638851
0.41992939 -0.1361527 1.4609582
0.3275227 0.032028586 0.63246441
-0.4527806 -0.24069139 1.2025287
-0.17418164 0.052664354 0.84372687
0.64229649 0.03731817 0.7986424
-0.199673 0.016738364 0.29037142
0.17953211 -0.19617809 1.0530739
-0.77794945 -0.13423929 1.1553805
-0.21868432 0.029855026 0.28743005
0.16931105 -0.54107165 4.5167923
0.24112141 0.040478751 0.32001042
-0.24261522 -0.10038881 1.6928904
0.59758019 -0.31261295 5.2263956
-0.78793931 -0.45633557 3.373625
-0.81856513 -0.43552545 3.3962672
-0.73936677 -0.29096615 3.2009332
-0.98087168 -0.42025083 3.5740864
-0.72630012 -0.51147997 3.5262091
0.16886902 -0.54586017 4.5912294
0.20503163 0.056615762 0.34324718
-0.15602088 0.039862715 0.94954896
-0.12493324 0.053619295 0.49091053
-0.36191684 -0.22794178 2.7431362
0.23554099 0.044477485 0.70378184
1.259155 -0.031502418 2.2550185
-0.22158933 0.050209612 0.36374259
-0.6616354 -0.2014652 2.0400016
0.77853245 0.027078534 1.396467
0.22968829 -0.15289685 1.0830452
0.36926436 -0.12352869 1.5162413
-0.60684621 -0.41769335 3.0933087
-0.23731393 0.052777074 0.33713245
-0.97583675 -0.094224691 3.5391791
-0.79121518 -0.17948839 1.080281
0.18361437 0.050627671 0.69246221
-0.76993763 -0.1946387 1.0366142
-0.19884616 0.058381435 0.39130735
0.095915079 -0.50952697 4.5096264
-0.50796604 -0.20106468 2.1613457
1.1172414 -0.02894548 2.3295105
0.14185858 0.058175176 0.32103896
-0.78415573 -0.19799072 1.0574021
-0.61577493 -0.42216164 3.3323586
-0.052341729 0.055488944 0.32403255
-0.78255486 -0.19779506 1.0563583
-0.45443451 -0.24153718 1.2143281
-0.088419586 0.052251283 0.51849747
-0.69753039 -0.26802087 3.6050351
1.0996263 -0.042265043 2.424824
0.18085933 0.057379961 0.35864615
0.26543444 0.047598153 0.45510864
-0.20563179 0.01754207 0.29070497
0.11101705 0.045776892 0.9921627
-0.70284057 -0.26501188 3.085562
0.14469707 -0.23545355 2.4499729
1.0548664 -0.089745454 2.2749736
0.96045274 -0.11351074 1.1536582
0.0065168142 0.055571228 0.39477372
-0.17098898 0.045976233 0.75448751
0.69048125 0.043819271 0.91919947
0.42656994 -0.13620208 0.67192984
-0.057006866 0.054906879 0.45910788
0.2142877 0.05619875 0.33581138
0.27085847 0.050414968 0.31837487
0.43692261 -0.13515161 0.6705966
-0.80592191 -0.078917563 1.0981944
0.10472879 0.059112467 0.29915667
0.21471512 0.055903852 0.33518457
0.14149493 0.057802454 0.32146239
0.36449826 -0.16775356 0.9804728
-0.21035248 0.016961215 0.30075741
-0.47323823 -0.19199318 1.1226757
-0.18776023 0.020537004 0.25537992
0.64786899 0.037364334 0.80581856
0.37794912 0.023198161 1.0820582
-0.43100923 -0.15098788 1.0428379
-0.48277974 -0.18436477 1.1953671
0.18365622 0.050866615 0.69978499
-0.7229327 -0.089439407 1.9549797
-0.79533124 -0.099739522 1.0768454
0.25611377 -0.17396058 1.0604193
0.093716502 0.051228128 0.72985697
1.3231581 -0.10013616 2.3728006
-0.81097174 -0.058792464 1.1130693
-0.45034546 -0.23251739 1.1808989
0.084572852 0.054880142 0.58879781
-0.6909734 -0.080401473 1.8291929
-0.234088 0.052598339 0.33120871
0.36224532 -0.13998798 1.5211642
0.25512242 0.020388955 1.3668048
0.28946322 -0.10606278 1.6937854
-0.17277795 -0.36803874 3.0970304
2.3485363 -0.96457052 7.3868198
-0.18964326 0.056621082 0.3775053
0.22778422 0.045932014 0.61055207
-0.088736892 0.052747071 0.524966
0.1430847 0.058231488 0.32234478
0.2274226 -0.19523011 0.98640275
1.2007062 -0.043563843 1.5522902
0.21808839 0.052343041 0.38556838
0.27615643 0.047653586 0.42709565
-0.68636811 -0.39208156 2.1802595
0.63913268 0.036911543 0.79486322
0.35564435 -0.072808251 1.5846517
-0.22487533 0.051579487 0.370157
0.21543694 0.05624475 0.33614826
0.082675785 0.057137053 0.48841381
0.23816651 0.049797885 0.36483955
0.88466662 -0.20501603 1.1834724
0.24529672 0.042447533 0.86589336
0.10513547 0.059349269 0.30022192
0.99166346 -0.13704225 1.1458762
0.35173213 -0.015491083 1.1418207
-0.49730599 -0.18775305 1.1633193
0.17531919 0.057254113 0.35580015
-0.73104811 -0.17193396 1.0299039
-0.05771926 0.055622373 0.47235227
-0.80357528 -0.20223488 1.1209381
0.45307821 -0.14183336 1.0420771
1.1727197 -0.078935117 2.2843258
-0.20095408 0.051817782 0.39267278
-0.5770551 -0.26115599 3.4937561
0.34902549 0.034197755 0.80778646
-0.088444918 0.030600477 0.46344733
0.3393898 0.035293765 0.63337183
-0.22052467 0.050567035 0.35897636
0.380566 -0.17104135 0.90375066
-0.73389626 -0.31418657 2.4221661
0.22328109 -0.21418534 0.97245622
0.43143147 -0.14025372 1.5026176
-0.54545933 -0.14502943 1.117449
0.21788955 -0.16258967 1.0787725
-0.55684096 -0.26793706 3.1638105
0.44864696 -0.16287959 1.1420372
0.76337022 -0.06186714 1.0031874
-0.65916538 -0.3373436 3.0306132
-0.5429768 -0.38878798 3.4216282
0.42514032 -0.13306203 0.96750188
0.98574036 -0.22691479 1.2022564
0.42643148 -0.13778554 1.4863012
-0.63281113 -0.38941407 2.1949193
0.36001229 -0.16792774 0.96962214
0.3536498 -0.14793259 0.98238993
0.092609525 0.059035148 0.63600445
-0.18726873 0.0099795889 0.32513452
0.1729278 0.063282102 0.28446698
-0.21678954 0.054203764 0.33591938
0.35638183 -0.15661809 0.89472318
-0.1887235 0.010269865 0.3271904
0.45575851 -0.13404918 0.60978699
-0.056927651 0.060290888 0.26516819
-0.489012 -0.1823626 1.1765759
0.3586362 -0.052062474 1.5115831
0.7218827 -0.16400303 1.0706577
0.44325823 -0.16526124 1.0442159
-0.046037346 0.053593177 0.56972003
0.40094399 0.031574927 0.97844219
-0.5444622 -0.00087548792 2.4306571
0.16841048 -0.23922062 1.1149132
0.29955339 0.12414519 0.60007143
-0.49410856 -0.18640721 1.1546171
-0.054989874 0.059019506 0.35660839
0.12479696 0.05602191 0.2448833
0.32261127 0.08265312 1.5794618
-0.19224375 0.059560757 0.27137184
-0.17958134 0.054038011 0.38710165
0.012918234 0.059339549 0.28625607
-0.05957678 0.055090547 0.3276999
0.13756329 0.055775177 0.45378852
0.71344841 -0.037319951 0.9783268
0.24109 0.047003064 0.46244907
-0.12446386 0.05147294 0.33582544
-0.4795022 -0.23640299 1.1540549
-0.18120861 0.055949993 0.38720894
0.3826285 -0.16822344 0.97239327
-0.047097534 0.054715596 0.84228516
0.96341026 -0.22068062 1.1697972
-0.21595907 0.050925553 0.3627131
0.074563354 0.058800612 0.35811591
0.13784537 0.05759196 0.29379559
0.1295484 0.05329483 0.28578687
0.10009712 0.067149043 0.72071695
0.4723317 -0.14380775 1.0848548
-0.13262984 0.054905374 0.36613774
-0.062510818 0.058676776 0.2572329
0.77042943 -0.051476583 1.0255749
-0.10626599 0.05688804 0.32501411
-0.85135055 -0.23422709 3.2092688
1.792742 -0.087585501 2.1682065
-0.76262736 -0.477824 3.3871696
0.23728997 0.039112315 0.83864069
0.21411723 0.06770315 0.55114484
0.46176159 -0.16889039 1.1802185
-0.87450898 -0.38159028 3.1775205
0.88730299 -0.23048434 1.1423233
0.21226245 -0.21004671 1.0123267
0.36063045 -0.14018175 1.5146568
-0.56716973 -0.3938579 3.5369256
0.47941411 -0.14906684 1.1072757
0.37729108 -0.17837758 0.93233776
-0.16994971 0.051321968 0.79762387
1.2930222 -0.069097646 2.4288704
-0.79451632 -0.16816409 1.0769486
0.47823036 -0.1313853 1.1231759
-0.47136039 -0.18549122 1.1106431
0.29486662 -0.012760345 1.0182686
0.2702288 -0.19435215 0.8988812
-0.44687998 -0.19723526 0.8466506
-0.74867511 -0.082738817 1.5891793
0.36096096 -0.056728601 1.5015452
0.30792326 0.036695909 0.60877585
0.14942217 -0.21444991 1.0484908
0.14473313 0.060237065 0.31392622
0.25971061 -0.19419701 0.99049807
0.28042734 0.054796193 0.37226748
-0.054237455 0.0577344 0.3472867
-0.18121445 0.038518213 0.689749
0.17888331 0.049427915 0.68278003
0.080616504 0.055855822 0.4817071
-0.20715165 0.053654555 0.40105891
-0.062565893 0.058417562 0.25313473
0.21258616 0.051552407 0.38422203
0.23438555 0.056082606 0.4274497
0.21069103 0.058748379 0.25908613
0.32161754 0.032376669 0.61972713
0.0064813197 0.057557091 0.40477061
0.0685063 0.056841619 0.28268576
0.010452211 0.050884109 0.35447216
0.22116047 0.053703099 0.52704883
-0.2116344 0.044358987 0.77116299
0.21528506 0.054500055 0.29687452
-0.18866092 0.044082977 0.76677251
0.18052661 0.055589855 0.76687169
0.21316409 0.058559764 0.2674396
-0.20467168 0.048985235 0.38199782
0.10934144 0.061942536 0.31498194
0.24067575 0.042284168 0.84516621
0.036623061 0.059191614 0.2605474
-0.10588437 0.058593404 0.40701962
-0.58709514 -0.28960252 3.4744642
0.24174315 0.051041979 0.37058926
-0.67718136 -0.16750126 1.3409183
-0.51063859 -0.18931231 1.2532532
0.44275624 -0.13291852 0.62468076
-0.18566012 0.063391969 0.54302096
-0.1294916 0.056471944 0.55731773
-0.084845722 0.058385499 0.27818942
0.26774079 0.056196049 0.43802476
-0.22401381 0.022481464 0.29337144
0.26705116 -0.21192858 0.9455328
-0.4596644 -0.25063825 1.1788881
0.37838185 -0.13560557 1.0746312
0.7087329 -0.16980523 1.7372577
-0.044109106 0.051626123 0.5476861
0.22912931 0.054564744 0.31071663
0.18076521 0.060025562 0.27446222
0.7476421 0.027101235 1.3444097
0.97391808 -0.19330543 1.145911
0.31246418 0.0066982936 1.1046827
0.78101838 -0.022503156 0.97990394
0.09390837 0.048846625 0.76695967
0.34871894 0.0090136863 0.6573081
0.47808862 -0.070835933 3.4858468
0.2145136 0.091409229 0.38831496
0.25016063 -0.18082 1.1876814
0.23279947 0.099703372 0.49301171
0.7784605 -0.015937075 1.3967011
0.3745594 -0.19943832 1.1841404
-0.080519915 0.048002373 0.46810913
0.36135203 0.023568038 1.1883652
-0.21965396 0.045566857 0.28799796
0.063526779 0.053185754 0.25756502
0.90041983 -0.014560692 2.0213578
0.32924235 0.0086220913 0.61561227
-0.21496022 0.04831095 0.3035512
-0.05650416 0.054355841 0.4602983
0.395091 -0.058602624 1.5388649
0.73157752 -0.027141616 0.93265867
-0.97594941 -0.38716871 3.5100086
0.21649265 0.031524744 1.2198079
-0.67105281 -0.3819133 2.1239717
0.081249774 0.056812774 0.49482012
-0.061573267 0.061861914 0.55323052
-0.1292699 0.062856391 0.32890368
-0.087524295 0.052558593 0.52342939
1.4387326 -0.029589072 2.2681525
0.12283796 0.048904721 0.88654304
0.25893575 0.04745933 0.44207859
-0.46712881 -0.23066163 1.1248844
0.10661551 0.060155541 0.41069126
0.32054925 -0.16954158 0.84198618
0.23473662 0.051738981 0.7153101
-0.21117407 0.048259929 0.33992362
0.20098412 -0.21908143 3.9406402
0.10669714 0.05571188 0.88808155
0.073685467 0.058667157 0.35467887
-0.11278355 0.061365388 0.42678261
-1.0737443 -0.051810496 4.0375481
-0.22311133 0.050697975 0.36175179
-0.91957211 -0.35071176 3.3772404
0.32446957 0.031060008 0.62573004
0.79164797 -0.013786905 1.4035852
0.64572543 -0.02553086 0.8221035
-0.11438939 0.062706612 0.43486357
