# .PCD v0.7 - Point Cloud Data file format
VERSION 0.7
FIELDS x y z
SIZE 4 4 4
TYPE F F F
COUNT 1 1 1
WIDTH 503
HEIGHT 1
VIEWPOINT 0 0 0 1 0 0 0
POINTS 503
DATA ascii
2.2023196 -0.093410738 3.0677285
0.09055385 -0.1971868 3.5777164
2.2623532 0.39548963 3.4078975
0.089439243 -0.19773689 3.6301918
0.048018545 -0.37580627 3.8248839
0.038041443 -0.0069182757 2.1306181
0.091587216 -0.19903776 3.6963015
0.090154797 -0.18185565 3.6592813
0.79271781 -0.056515448 1.2807944
0.080812305 -0.36066553 3.6482358
-0.75855541 -0.039747715 1.4771852
-0.90771008 -0.079744585 1.1628573
-0.53214061 -0.16451767 1.2102134
0.36243561 0.03976725 0.50431299
0.019619614 -0.013053017 3.1606712
-0.36473969 -0.19241925 1.0818028
-0.0012507737 -0.0037194099 2.029139
-0.38949868 -0.21953568 1.6302481
0.96282434 -0.03058417 2.6846323
1.2191877 -0.25145727 3.4639735
0.74964011 -0.052319728 2.2151976
-0.11072573 -0.44224444 4.3577986
0.46275386 -0.12684129 1.6832857
-0.87662625 -0.031722873 1.8618774
0.21885446 -0.16900158 1.2224212
1.2390831 -0.34005341 3.4227757
0.765872 -0.052359045 2.2973728
9.296586 -0.3988784 16.522587
0.23362091 -0.33690625 5.0370164
0.21320984 0.043270335 1.2818646
0.23878852 -0.25722387 1.2915714
0.2857745 -0.1639525 5.0864205
0.0030812323 -0.4132058 3.8140898
-0.0016835034 -0.43605289 4.0378594
0.73124897 -0.011128956 1.2357192
0.95794713 -0.25147495 1.4174628
-0.36675015 -0.1925389 1.1018724
-0.35549107 -0.30542651 3.7008672
2.2227912 -0.0895717 3.6399889
-0.75245142 -0.057860337 1.4074111
0.3534942 -0.085252002 3.2704849
0.61906672 0.034634359 0.92606711
0.95215034 -0.26102877 1.4496818
1.1526108 -0.036920108 2.7187161
0.33069435 0.040111162 0.45294166
0.026168376 -0.37403584 3.6835699
1.8974427 -0.52263445 5.6727891
-0.52462554 -0.43343997 3.8932467
-0.67179775 -0.42641947 3.571888
0.84742332 -0.14360154 1.2293999
-0.70648408 -0.18479358 1.3350084
1.2277782 -0.22388783 2.2946382
1.344864 -0.36691034 3.0181775
0.24735335 0.010953726 1.5299163
-0.8174957 -0.042673357 1.6172137
1.4170386 -0.25912911 2.7845941
1.038602 -0.019580061 2.5199857
1.2957975 -0.22128904 2.9468927
1.1577039 -0.076262914 2.1311345
1.0500605 -0.28861514 1.5096884
0.9376905 -0.26323593 1.4268379
1.0962894 -0.26891688 1.8158312
0.31611118 -0.16102508 1.5030203
-0.51233172 0.048205093 0.87448597
1.1789984 -0.23663205 1.620779
0.93603575 -0.26530841 1.4228702
-0.85684097 -0.078110911 1.4671369
0.41839191 -0.12090283 1.5097127
-0.81902921 -0.013719438 1.7354236
0.081740201 0.058045432 0.39888835
-0.91681027 -0.065444387 2.1120181
0.33808532 0.022214876 0.4640379
1.7992629 -0.2536054 2.5363178
0.97706103 -0.037927911 1.7684751
0.24263439 -0.20665985 1.249645
-0.39923742 -0.15527138 1.1993301
0.19519386 -0.20046712 1.0797486
-0.54117382 -0.43174276 3.960155
0.25447908 0.011853643 1.5707188
0.48401597 -0.13493602 0.88416314
0.48079279 -0.15194698 1.2239542
0.23828134 -0.15787873 0.89147258
0.47478101 -0.12833646 0.87716508
0.98763275 -0.13021252 1.4109602
0.44966915 -0.22920358 1.8633962
-0.85740459 -0.076734461 1.470655
0.24463215 -0.20621356 1.2462902
0.18318281 -0.23310289 1.3371103
-0.053774804 0.060608409 0.35944605
-0.74329758 -0.098589532 2.5423312
0.34059134 0.039316632 0.45380807
-0.42379996 -0.14375857 0.68936133
1.0448736 -0.28397626 1.495079
-0.36466083 0.056998983 0.67512727
0.26630279 -0.19427404 0.85723329
0.9877094 -0.25944903 1.4189429
0.24592367 -0.16900536 1.389143
2.3629925 -0.11725222 3.5968256
0.4795368 -0.034276254 2.4437456
-0.73725462 -0.07170514 1.3762789
0.14990398 0.058370404 0.32376432
0.23025075 -0.25575155 1.3853579
0.376807 0.026930161 0.92594266
0.34993139 -0.23777217 2.8619199
0.22245833 0.055883169 0.39289904
-0.74450469 -0.1969474 1.3187544
0.36969605 0.019509919 0.95085669
-0.52295327 -0.2730954 2.3405781
0.25667545 -0.28426251 1.2922964
0.47462657 -0.17618245 1.2192824
0.15157217 0.058951393 0.32867169
0.25102404 -0.15033947 1.3846688
0.27818564 -0.019189132 1.3888483
0.34381238 -0.001927536 0.46383548
0.33301941 0.041635398 0.45596075
1.0807488 -0.25236395 1.5408516
-0.66701889 -0.074434839 1.2253323
0.25978771 -0.25982413 1.31826
0.3421286 0.017788826 1.7932267
0.24498919 -0.15839566 1.3596706
1.8450375 -0.11824013 3.1928949
-0.2013911 0.046750095 0.59051394
-0.76516557 -0.11046278 1.4270077
0.232025 -0.12579609 1.5687394
-0.52655125 0.041444138 0.75163651
1.0520053 -0.16355652 1.2726893
0.33336505 0.041396253 0.46894026
0.41344574 -0.11919036 1.4569755
-0.38173535 -0.17307532 1.1771655
0.46950248 -0.14725406 1.1755743
0.15680978 -0.23816845 2.1069493
-0.68713582 -0.17501466 1.2836778
1.0932221 -0.27282545 1.4938369
1.1251874 -0.22636104 1.4469867
1.2668762 -0.089164928 3.4157524
0.22577271 0.054382615 0.51126885
0.19512859 -0.20900539 1.313839
1.060835 -0.14070433 1.2314508
0.97812843 -0.16119173 1.2853751
-0.53720415 0.032529 1.0230126
0.45347747 0.0056335907 1.6082273
1.1027482 -0.22252488 1.4182868
-0.77111328 -0.063143425 1.3658895
0.41935799 -0.13873255 1.7705131
1.7835697 -0.066847466 2.6510978
0.19968948 -0.20697936 1.3224659
1.8338717 -0.071028873 2.7318788
-0.56047297 0.016478971 1.1882
0.18961963 -0.18132181 1.8127155
0.25164416 0.01274588 1.5712266
0.28510454 0.039306346 1.1608284
0.4224824 -0.11187301 1.9036713
0.086295933 0.052735835 0.507864
0.19540176 -0.19603986 2.1251554
-0.36536631 0.057259426 0.68049121
1.0552653 -0.20183997 1.500133
0.99790597 -0.16430904 1.2622867
0.47314784 -0.14493756 0.97050476
0.22433683 -0.2431249 1.3195415
0.33298925 0.040317714 0.46892548
0.081800699 0.05841051 0.40625405
0.77985084 -0.068137385 1.2675729
1.0831568 -0.2903353 1.617065
0.12700376 0.04692341 1.0195644
-0.17117235 0.056028262 0.68217969
0.10516346 0.051666815 0.7773118
0.27084163 -0.18187284 1.4014111
-0.41045651 -0.19716328 2.0734386
-0.43955061 -0.17887673 1.165143
-0.044094861 0.055774398 0.56794953
0.078357428 0.0586145 0.29103684
0.077500463 0.058024384 0.28745174
1.077451 -0.15984514 1.3064384
0.29055712 0.046696972 0.62511516
0.33062872 0.041636918 0.45001674
0.22240201 0.055959724 0.39121675
-0.54708576 0.028255058 0.82357526
0.68411541 0.034162633 1.0690024
0.98151267 -0.16036801 1.2803099
1.2161876 -0.056635246 1.5937514
-0.096310794 0.061736822 0.31089544
1.0723242 -0.19796929 1.2941134
-0.7857058 -0.062404588 1.4048219
0.42998859 -0.079847664 1.5696368
0.23210368 0.054656137 0.64361429
-0.69492388 0.02069064 1.723402
0.12651077 0.046546236 1.02315
0.40234819 -0.043341465 1.3763714
0.44276866 -0.069722943 1.6991506
-0.74640763 -0.10847595 1.6176615
0.21429572 -0.1291196 1.3375971
-0.41321245 -0.17278755 1.6370921
0.63985848 -0.078186668 2.2124739
2.0530305 -0.137453 2.909379
-0.8128531 -0.070842683 1.3100748
-0.36767349 0.057562612 0.67219472
0.11314842 0.040171172 1.5385914
0.22483221 -0.25310394 1.2997813
-0.055526674 0.062970735 0.44855165
0.2438384 0.05693993 0.68256187
-0.19767979 0.057022601 0.28910589
0.26158074 -0.15162666 1.3538291
-0.42954692 -0.1647836 1.1657112
0.15214011 0.059024259 0.32959533
0.22321883 0.055926345 0.39407587
-0.20073351 0.053149767 0.34763932
-0.16877165 0.059649505 0.3170743
1.4648188 -0.18010512 2.0494652
0.016397268 0.043927986 1.2652941
0.22522458 -0.26353276 1.2929289
-0.39414653 -0.29413897 1.5084786
1.1535403 -0.23395169 1.5709801
0.2523295 -0.14910735 1.3903737
-0.75581551 -0.071935222 1.291167
-0.20115203 0.053445309 0.34703779
0.015933722 0.04098583 1.1898601
1.1520069 -0.23493192 1.4915586
-0.17808756 0.0555062 0.69642377
-0.05924651 0.059739806 0.30118656
-0.048721641 0.05933442 0.4100244
0.37997881 0.044042446 0.50205708
1.0696054 -0.033069938 1.3662353
1.0253905 -0.16252568 1.4375849
0.10755718 0.051395275 0.8129859
-0.7625699 -0.056508772 1.3595109
-0.46859851 0.047970112 1.0880721
1.290272 -0.03167396 2.4698353
0.14866999 0.058445089 0.32102418
0.42708418 0.02336565 1.4858661
0.79307413 -0.029198168 1.2057359
-0.045096964 0.056579433 0.5776453
-0.5393796 -0.1413815 0.68577814
-0.13192859 -0.26992902 3.1018796
1.068589 -0.033435121 1.3647084
-0.19982234 0.046264868 0.58081508
0.18553659 -0.22376579 1.1929746
1.089944 -0.11049891 1.2653461
0.22987619 0.05439809 0.35639954
-0.67274833 -0.21565494 2.9731288
-0.71993494 -0.18166921 1.3477137
0.97033238 -0.25436628 1.4411144
0.21555588 0.059248425 0.2733655
1.0841606 -0.16010559 1.3082995
0.41785595 -0.17655909 2.0717168
-0.049242795 0.058613487 0.34854841
-0.52777362 0.05159118 0.67419147
0.2121698 -0.22819445 2.3598461
-0.5394243 0.0292484 0.93497372
-0.55835581 0.027586117 0.71177912
0.4643589 -0.080873065 1.7970209
-0.082658857 0.053341784 0.58266902
-0.57704353 0.031386476 0.71773124
-0.094304174 0.061229281 0.30311036
0.85491991 0.029204579 1.6293979
0.21538129 0.059015967 0.27380729
0.46752521 0.039228339 0.54264879
1.0693952 -0.10848974 1.2419791
0.83985388 0.028388862 1.592371
0.28765717 -0.22472528 1.2545757
-0.80871046 -0.14488587 2.3336067
0.13377047 0.053143047 0.37075734
0.41871938 -0.13405842 1.7397232
-0.15112624 -0.038174927 1.1224077
-0.4281573 -0.17791075 1.0910177
-0.53738379 0.038359284 1.0087478
0.15643367 0.044573069 1.3069842
-0.060160398 0.06048736 0.30628371
1.0403134 -0.14545071 1.2590997
-0.74161053 -0.14766876 1.2062206
0.35959938 0.023574488 0.91270208
1.2714754 -0.034589954 2.5233912
0.26455119 -0.29083663 1.3257267
1.3016473 -0.030346015 2.4956412
0.080375433 0.057441466 0.38784885
0.28739807 0.043447264 0.72873092
0.34760419 0.039581023 0.46418452
1.3969058 -0.074374564 1.7786717
0.23153844 -0.16210786 1.3305337
0.23707071 0.054456245 0.3866291
-0.6878773 -0.10310947 1.4695759
-0.20785007 0.0556743 0.36817741
-0.70947909 -0.14699677 1.3885136
0.24037293 -0.15373382 1.144341
0.27134922 -0.21131705 1.1766679
1.0886697 -0.17645912 1.6334667
0.40709361 -0.022299344 1.4386549
1.0461754 -0.23795551 1.6079721
-0.6411351 -0.15112558 1.2816441
0.35645398 0.045520954 0.71887398
0.26919284 -0.16164401 1.4884706
-0.046807975 0.057670355 0.58550978
-0.50440156 0.017346507 1.0782135
-0.41906068 -0.16480623 1.0952992
-0.55864036 0.033853695 1.0690074
-0.16737515 0.059350848 0.31443071
-0.72860253 -0.16807455 1.1820524
0.22430316 -0.19774799 1.3293967
0.44809571 -0.11852137 2.0099831
0.27289805 -0.16861877 1.4058771
0.094165802 0.055371933 0.62773514
0.14473194 0.057911485 0.34147978
0.09592548 0.056106843 0.64255977
0.30745575 0.047745176 0.79416442
0.23834482 0.053906687 0.62658072
0.49453333 -0.13962898 0.91968322
0.49116513 -0.13671562 0.90173459
0.4476665 -0.12778172 1.6139436
-0.021558434 0.053123202 0.88556337
-0.62165093 -0.18469563 1.7165365
0.28848127 0.028717721 1.5383964
-0.51473927 0.025054559 0.70817399
0.26902196 0.039024539 0.59886551
-0.19101667 0.055078201 0.39541411
0.45940968 -0.078077905 1.7829313
0.25842199 -0.25849411 1.3066201
1.0312872 -0.1679901 1.441525
-0.55171275 0.029173151 0.96599126
0.29401311 -0.17511675 0.86812067
0.36311731 -0.05281987 1.4705396
0.038583606 0.038726822 1.4016089
0.18702826 -0.2300148 1.3440449
1.0890765 -0.12253838 1.3086958
-0.74089217 -0.070207991 1.2613714
-0.051056266 0.059139997 0.34779525
-0.4411281 -0.18000211 1.1561041
1.0520767 -0.17013462 1.5810113
-0.52654028 0.031650476 0.72967958
-0.36954805 0.057683781 0.68210936
0.88966906 0.017900106 1.8406043
-0.50710917 0.045850284 0.83683968
-0.001059413 0.055666655 0.47192287
1.3173465 -0.079360776 2.56673
0.32965419 0.039775856 0.45155716
0.26687238 0.03779218 0.59094644
0.39203474 0.04454812 0.5215404
-0.51988876 -0.15981278 2.2664161
-0.5190444 -0.15522882 1.0414753
-0.52903461 -0.13459846 0.94076324
-0.72458744 -0.15923958 1.4233665
-0.41323975 -0.16252221 1.0762992
0.81475854 -0.010190064 1.1037707
-0.04848969 0.058417954 0.34981918
-0.61405981 -0.10823583 1.1929607
0.76364005 -0.029174237 1.0584011
-0.18339297 0.061292239 0.30633283
0.24873456 -0.20666845 1.2566967
0.15921369 0.069503009 0.33168411
-0.049417764 0.060598224 0.42491698
-0.22172007 0.051143635 0.46341658
0.080439687 0.057520144 0.39927888
0.39669576 0.040409066 0.76177955
0.21680215 0.054360293 0.38426447
1.1597431 -0.23294458 1.488132
0.078961432 0.058940448 0.28945899
1.0993984 -0.088588119 1.2484887
-0.49401686 -0.1370533 0.6841774
-0.059685856 0.060122184 0.29931164
-0.84583998 -0.062842853 1.279834
-0.050295293 0.058846697 0.29006672
0.25793454 0.046457648 0.81402445
-0.08141315 0.052879415 0.5837791
-0.91666949 -0.085336298 1.5139112
-0.22221428 0.054731678 0.3088665
0.15773895 0.057326086 0.47849202
-0.094785959 0.059199974 0.26493168
-0.32316855 0.051322997 0.53106737
-0.051213294 0.063198105 0.44944453
0.27126095 -0.049668133 0.63279009
-0.56865025 0.025941882 0.84483027
-0.36529866 0.057065167 0.68226242
0.22569171 0.05240123 0.31123567
-0.4049094 -0.32316595 1.529108
-0.18461481 0.062735595 0.31827307
0.23006985 0.054099627 0.38057113
-0.50257814 -0.16307816 0.70541096
-0.13063091 0.06103038 0.29489517
-0.16775271 0.054648645 0.66459608
0.0054369271 0.057670303 0.50065851
-0.34174505 0.051947236 0.86048961
-0.52980471 0.02596266 0.73385906
1.561983 -0.058966264 2.2973595
0.16285482 0.05902037 0.41809082
1.0579697 -0.11595363 1.396709
0.30988207 -0.17584619 1.2687275
1.0497246 -0.16759987 1.2997262
0.33932033 -0.16385049 0.82860589
0.11260536 0.055247188 0.84228015
0.29080465 0.044864729 0.36752701
0.81071031 0.028323 1.5206504
-0.050663948 0.058716647 0.29130769
0.18713364 -0.23943007 1.37079
0.2879723 0.043479025 0.36183834
-0.18238163 0.043220967 0.53878832
0.34120539 -0.10603251 0.46959472
1.1001225 -0.12127654 1.3288851
-0.59800351 -0.17453876 1.5246005
0.2183716 -0.2502543 1.2858176
0.15038127 0.060124889 0.26216269
-0.0047455132 0.057276882 0.45612979
0.26659289 -0.18774228 0.92054796
-0.78397703 -0.14316291 1.463201
0.81989574 -0.1818276 1.5411506
1.1470309 -0.25233969 1.4146399
0.26176998 -0.14823462 0.92047668
-0.51504838 0.016827608 1.1002169
0.070498914 0.054601081 0.24261475
0.24780002 -0.16874108 1.3711772
-0.36927053 -0.27103549 1.3939171
-0.80146182 -0.070945486 1.3657088
1.1565796 -0.029526288 2.4701004
-0.30856279 -0.2651431 2.019918
-0.71148074 -0.14807914 1.441854
1.0032389 -0.16447815 1.2710428
0.33607605 -0.1760893 0.80025339
0.24919596 -0.16941653 1.3877058
-0.57400048 -0.17578907 2.5236454
0.38915631 -0.037618406 1.3289688
-0.47627428 -0.24960536 1.9471035
-0.67847157 -0.092048697 2.3701348
-0.49241516 -0.13685258 0.68210316
-0.20410815 0.055244297 0.35398936
0.43987408 0.023209857 1.5461245
0.080411553 0.061345465 0.35129213
-0.48484966 0.049888421 0.86073565
0.15516356 0.068369277 0.3096621
2.6719308 -0.76631439 5.0769992
0.23849347 0.0097562596 1.4799004
0.21849295 0.060279742 0.25222349
-0.55999231 -0.44726864 3.3510118
-0.1088143 0.060632065 0.38002872
1.1283033 -0.22610693 1.442821
0.33030364 0.028202366 0.465482
-0.41635415 -0.33391118 1.5854621
0.39716211 0.034030676 1.106827
-0.59500098 -0.47202533 3.561832
-0.51016462 0.028169576 0.80539083
-0.77102733 -0.11000902 1.442389
-0.21021545 0.055281036 0.32745385
-0.047471762 0.058479942 0.58774734
0.076719731 0.059782542 0.29425716
1.1340567 -0.033866435 1.4271836
-0.20820802 0.057096653 0.33177614
-0.014842451 0.059255734 0.42941284
0.2495189 0.052706037 0.39058423
0.39559415 0.022324385 1.3260188
-0.45583382 -0.15088743 0.68183708
0.32765844 0.040464871 0.4574213
-0.69850111 -0.17248629 1.3051741
1.7183423 -0.49854231 2.9807343
0.42941818 -0.13794102 1.803247
-0.0001809895 -0.020529183 0.95432377
-0.20723709 0.054134466 0.32178617
0.14723426 0.054472186 0.46954703
-0.6460706 -0.16557723 1.2961049
0.24219486 -0.18623441 0.98767233
0.24488857 -0.30046079 1.3518455
0.32152793 -0.011207649 0.42974734
0.33659491 0.0015073959 0.46351099
0.28270552 -0.05208645 0.6642251
0.74118376 -0.2851423 5.1378665
0.80234623 -0.060931817 1.2586086
-0.34002098 -0.065650553 0.43063712
-0.57409978 -0.36611307 3.5055575
-0.52356863 -0.24574527 3.6097164
0.32824102 -0.011315288 0.43930554
0.30891231 -0.0075202342 0.96993613
-0.61981452 -0.15678602 1.2267213
1.2550303 -0.031809978 2.4930873
0.27089676 0.093406282 0.43588257
0.34310737 0.018955933 0.47005486
0.23226598 -0.15568797 0.87604046
1.0889601 -0.12181755 1.439949
0.24049649 0.054257918 0.63116097
-0.55412197 0.035832413 0.78267455
-0.41706017 -0.33418679 1.5879769
-0.15145606 0.041175283 0.54067659
-0.032899648 0.054907463 0.80809927
-0.70565176 -0.15976229 1.1903627
0.18051252 -0.23048985 1.3177767
-0.5159452 -0.14797388 1.0503526
0.786461 -0.040816173 1.2795994
-0.36625072 0.057307847 0.68649888
0.32051596 0.020999836 0.43553925
0.079737574 -0.053017959 0.45859313
0.62696815 -0.020642163 0.84590936
-0.38133749 0.060447358 0.62465429
-0.80644715 -0.064016074 1.4516482
-1.0468904 -0.11009201 4.9097877
-0.18246028 0.042555749 0.53437948
-0.48742113 -0.34556565 1.877593
-0.45630655 -0.28933802 2.3276896
-0.39567938 -0.13485426 0.71116185
0.28134963 -0.21717364 1.2222359
0.4230943 -0.099789687 1.9132123
0.32259753 -0.011161784 0.40925312
-0.44828048 -0.16174152 0.93079019
0.38219252 0.037339032 0.72330427
-0.036560684 0.0516866 0.57150269
-0.41683957 -0.28415769 1.5031328
-0.87255335 -0.082993053 1.3186071
0.32175389 -0.18242672 1.3237216
0.27181122 0.02915852 0.616642
-0.43930593 -0.16074301 0.98239231
