# .PCD v0.7 - Point Cloud Data file format
VERSION 0.7
FIELDS x y z
SIZE 4 4 4
TYPE F F F
COUNT 1 1 1
WIDTH 524
HEIGHT 1
VIEWPOINT 0 0 0 1 0 0 0
POINTS 524
DATA ascii
2.2627969 -0.092152461 3.4571078
2.2899892 -0.099911183 3.2204001
0.13247222 -0.018496985 1.9271653
2.338588 0.38681823 3.527251
0.17277211 -0.20600203 3.7783802
0.1367358 -0.38500917 3.9922879
-0.34633726 -0.24299106 1.6141403
0.088321626 -0.013512654 2.3501894
0.17683607 -0.20814738 3.8671248
0.17294693 -0.18817399 3.7477424
-0.49141681 -0.070178315 1.3047438
0.82649249 -0.059822321 1.4412036
0.16581553 -0.37278745 3.8539879
-0.52100915 -0.10719146 0.74466205
0.37690163 0.037279572 0.66788459
0.37654251 0.019709352 0.70232129
0.092822731 -0.022839928 3.4954793
-0.34402812 -0.20148285 1.3024697
0.99444777 0.17984968 1.3364778
0.046761274 -0.0098407622 2.1826446
-0.35103732 -0.22712666 1.8207977
1.313417 -0.26232553 3.6616113
5.2948313 0.80117494 6.8087921
-0.0084964633 -0.4410809 4.372963
-0.46613079 0.042933304 1.0941243
-0.604276 -0.15972212 0.84360909
-0.52620739 -0.055760108 0.73002696
0.26198733 0.036282625 1.6423213
0.23087209 0.041263606 1.3465495
0.27237481 -0.2629931 1.4678526
0.97184706 -0.25710696 1.5333831
-0.54846424 0.035549805 0.7535305
-0.38492596 -0.17101464 1.2569408
0.39975315 -0.1746594 5.2246265
0.092572272 -0.42920196 4.0599508
0.090813816 -0.44540367 4.2093792
0.99276084 -0.25387862 1.5666444
0.081753075 0.060789824 0.3430686
-0.58995986 -0.10617337 0.78646803
0.35146451 -0.1402102 3.1423233
-0.24034172 -0.2815178 3.3838933
0.66481632 0.034171857 1.1295674
-0.74538672 -0.046134822 1.7253807
0.2746194 -0.31516325 2.8971879
0.57941252 0.04223001 0.69202495
0.66718769 -0.014961505 0.96624708
0.64952022 0.032077108 1.100925
1.0121081 -0.27023682 1.6528456
0.2988143 -0.16661423 1.1344202
1.1986389 -0.040373772 2.8169882
0.10964328 -0.37258023 3.7190688
2.0615983 -0.54702735 5.8932066
-0.43995041 -0.44912133 4.1259928
-0.53834498 -0.4021273 3.3771708
0.034907937 -0.12320688 2.3153455
0.87445748 -0.1459032 1.3740797
-0.66607791 -0.19065551 1.5037229
-0.50747693 0.042865381 0.73750615
1.2305989 -0.22013764 2.3152692
-0.41609848 -0.22275768 1.1185329
-0.74369973 -0.047695301 1.7045281
-0.51857823 0.023478491 1.1282156
1.3583314 -0.22408047 3.0733979
1.4316406 -0.25396076 3.046994
0.21838999 0.056701384 0.30703688
-0.52557272 -0.086216405 0.74949217
1.0889034 -0.29583386 1.6688874
1.0481682 -0.26363805 1.5137794
1.0682905 -0.28568947 1.6206315
1.0338145 -0.21043764 1.5327022
1.0829048 -0.29072434 1.6494763
0.9740833 -0.26616195 1.5793593
0.84182537 -0.037326083 1.4155791
-0.63824385 -0.15363254 1.5930393
0.23597682 -0.24362224 1.4710557
-0.049545392 0.058032207 0.33095956
-0.74039191 -0.075620629 1.5628397
1.0329649 -0.18203802 1.6368153
0.4445622 -0.16816266 1.4164569
0.3574813 -0.17141652 1.7005861
0.80358785 -0.063614018 2.3280709
-0.57740629 0.028192852 0.74227762
-0.48974967 0.042847931 1.057725
1.1221943 -0.24526858 1.7270367
-0.91365093 -0.1691646 2.0202129
1.1023476 -0.17855634 1.4748168
0.23997337 0.05132965 0.67679429
1.1988392 -0.19095297 1.6265929
-0.54013759 0.011313394 0.74549294
1.2030368 -0.23579946 1.7412169
0.96400118 -0.26548141 1.5576546
-0.83050269 -0.087334007 1.6818273
0.43675941 -0.12031108 1.5853875
-0.77716386 -0.02178649 1.9243228
0.093954444 0.055178486 0.56868267
1.0422307 -0.16762738 1.4856546
1.1082962 -0.24236318 1.7014883
1.1934011 -0.23701942 1.7150071
1.7693319 -0.24646986 2.5107229
-0.78871077 -0.098039806 1.6458957
0.99493998 -0.17790872 1.4132342
1.0161414 -0.040953174 1.9111078
-0.54004723 -0.062288024 0.74738383
0.27464962 -0.26467302 1.4797354
-0.60606235 -0.14058356 1.4976346
0.40323418 -0.053214416 2.0506089
-0.36421818 -0.15534642 1.350177
-0.44913733 -0.44135273 4.1295958
0.11567527 -0.0025960803 1.1820862
0.58636463 -0.025606601 2.1816375
0.51214367 -0.14170378 1.0603576
-0.52180392 -0.10663947 0.74782348
1.1963193 -0.23567027 1.7170193
-0.53383547 -0.041498035 0.7476697
0.38219696 0.019974524 1.0756936
0.2618286 -0.16140576 1.0572438
-0.53510028 -0.041474052 0.7501967
-0.68211484 -0.19324383 1.5475051
-0.47574717 0.046541736 1.0750062
0.24392974 0.052734263 0.68590164
0.25995213 -0.011966715 1.7975709
0.46936083 -0.22466126 1.908356
-0.34622979 -0.28663361 1.3360884
-0.83873647 -0.08612676 1.7031796
-0.52873594 -0.056165777 0.74195504
0.27377778 -0.20876031 1.3967257
0.23490262 -0.11644514 1.0806503
-0.041627675 0.056065701 0.51237202
0.40995377 -0.37441328 2.015259
-0.44931471 -0.25250727 1.7822249
0.83544832 -0.035440147 1.393677
1.1543405 -0.26855245 1.4185662
0.47998402 0.04148728 0.60117579
-0.51846904 -0.10381396 0.74226308
1.1817153 -0.23089933 1.7046378
1.0828254 -0.28669694 1.6446679
-0.11202097 0.057907462 0.39572239
0.0098528266 0.059534445 0.27492023
-0.35154015 0.05292467 0.87249875
1.1366601 -0.3537724 1.6593802
0.28818458 -0.19707327 1.0178068
-0.72271377 -0.11494157 1.6013978
1.019802 -0.2589848 1.5609457
0.28771824 -0.17825341 1.608381
-0.69166905 -0.14220913 1.5262167
0.27967012 0.035516176 1.6424563
-0.048640221 0.05707714 0.48884439
-0.048910335 0.058040075 0.33803248
-0.058441997 0.060037486 0.36639762
-0.53115398 0.025321154 0.80788469
0.50683266 -0.15469128 1.3776219
0.33597913 0.036591105 0.40442944
-0.50608909 -0.14342283 1.049777
-0.51780832 -0.10275304 0.7410605
-0.71842229 -0.08291059 1.6069343
0.16186744 0.05618123 0.4986074
-0.58335865 -0.13386983 0.76608992
0.27454162 -0.26941988 1.6137855
-0.41045654 -0.20486879 1.0990479
0.33822602 -0.26112634 1.9243176
-0.52945346 0.050854981 0.68339086
-0.33723861 -0.21003342 1.3999114
0.23474649 0.053097703 0.56027365
-0.52261859 -0.083150759 0.74086452
0.082050651 0.05903554 0.34466052
0.22366768 0.055176951 0.44250751
0.28413224 -0.19672212 1.0119855
0.52983135 0.043141961 0.70946288
0.72491825 0.016167609 1.314815
1.0272837 -0.16558066 1.4603176
-0.54020029 -0.079342104 0.73946595
-0.73856741 -0.075796828 1.5477531
-0.53313869 -0.040961713 0.74667883
-0.37860072 -0.21047822 1.2446547
0.28361231 -0.17278525 1.558111
0.39353949 0.016445439 1.1118364
-0.37514091 -0.22560376 1.9630401
0.29072678 -0.29023314 1.4676509
0.25141263 -0.17484653 1.4092455
0.14836696 0.060323 0.27110934
-0.20188108 0.057626143 0.26817822
0.235502 0.059159338 0.47145367
-0.60541129 -0.16267158 1.2994137
0.16378078 0.056686051 0.5031817
1.2222071 -0.041004933 1.7117989
2.3312879 -0.079039216 3.7104743
0.28862649 -0.15677357 1.5723579
-0.04037407 0.057118259 0.54089975
0.37468427 0.015958976 0.70678258
0.26463747 -0.02234471 1.2889874
1.7954075 -0.068834841 2.8637373
0.13549122 0.059550643 0.26877475
0.22238874 0.055448852 0.43591046
0.36105102 -0.0047998372 0.63679194
0.34935629 0.039620522 0.62706518
1.1009347 -0.25025499 1.6578658
1.106148 -0.3075307 1.4771626
-0.67378813 -0.12017062 1.7217743
0.46423572 -0.14324458 1.9386523
-0.52403253 -0.085467272 0.74531841
-0.38267899 -0.21366413 1.2755225
0.33935392 0.013664726 1.682328
-0.13364887 0.058250919 0.36567354
0.27571374 -0.16202176 1.5067842
0.28556108 -0.20950028 0.99220562
0.36158329 0.040684447 0.84898162
-0.049940854 0.060148016 0.35945702
-0.53842223 -0.017373862 0.74748158
-0.18706411 0.043275546 0.77897787
0.37481016 0.042395204 0.88434076
1.2731321 -0.25407988 1.7553737
-0.73570418 -0.11936514 1.6302283
0.83393812 -0.035404898 1.3853631
0.26302582 -0.12712538 1.673321
1.1708261 -0.1566385 1.3440778
-0.49598426 0.035526041 0.9116199
1.0669208 -0.16249435 1.39555
-0.53898048 0.036048234 0.73779321
0.4651106 -0.020355837 1.5866396
0.21722829 0.030316565 1.6634009
0.58114594 -0.17301323 1.4015889
0.081274718 0.058789872 0.34416056
1.0777527 -0.28267318 1.630666
0.49778301 -0.14972469 1.331665
-0.075104475 -0.089607447 1.0594203
0.181256 -0.20965876 1.903177
0.59725606 -0.18029852 1.4503703
-0.64262462 -0.17961138 1.4399571
0.080935985 0.058629051 0.34307194
1.1287134 -0.27549613 1.6385882
-0.54926223 -0.18869036 1.8387172
1.2158241 -0.23892033 1.6781375
1.0379827 -0.20209816 1.6541612
1.2144935 -0.057115421 1.6767361
0.27929288 -0.26601961 1.3703177
1.3730178 -0.10275118 1.626127
1.4421036 -0.10207786 3.6334193
0.24464774 0.052644908 0.69366932
-0.11033177 0.057055213 0.38517833
-0.025256932 0.050710827 0.7163558
0.28603083 -0.15892692 1.5333655
-0.38209385 -0.17518704 0.94828892
0.37580514 -0.27195516 1.8646915
0.14094776 0.058768317 0.36093354
-0.55081439 0.02538945 0.88571501
-0.20428625 0.058066003 0.28478003
-0.51265711 0.043186545 0.74755192
1.0908091 -0.14233793 1.3782518
-0.57653689 -0.10384458 0.76750708
-0.86612219 -0.19263475 1.1447911
1.0746713 -0.23776129 1.6494157
0.29274553 -0.19878124 1.0327389
0.57420576 0.042229749 0.68844748
-0.48063916 0.048937723 0.94090915
1.2222917 -0.13837472 1.5177543
1.1329546 -0.18028174 1.3407822
1.0125146 -0.16386162 1.4387443
1.6426659 -0.38493606 3.0382693
-0.47947532 0.010416189 1.263834
-0.50918365 0.026579339 1.2011857
-0.1546278 0.060722925 0.34074402
-0.5555647 0.012199914 1.4803853
0.41156381 0.0027740821 1.4475176
1.1887672 -0.23453978 1.6440275
-0.78501946 -0.081338778 1.6515167
0.28913498 0.029503016 1.1999087
-0.7138921 -0.063247092 1.4985375
0.4569245 -0.14189874 1.9079425
1.9316657 -0.072314501 2.9250305
0.44740719 -0.11766934 1.9819262
0.40304369 -0.18896286 1.7477233
0.26337373 -0.23594004 1.5215282
0.23267692 -0.21113515 1.4873962
1.8281431 -0.072856277 2.9099767
1.9695659 -0.076488167 2.9815924
-0.52531886 -0.074424237 0.74479294
-0.53808397 0.011101581 1.3943758
-0.3034468 -0.24992228 1.2492042
0.30374831 0.034604013 1.2753184
-0.084958941 0.056647524 0.49145222
-0.20950484 0.031040104 0.79628086
0.43211365 -0.11146396 1.8863719
-0.35260785 -0.23920789 1.6592858
-0.65522313 -0.18245399 1.4657106
0.24596554 -0.20343809 2.2948654
-0.41330379 -0.30732718 2.5905058
-0.53188139 -0.0027276445 0.7354641
-0.12418795 0.059708372 0.27249742
0.13049132 0.055923894 0.28528714
0.37969881 -0.13615648 0.6677916
0.14056641 0.061946355 0.27406263
-0.1486935 0.059070401 0.33063793
-0.20052463 0.055679701 0.30434895
-0.34721214 0.052673578 0.86148524
-0.54815453 0.012097429 0.75839067
0.010153592 0.060103908 0.28155971
1.1622734 -0.27171808 1.3435876
-0.10972223 0.057358354 0.38991451
-0.4700169 0.048868455 0.91600227
0.32382154 -0.18994096 0.94588017
0.57785201 0.041530751 0.69883657
0.63570929 0.018593494 0.78415871
0.2108731 0.054931566 0.37680817
0.34871116 0.015812913 0.61941147
0.43724865 -0.13176985 0.67947555
-0.13477683 0.05885873 0.37634587
0.37443602 -0.13344373 0.6561861
0.22763845 0.05654458 0.38590574
-0.12815294 0.057233907 0.3495419
-0.049064159 0.059454136 0.35516763
0.22130302 0.057708181 0.31141663
-0.17729366 0.059003547 0.4987514
-0.35228461 -0.26410091 1.1958213
-0.049420476 0.059267931 0.35216713
0.86586916 -0.23193395 1.3780735
0.22486633 0.057172395 0.46632195
-0.58263475 -0.13395631 0.7661891
1.061401 -0.28503585 1.7261093
0.25613427 -0.24549359 1.4745965
-0.52011514 -0.087883532 0.74285817
-0.54181111 -0.12775332 0.84660864
1.2226117 -0.05707559 1.6898429
-0.04814449 0.055812456 0.46977305
-0.52408445 -0.074888177 0.74234533
0.4080447 0.017190648 1.1974599
0.35117394 0.038256813 0.64347768
0.23954833 0.052371919 0.48736119
0.09214893 0.054608941 0.56178188
0.45310628 -0.18301865 1.6323102
-0.15538728 0.052832328 0.87627125
0.12599134 0.046857908 0.94679475
-0.54050732 0.035919059 0.73995852
-0.35823029 -0.22391242 1.6302612
0.29940301 -0.36680233 1.568157
0.28873491 -0.1756738 1.4642308
-0.3017641 -0.16840594 1.8210022
-0.0057749152 0.046242453 0.92270947
-0.54382247 0.0041449629 0.75195217
-0.028228045 0.052130472 0.74175286
0.30408317 0.07842809 0.59345007
-0.22134238 -0.14362608 1.1981621
0.22104591 0.058830298 0.31099105
-0.50421917 0.042361062 0.73325419
0.09067148 0.057097808 0.47540045
0.61148757 0.032583974 1.0168266
0.35612816 0.020145256 0.63615012
-0.2013514 0.057764426 0.28046155
-0.048844486 0.060936585 0.28509092
0.049146622 0.059182175 0.26603532
0.090473861 0.057140604 0.4789319
0.37301159 -0.13395536 0.65622735
1.2153373 -0.17660756 1.6042869
-0.057252288 0.05904521 0.35641575
0.35759363 -0.10898897 0.6321373
0.34390715 0.019192651 0.61190605
-0.58303988 -0.10618114 0.77274084
0.15854263 0.054097243 0.36714792
0.22493723 0.051448777 0.53500962
0.34555766 0.03971187 0.61744618
0.51629221 0.04018712 0.76187515
0.24204713 0.054602794 0.58039069
-0.47294199 -0.16132501 0.78718591
0.31511426 0.04451599 0.81103706
-0.49655992 -0.14197738 0.64469051
0.47171497 0.036020875 0.68718743
-0.10024273 0.058090217 0.46514702
1.1646961 -0.20886564 1.3417959
-0.52841389 0.022759318 1.0139506
1.060414 -0.19124255 1.3793435
0.21875665 0.057977572 0.32851577
-0.24312586 0.050975092 0.84593153
0.64981085 0.008598784 0.84352732
0.32693553 -0.1988062 1.0216196
1.2367039 -0.057211727 1.7112586
-0.71138752 -0.062364124 1.5820973
1.0825547 -0.27730945 1.6680329
-0.52874267 0.053040452 0.68320012
-0.7381984 -0.06781625 1.5632904
-0.36021942 0.055003203 0.80504012
-0.54411018 -0.12776002 0.85223413
0.42776358 -0.14211127 0.67299938
1.1484911 -0.024960106 2.818547
1.0811391 -0.048322678 1.4647629
-0.38675523 -0.2164268 1.2661023
0.42759508 -0.075690545 1.5633056
-0.37930816 -0.26620367 1.3495283
0.24966979 0.051922124 0.81027794
0.3018806 -0.21659377 1.339973
0.2912789 -0.060640424 0.79143786
-0.55463254 0.025365217 0.895257
0.15396982 0.043255977 1.207943
0.64308536 0.017943826 0.79151726
0.233733 -0.24020028 1.4480743
-0.68493003 0.030749468 1.5801089
0.42695445 -0.045781791 1.5026555
0.47939271 -0.073114656 1.8404944
-0.66457015 -0.11386137 1.688412
1.0348815 -0.1876591 1.4794555
0.28343159 -0.15551612 1.5312269
0.22085667 -0.11948779 1.3254673
0.67615461 -0.027205402 0.96465111
0.3029215 0.047186971 0.57066894
-0.31975734 -0.15371659 1.4954519
-0.059342623 0.048359245 0.72869611
0.3377499 -0.0083218124 1.0509026
-0.64836138 0.053192221 1.6498983
2.5745664 -0.09002883 4.0993452
2.1058826 -0.14219207 3.0089691
-0.52621776 0.062071957 0.64077735
1.4554987 -0.080376007 2.0394967
0.22234491 0.055701561 0.3751955
-0.7525236 -0.074456051 1.4411192
0.47942525 -0.11507267 0.93908119
-0.056939468 0.059312716 0.35682631
-0.36228138 0.056900255 0.50876522
0.5338462 0.034550555 0.61174059
0.12002867 0.049764007 0.29861951
-0.33400398 0.050528124 0.80579472
0.65697235 0.034268789 1.5062478
-0.20935121 0.051608846 0.40173745
-0.54574317 -0.062904611 0.75796986
0.14425415 0.035048824 1.6386635
0.26090628 -0.25953454 1.478986
-0.56803793 -0.093156502 0.77226138
-0.03899765 0.056645855 0.60091782
0.0026090741 0.059451036 0.25528193
0.68270874 0.034212764 1.5611808
-0.18584847 0.052825648 0.45926499
0.31000495 -0.16365117 1.6058939
-0.41983265 -0.17866756 1.4259856
0.010222822 0.059332825 0.27540112
-0.5848251 -0.10506384 0.77923656
-0.12385786 0.057481855 0.35097146
0.29100519 0.037365194 0.76720905
0.15668771 0.054267868 0.47568345
-0.12624025 0.061256915 0.27941346
-0.52751011 -0.16834392 1.6611669
1.1083056 -0.17910807 1.4669857
0.2416057 0.051843889 0.523633
1.0473572 -0.1678187 1.3877208
0.3417632 -0.11568351 0.63422418
-0.11258405 0.05755382 0.39637995
0.22951984 0.051779978 0.54429269
0.27315396 -0.18837804 1.1032948
-0.1878027 0.048953809 0.51913691
0.14785573 0.059971452 0.27053142
-0.14081031 0.049971312 0.43126464
-0.096878469 0.060335129 0.33299279
1.4958107 -0.17535929 2.1512139
0.047507346 0.038756397 1.4207971
-0.52794385 -0.055751301 0.74187493
0.22151473 0.059001356 0.28610706
-0.12053826 0.061400168 0.27779627
-0.12736291 0.061722979 0.28259754
-0.37628841 -0.3176192 1.7912514
0.80857861 -0.021444822 0.9729569
1.1908109 -0.23636225 1.715513
-0.55054086 -0.11315918 0.82708025
0.015613377 0.060138538 0.26199341
0.25855374 -0.25436598 1.5229826
-0.57121664 -0.093755215 0.77552795
-0.082717121 0.053112186 0.42987084
0.29019743 -0.15482891 1.5752623
-0.045828298 0.060209885 0.3688755
0.054302216 0.034253348 0.27680254
0.34903449 -0.11802785 0.64947152
0.56143969 0.042737782 0.66992116
0.22788 0.058786742 0.4213655
-0.019693881 0.051956363 0.81040001
0.079715788 0.056038395 0.3263669
0.49432451 -0.11442375 0.98577404
0.28712732 0.05031696 0.38298559
0.080380082 0.051231392 0.41953707
0.29145452 0.049036629 0.53292584
0.79431558 -0.019541362 1.8965032
0.34698659 -0.18737385 1.0172853
-0.73325568 -0.080962121 1.5010574
-0.19097823 0.050057814 0.52736473
0.49743962 -0.01341605 0.66127992
0.40720263 0.1120218 0.57340503
-0.42042458 -0.22831267 1.1891046
1.2183406 -0.2427229 1.6825459
0.34042838 0.016486958 0.62718654
0.25199389 -0.14098766 0.64226127
0.49670649 0.039861713 0.71906018
0.24033985 0.051278539 0.52241421
-0.1663135 0.053216927 0.91724825
-0.16144583 0.06098441 0.31521678
-0.050584301 0.058092326 0.49175572
-0.16572434 0.059897378 0.30600548
0.81840581 -0.032505602 1.3534732
-0.59484535 -0.15257284 0.82864237
0.12760383 0.076751813 0.78855038
0.11756641 0.058016516 0.4198339
0.40564966 0.042663042 0.68624163
1.1391217 -0.20657922 1.341953
0.32918805 -0.13463831 0.72346616
1.1006589 -0.035025984 1.5104086
-0.55113238 0.025475977 0.86559916
1.0991137 -0.1667044 1.6476734
0.28284204 -0.051437572 0.7889967
-0.71460903 -0.10630305 1.5764282
0.12695935 0.047472082 0.9648912
-0.50741011 -0.1782134 0.80910802
0.82227856 -0.031672619 1.3583734
0.37365359 0.017812017 0.69677687
0.24233955 -0.17075397 0.98783875
0.26493478 0.035287984 1.550997
0.457941 0.018956278 1.4867051
0.3600567 -0.10181747 0.99397564
-0.016296297 0.037968338 0.51525187
1.0541883 -0.13704246 1.5119476
0.36881989 0.029714186 0.68967938
-0.41965485 -0.20984009 1.1247268
-0.039306998 -0.20447129 2.2439163
0.4511168 -0.068765774 1.7276313
-0.48418719 0.042544343 1.0374415
1.1028012 -0.03550268 1.51405
0.65691966 -0.0047474932 0.90878916
-0.15104195 0.064535409 0.42115855
-0.17875159 0.041331362 0.73487902
0.379094 -0.048361763 1.0532203
0.25096786 0.06535022 0.36798763
1.1448698 -0.15861768 1.3399425
