# .PCD v0.7 - Point Cloud Data file format
VERSION 0.7
FIELDS x y z
SIZE 4 4 4
TYPE F F F
COUNT 1 1 1
WIDTH 556
HEIGHT 1
VIEWPOINT 0 0 0 1 0 0 0
POINTS 556
DATA ascii
-0.90336847 0.018958297 1.2456418
0.21926212 0.048017211 0.49739587
-0.92386007 0.020292683 1.2347716
0.7139411 -0.040015414 0.92245519
-0.67709422 -0.16696152 1.0836643
-0.72148335 -0.16449463 1.1154131
0.73127425 -0.052219719 1.155676
0.77214897 -0.051300421 1.2792619
0.76934445 -0.033576738 1.9392456
-0.57318163 -0.036904529 0.82454026
-0.67035198 -0.19089139 1.1029102
-0.6746068 -0.16624978 1.0789236
-0.36648449 -0.25920376 1.6205436
-0.81232798 -0.20702311 1.2826196
-0.26905945 -0.26244211 1.6203812
-0.4521032 -0.0045225844 1.8433794
0.39887467 -0.19955224 2.2526989
4.9631643 0.44880632 7.7939363
1.3693491 -0.09393999 3.1766596
-0.54080212 0.0019707177 1.2006122
-0.60300982 -0.142618 0.94419706
-0.30561784 -0.37655872 1.7196158
0.33855444 0.046302706 0.54080427
-0.88555074 -0.17681763 1.4728533
0.65111721 -0.010278549 0.99817169
-0.2649579 -0.21953875 1.6500865
-0.18601769 -0.32130113 2.1854744
-0.26805502 -0.26012388 1.6246322
-0.20379469 -0.32280776 2.1461945
-0.19254762 -0.31425387 2.07514
0.4523035 -0.21613106 4.2381887
0.31031024 -0.016799852 2.0221477
0.74959481 -0.049098708 1.2050401
0.26018193 -0.16804367 1.4657162
-0.31414005 -0.20519301 1.6425093
0.21861403 0.053741321 0.55479896
-0.53280818 -0.036310032 1.200812
0.65374279 -0.009698119 1.0036198
-0.28666466 -0.43924916 2.2804174
-0.24030697 -0.33443835 1.6181506
-0.27535743 -0.1980114 1.5996886
-0.94366348 -0.28584123 1.3760051
-0.54046619 0.001196254 1.1995388
-0.43854675 -0.25353095 1.6282052
-0.41647881 -0.0093289427 1.6784862
-0.92344892 -0.13006476 1.2877125
0.2335521 -0.030132458 1.8613421
-0.55064499 0.030395031 1.2133406
0.45580697 -0.14498588 0.67470229
-0.93628526 -0.0071800016 1.24567
0.69375896 0.0076668402 1.3361105
-0.54840565 0.02961671 1.2080745
-0.35990065 0.054168195 1.0377218
0.53193223 -0.0904788 3.0927033
0.50778973 -0.1729264 2.2425585
-0.26608568 -0.26031271 1.6181692
-0.29230663 -0.25907442 1.58943
-0.3142024 -0.23358727 1.4423779
0.48626378 -0.22922409 4.6209288
-0.19647431 -0.30329755 2.5242829
-0.42020902 -0.0020917803 2.4414544
0.87009704 -0.056837454 1.1873068
0.49028358 -0.42771867 5.1085911
-0.22987562 -0.34570032 2.1836782
-0.19072515 -0.27644083 2.2268729
-0.46396485 0.043516062 1.4886788
-0.56042254 0.020189267 1.1481088
-0.24740478 0.040549446 0.35638237
-0.1682025 -0.23571035 2.2462454
-0.17317611 0.060504001 0.31990921
0.57449687 0.039125711 0.86801875
-0.4795461 -0.14882419 1.7734624
0.34507799 -0.16839707 1.4405526
-0.64399838 -0.13803592 1.0680922
-0.58497357 -0.13368928 1.1231333
-0.44162008 -0.18534529 1.339795
-0.53990114 -0.062923551 2.5633559
-0.38620311 -0.1667513 2.725462
0.50989282 -0.23916021 4.8591309
0.47803134 -0.01509466 2.4083991
-0.45322421 0.012401983 1.7266444
-0.20717764 -0.28603408 2.3932266
-0.30706289 -0.21515569 1.9398259
0.56749392 -0.27893782 4.2073722
-0.15302646 0.041670106 1.1816996
-0.64395177 -0.13786188 1.066161
0.2977502 0.04129938 0.42150962
-0.58822846 0.050953858 1.0618581
-0.54576468 0.049295805 0.85611117
-0.45063147 0.020285472 1.7136451
0.073353216 0.054125369 0.47982657
-0.46589497 0.01720638 1.6532375
-0.64315808 -0.1369954 1.0642551
-0.22882146 -0.23516732 1.7941028
-0.62271404 -0.17736214 1.0725645
0.0018438846 0.057599105 0.39553511
-0.58048379 -0.045421593 0.84335673
0.49320999 -0.19858813 1.1233577
0.88955629 -0.10178364 1.2212182
-0.61196494 -0.16084978 1.067902
-0.29492831 -0.3878763 1.8973736
-0.59977126 0.050879609 1.093078
-0.69302714 -0.17099917 1.1227087
-0.57414961 0.034046452 0.80242741
-0.66702569 -0.17252377 1.0389081
-0.96246505 -0.018598434 1.2433134
-0.11259201 0.059205584 0.37268066
-0.4285506 0.010422219 1.5758756
-0.59139335 -0.1557337 1.0151387
-0.39875159 -0.22991428 1.4680568
-0.94038141 0.025994251 1.2251655
0.27797621 -0.2395671 1.5333534
-0.44199613 -0.18741167 1.3593334
-0.48214743 0.0080248583 1.5440484
-0.90672469 -0.17091608 1.3592509
-0.96921349 -0.29366615 1.4227692
-0.71140468 -0.18429583 1.0747088
-0.71998155 -0.18691942 1.0888163
0.054374442 0.045661435 1.0968765
0.56806195 -0.22144163 3.3465252
-0.26132295 -0.38498396 2.2354403
-0.24595591 -0.27190185 1.8166732
-0.13226306 -0.19799834 1.9133524
0.49419412 -0.21587774 4.7039285
-0.18789032 0.058520827 0.34999132
0.22356056 0.055768132 0.56557095
-0.12211801 0.061314426 0.36228156
-0.67710197 -0.19622099 1.0864779
0.13963719 0.058365948 0.39423513
0.22618198 0.05307078 0.69458616
-0.38223037 0.058024995 0.91215122
-0.55719388 -0.022764936 0.80513847
0.1389617 0.059024714 0.38603425
-0.65363324 -0.13998961 1.0995849
0.94804561 -0.12501884 1.3579394
0.078053534 0.058387723 0.50790536
-0.067790888 0.060483295 0.35840309
-0.34958723 0.05273724 1.1389409
0.13683146 0.055108935 0.50069296
0.55195403 -0.17916083 1.9387473
-0.36020043 0.053956799 1.1757604
-0.55831492 -0.035058476 0.82946146
-0.46050289 0.025795104 1.3385631
-0.95537364 -0.2871193 1.3407792
0.37963396 -0.21716538 1.3825327
-1.3548758 0.12212316 1.9988815
-0.50150836 -0.12351849 1.794484
0.076226681 0.056662437 0.50455368
-0.49953863 -0.123067 1.7896031
-0.91464984 -0.1770457 1.2913362
-0.25966889 0.07376454 1.8013552
-0.72127306 -0.16083044 1.1241785
-0.3633002 -0.087373205 2.3347225
-1.3872441 -0.41231409 1.928907
-0.37892249 0.057153434 0.90866196
-0.87688208 0.019593593 1.1936954
-0.11278121 0.059201971 0.32621443
-0.91456842 -0.21437067 1.2907656
-0.65449631 -0.1438638 1.1040925
0.31372139 0.0072947079 0.7444495
-0.90018213 -0.014459878 1.2340385
0.14121528 0.058183201 0.41063201
0.13725065 0.055699039 0.50200498
0.23339394 0.053399187 0.72901952
-0.48959646 0.018564299 1.7289029
-0.49810514 -0.1209894 1.785406
0.15704635 0.053146213 0.67682827
-0.47343662 -0.0039719678 1.7536036
-0.37491551 0.055652268 1.2357532
0.94599032 -0.080221497 2.2428632
-0.44642571 -0.18647382 1.3499378
-0.39927495 -0.18881565 1.3193215
-0.97603929 -0.31247824 1.4118158
-0.32067543 -0.20059702 1.6387202
-0.71122086 -0.091300905 2.4577885
0.34762141 -0.18999058 1.5762485
-0.29839781 -0.31748235 1.6425413
-0.21935615 -0.37895548 2.5949383
-0.4780046 -0.057991005 2.9180536
0.46090665 -0.37085995 4.414989
0.30548355 0.042132903 0.36480129
0.30179122 0.042492077 0.36486709
-0.61373997 -0.16108385 1.0734404
-0.18940994 0.055744588 0.30671155
0.31004035 0.042656384 0.37853539
0.30644408 0.042549908 0.36829734
-0.61932039 -0.1780788 1.0727814
0.26633853 0.04643178 0.56662858
-0.90894401 -0.016605072 1.2542976
-0.38837507 -0.20255578 0.98196709
1.5353057 -0.1500946 2.0507002
-0.89209569 -0.017365914 1.2305425
0.71491897 0.023658941 1.4077867
-0.45447081 -0.20335382 1.0394107
-0.91192424 -0.016172815 1.2558943
1.430411 -0.11750638 1.9004718
-0.19400859 0.047946136 0.7254709
-0.93558407 -0.0071098767 1.2462865
-0.072206326 0.059204806 0.33212948
1.1477888 -0.14002201 1.4823054
0.14384475 0.054568049 0.72004688
-0.16439888 0.05050901 1.1069444
0.28084439 -0.24205247 1.5565995
-0.71952772 -0.09235806 2.4866691
-0.53062057 -0.059595883 2.4988708
-0.1105134 0.057607811 0.35953414
-0.40338498 -0.002538899 2.2684879
-0.51096988 -0.10227643 2.0832868
-0.24715248 -0.14215308 2.2382536
-0.15507381 -0.081309624 1.3299021
-0.36383352 -0.034457266 2.5390892
-0.54889619 0.022534855 1.1809393
0.20075941 0.015267954 0.40589154
0.44781092 0.019004013 1.5094923
-0.0060799792 0.057730746 0.36652577
0.44096592 0.035827704 0.68336451
-0.38416883 -0.19956094 1.5425524
0.20717855 0.055194095 0.57861912
-0.4462333 -0.12571576 1.8018173
-0.73437047 -0.097358234 2.34655
0.19870272 0.057312902 0.39435625
-0.36933133 -0.21172681 1.011057
-0.19807148 0.056091316 0.30954468
-0.18333739 0.056721356 0.37618184
-0.13795012 0.037899986 0.73287141
-0.45307496 -0.17196631 1.0228463
-0.44449869 -0.0044171233 1.7687031
-0.71338665 -0.093135945 2.4616685
-0.15930961 0.04521247 1.2956094
-0.13713108 0.061938852 0.32460403
-0.50829947 0.030913055 0.71286452
0.28713658 -0.24995598 1.6077789
0.22662428 -0.19893128 2.164886
-0.15382788 -0.083561115 1.3225368
0.23643897 0.052457541 0.59529722
-0.26848567 -0.2352055 2.0680623
-0.70250523 -0.24700761 1.113768
-0.22836462 0.048436381 0.70873058
-0.06774734 0.057303157 0.48394549
0.0025865287 0.058889717 0.41169012
-0.50772154 -0.20224634 1.2900029
-0.50576997 0.0040054061 1.6089383
-0.36843383 0.031316325 2.025537
-0.39726272 -0.096655808 3.312983
0.13060774 0.052136153 0.47222865
-0.31671181 -0.18886778 1.5824589
-0.4612312 -0.23388767 1.7015053
-0.72267032 -0.18862855 1.092106
-0.58158195 -0.035242394 0.83197773
-0.055341497 0.051955439 0.4934622
-0.5514158 0.031270579 1.217321
-0.31197834 -0.19777736 1.1623935
0.44926623 0.019777467 1.5167414
-0.51823366 0.014217013 1.5330356
0.43208095 -0.12986326 0.7759198
-0.12113445 0.061857205 0.36875236
0.21472391 0.049024623 0.51493704
-0.1866976 -0.3794412 1.6536022
0.20401347 0.055795938 0.43902409
-0.19960096 0.056555465 0.27603447
-0.89553344 -0.015908804 1.2377502
-1.1404312 -0.33703429 1.5272063
0.13878949 0.058670864 0.31920445
-0.40269825 -0.16125992 1.5988144
-0.86619413 -0.26668343 1.3341159
-0.55196369 -0.001485303 1.430472
0.23350511 0.05217398 0.66795218
0.23713368 0.053784057 0.75365818
-0.41308895 -0.19054541 1.7281891
0.70747793 -0.004945036 1.2975353
0.13672768 0.056009538 0.49399149
-0.34373307 -0.26729 1.3681477
0.053617865 0.055906311 0.45290601
0.47149584 0.0015278794 1.6313802
-0.18134849 0.060322016 0.42595124
-0.51397836 0.010275366 1.5022148
-0.18448077 0.047322493 1.083475
-0.25020167 0.053613763 0.55966175
-0.38595185 -0.1682083 2.7161164
0.050264463 0.04674916 1.063409
-0.35406968 0.05321731 1.0140404
0.14781263 0.054536171 0.65186918
-0.0053800344 0.061527811 0.40454137
-0.42676762 -0.17544341 1.64283
0.3230359 0.023381159 0.7671591
-0.056232601 0.055725247 0.5701443
0.43388706 -0.16940862 2.4982009
-0.55887878 0.0092165638 1.4355816
0.37163636 -0.16620874 0.93620026
-0.1795464 0.055443689 0.3615061
-0.13386066 0.060775138 0.37601292
0.65417325 -0.060628682 1.0737232
-0.49056062 0.040898085 1.1928741
0.0038210005 0.058391891 0.39303565
0.26992968 -0.17659542 0.99984515
0.42797774 -0.16991982 1.5403119
-0.44829634 0.011692386 1.7155753
-0.55533206 -0.18974426 3.3987784
0.71900606 -0.066560172 1.2603327
0.35957018 -0.044552892 3.9848623
1.0733478 -0.078366578 1.8698443
0.45674184 -0.34969983 4.8282866
-0.20714022 -0.17641589 2.5539284
-0.057715163 0.056277327 0.57496202
0.27168739 -0.24114668 1.3075496
1.5315664 -0.14062017 2.0491157
0.22808152 0.054010164 0.28979647
0.37868598 0.045202568 0.53039324
-0.34178472 -0.33022341 1.6577154
0.35442677 -0.12965196 0.81911528
-0.5078671 -0.20810562 1.0049552
-0.33624715 -0.20147565 1.6959683
-0.52142441 -0.059474491 1.1923429
-0.27066448 -0.22595146 1.6882049
0.56480014 -0.13673708 2.4348269
-0.41362104 0.063692421 0.71515024
-0.14082275 0.059822682 0.36220801
0.20363726 0.045034267 0.48851597
0.13237534 0.058966976 0.27861726
-0.06909924 0.059924968 0.52530134
0.20974058 -0.20465055 0.89857018
0.33346337 0.022762345 0.79303586
-0.19069755 0.056292631 0.31187975
-0.52963316 0.062817693 0.71935451
0.687132 -0.0041041505 1.2548038
-0.49513844 0.044419583 1.1426929
0.35616842 0.038209893 0.78030503
0.33316821 -0.24284789 1.8363482
-0.19883546 0.0548301 0.32419491
0.15181036 0.059161782 0.32686973
0.3788946 0.045089178 0.5312227
-0.28625694 -0.24096116 1.5609156
0.45408419 -0.17519507 1.3826379
-0.24097559 0.051024761 0.41205788
-0.59693742 -0.18398318 1.0404912
-0.41533098 -0.16955516 1.658033
-0.17232537 0.060957607 0.32275808
-0.71624255 -0.083485767 2.2071648
1.0847132 0.068441793 2.0343246
-0.93835998 -0.28341791 1.3427333
-0.38652256 0.058765266 0.93319571
0.30486301 0.046702236 0.4902724
0.66420734 0.023558185 1.2996007
-0.11282559 0.059617613 0.38069189
0.16156122 0.060582586 0.27331352
-0.39090875 -0.20417988 0.9853586
0.21405609 0.05737409 0.60550988
-0.18039928 0.050878994 0.78161776
-0.53947604 -0.0003185682 1.1997997
0.26691899 0.045751557 1.1137224
0.14182235 0.06037531 0.33094847
-1.2164191 -0.36633739 1.7666651
0.17346555 -0.019602779 2.0590105
0.47500661 -0.17775166 2.2554035
0.35483184 0.043327115 0.55464518
0.43522063 0.020430837 1.4630874
0.51726508 0.037067514 0.80145705
-0.74103057 -0.20802394 1.0983638
0.068058163 0.058880445 0.35340977
-0.5569303 0.0047646258 1.4225494
-0.53669667 0.0051723095 1.1901723
0.34283122 0.049352884 0.44443691
-0.18933681 0.056141049 0.3093816
0.07800287 0.057884544 0.48876369
-0.38949537 0.058590095 0.80651796
-0.059115879 0.058772057 0.48690283
-0.18747209 0.058769718 0.35079849
-0.19052422 0.057475049 0.24126732
0.1318879 0.059938531 0.38082957
0.16123596 0.053485833 0.70485413
0.14111704 0.059379924 0.32452595
-0.19614786 0.055873044 0.30562425
-0.064768024 0.059075255 0.34945405
0.22082783 0.047279265 0.50816453
0.13509421 0.058879841 0.27317727
-0.19468752 0.051705789 0.46623313
-0.5889225 0.040221862 0.7481674
0.0023032874 0.045750313 0.28430271
0.424481 0.033597626 1.1937603
-0.48136708 0.044650599 0.93762171
0.068445116 0.059345715 0.35666752
-0.18547547 0.050220601 0.55285418
-0.17914179 0.055686649 0.36642528
-0.11005342 0.05328754 0.36704028
-0.1492942 0.064120978 0.33027554
0.069993511 0.061025996 0.36237645
0.57655871 0.034176216 0.82887852
-0.54115808 0.028846398 1.1941999
-0.066371918 0.059237376 0.35030019
0.32085869 0.049057253 0.52442586
-0.20366786 0.053953361 0.49509799
0.3135502 0.022769041 0.74373472
0.32067022 0.04878768 0.52401197
-0.59368885 0.051027149 1.2035221
0.25797862 0.045717999 0.54758632
0.31505793 0.047473699 0.54207981
-0.18700388 0.058549657 0.35020328
0.3446089 0.049152456 0.44734561
-0.52536821 0.020661138 1.3981649
0.14320895 0.060295336 0.3315556
0.22410557 0.053409733 0.29150939
-0.41216794 0.063461401 0.70733845
0.32059464 0.040584564 0.49196947
-0.0033202022 0.05660557 0.36720622
0.0043425113 0.05869871 0.39162743
-0.062459111 0.059047736 0.48725784
-0.91875863 -0.2097061 1.2258283
0.07910642 0.054875005 0.57065737
-0.030887425 0.057264768 0.40175593
-0.44279015 -0.19427708 1.4304596
-0.68534219 -0.1987268 1.1002549
0.21469589 0.0525892 0.50732434
-0.56508291 -0.12713492 1.078245
0.08247526 0.05725665 0.60633457
-0.5083009 -0.1073484 1.1681045
0.25328535 -0.0066978224 1.1693655
-0.50918579 -0.22049943 1.6557051
-0.52271128 -0.11016037 1.2044045
-0.42026481 -0.19665042 1.6165611
-0.71731424 -0.22646302 1.1398569
-0.34222737 -0.26022443 1.6173917
-0.46103337 -0.00033549592 1.8250035
-0.059849776 0.058751266 0.79964101
0.2080843 0.056946464 0.45117676
0.36209327 -0.15206987 1.4605907
-0.64660919 -0.15551206 1.0638658
-0.052383952 0.052896816 0.71571553
0.20379636 0.023455475 1.2731315
-0.0026652589 0.05164922 0.32809377
-0.26463577 -0.25520891 1.5999261
0.44096598 0.00047061592 1.6139704
-0.25065765 -0.3205224 2.456974
-0.22164148 -0.32979453 1.9664842
0.56898546 0.035270028 0.80769503
-0.67716801 -0.085826352 2.3260441
-0.26628509 -0.21960035 1.6352059
-0.39590034 0.10540441 1.2942537
0.24983475 -0.034098811 3.0817614
0.27158561 0.046633482 0.55753434
0.44509307 0.038234651 0.84583342
0.73541999 0.015552517 1.5497109
0.094789267 0.053839356 0.40729535
-0.07528767 0.061913252 0.34869063
-0.32663727 -0.25015593 1.2163116
0.068633378 0.060499668 0.36554074
0.061777711 0.059328645 0.2664876
0.37027109 0.055886041 0.70455325
0.27537584 0.04740563 0.55883229
-0.35861364 0.054953836 0.73672783
-0.11960645 0.061637521 0.36392534
0.0017853826 0.055122361 0.39451206
0.19529007 0.056642171 0.38577425
-0.57071757 -0.12742719 1.0878094
0.31812122 -0.25483096 1.8075687
-0.25411001 -0.32061401 2.1505642
-0.19130403 0.05658944 0.31220424
-0.18765424 0.055653818 0.30674517
1.5580003 -0.12157293 2.1188011
-0.17862783 0.053522021 0.48708189
-0.59540868 0.050332207 1.0827805
-0.3738485 -0.19343305 1.784268
-0.18759097 0.056436758 0.40808856
-0.17512296 0.05879708 0.41084409
-0.14406244 -0.20062834 2.165339
0.52618217 0.043201003 1.0209602
-0.56427002 -0.035127986 0.83877599
0.2252377 0.060146883 0.63199604
1.0186499 -0.22864681 2.5952811
-0.51364517 0.016385961 1.1717521
0.20916003 0.058315206 0.35767114
0.15795356 0.052826907 0.68894994
0.46748853 0.039423909 0.94576418
-0.4185859 -0.22360185 1.0131286
0.34872881 0.048676588 0.47557986
0.068519607 0.06012081 0.36441171
0.21053231 -0.12713403 1.3640202
-0.55640543 -0.00082096457 1.4444109
-0.0015581474 0.061367437 0.26448035
-0.71403658 -0.22288713 1.1184956
-0.0086373091 0.059079625 0.39948583
0.64730501 -0.008696977 0.99235785
0.33154783 0.057497121 0.46366847
0.42680311 0.036051437 0.85222256
-0.54376686 0.0070169661 1.3907524
-0.25071022 0.069666691 0.57157743
-0.34814772 0.053239845 0.99348986
-0.68813503 -0.2030203 1.1302122
-0.49047771 -0.19443744 1.1563283
-0.13100682 0.066757306 0.40118289
-0.15598831 0.045914296 1.2740139
0.36630604 0.044965804 0.57539928
0.22321515 0.055873893 0.56223953
0.85202467 0.10934494 1.1145018
-0.17949821 -0.25097871 2.3767242
-0.19566256 -0.15098536 2.4122787
-0.20347682 -0.1200004 2.1273456
0.18063524 0.061015416 0.26601756
0.36178663 0.037989803 0.79087031
-0.068919584 0.057779849 0.48676217
0.30416253 0.053156532 0.4206816
-0.24971193 -0.28964341 1.7229186
0.35712522 0.017469689 0.79420078
0.23142704 0.058942996 0.61718762
0.37900254 0.033206217 0.76246178
-0.18906714 0.046559479 0.81533396
0.43122539 0.037184425 0.81759846
-0.81055236 -0.24962726 1.2590355
-0.53099167 0.0068540815 1.9506568
-0.19586197 0.056039646 0.26951051
-0.11729862 0.061217759 0.33400619
0.34249815 0.0039483849 2.0168552
0.42490381 -0.24868688 2.2038121
0.48123273 0.032343194 0.67867744
0.46794236 0.033518173 0.71055138
0.20242083 0.058451619 0.40147531
0.42855486 0.034557253 0.66361558
-0.25552255 -0.3443841 1.6930603
-0.065200187 0.054595131 0.45700634
0.38384843 0.017344631 1.6798922
0.090621889 0.051870633 0.720976
1.0660948 -0.056667365 1.7859222
0.098410666 0.052962311 0.82593
-0.06994395 0.059374779 0.51836336
0.32799444 0.046461977 0.42186129
0.22416614 0.052932169 0.28437352
-0.51496744 0.060139492 0.8235985
-0.51161158 0.060236596 0.81742942
-0.44804111 -0.19293982 1.3217195
0.1174192 0.049179975 0.26359642
0.064040005 0.055755552 0.32840157
-0.55658519 -0.15852797 1.0943042
-0.51190341 -0.16900212 0.8614248
0.33449349 0.025097042 0.80632532
0.34996402 -0.15796137 1.486735
-0.42445788 -0.22374049 1.2809664
-0.56902337 -0.043240443 0.81652081
0.7468065 -0.011205621 1.5311047
0.55077457 0.035426982 0.78477609
-0.18882237 0.056871034 0.33299041
0.22400488 0.05087132 0.36232114
0.1423763 0.049877681 0.66740763
-0.94346523 -0.2865518 1.3792244
-0.27707568 -0.26561552 1.6212851
-0.09912011 -0.39605278 1.7394882
-0.28882006 0.15050647 0.81097281
0.64586329 -0.13041067 3.4517393
0.45767888 -0.13235533 0.83385885
1.2483643 -0.063477792 3.6130457
-0.25127208 -0.37639183 2.1040497
0.25013983 0.043200914 0.51091826
-0.55224323 -0.12390421 1.053507
0.34790817 0.021806257 0.52934349
0.32524762 0.044134066 0.51455367
0.06973283 0.052160099 0.42752409
-0.75150907 -0.23177588 1.1375557
0.26945335 0.037198555 0.32593226
