# .PCD v0.7 - Point Cloud Data file format
VERSION 0.7
FIELDS x y z
SIZE 4 4 4
TYPE F F F
COUNT 1 1 1
WIDTH 577
HEIGHT 1
VIEWPOINT 0 0 0 1 0 0 0
POINTS 577
DATA ascii
-0.12357146 -0.20153174 2.9614444
-0.12443465 -0.19997503 2.9515495
-0.18363476 -0.38466159 3.2227373
-0.14314443 -0.37620467 3.1682272
-0.12912273 -0.0086290389 2.0571928
-0.18869263 -0.31895351 3.1853271
1.0042272 -0.25643158 2.7616191
0.054812551 -0.057992384 1.4603567
0.63222283 -0.051859848 1.6153884
-0.06191355 -0.34011459 4.2986922
-0.0084814429 -0.16636857 4.2370234
-0.22661662 -0.41936824 3.1723804
-0.62791377 0.026666431 0.89105749
-0.78753811 -0.48325276 2.9501295
-0.19508511 -0.38081151 3.0609288
-0.86938196 -0.40875086 2.7545991
1.1997004 -0.25286338 1.9853101
-0.79790062 -0.077571847 1.5643811
-0.73779064 -0.45147622 2.9751048
0.24651724 -0.042199329 1.0863099
-0.74163455 -0.41371736 3.0512199
0.16639233 0.017066227 0.82955551
-0.85610455 -0.085974321 1.6756253
0.1633926 0.045731109 0.77628756
-1.0493774 -0.42223206 3.0652938
-0.80912453 -0.010520905 1.5292153
0.70728976 -0.028654419 2.5362153
1.2202177 -0.357595 2.2106171
0.035644472 -0.37172243 2.7821593
0.33746123 -0.0082123317 1.0405736
0.28174376 -0.18450993 0.941607
1.5193062 -0.076907262 1.9972339
0.16204232 0.01735968 0.81796026
0.21698612 0.044725202 0.41869807
0.14103293 0.039271533 0.83249855
1.5563831 -0.076770574 2.0799155
-0.89675575 -0.049286842 1.6465187
0.35714334 -0.069213107 1.0694823
-0.49924201 -0.40373242 4.1960425
0.16415697 0.045684248 0.78035069
0.35753679 -0.076998785 1.0762048
0.72663695 0.02927332 0.86672449
-0.58212608 -0.089788362 2.6932058
0.086861849 0.050983243 0.58704329
1.1543465 -0.03665825 1.8502188
0.98609895 -0.092648774 1.8475761
0.74095541 0.017433826 1.0592508
0.72595125 0.021184385 1.1211305
1.0351386 -0.033980057 1.8803735
-0.016918421 0.043188158 1.2398634
-0.79898947 -0.080712773 1.5732861
0.31733537 0.022012016 0.67129564
0.35356444 0.040161334 0.46358657
-0.86100489 -0.40350786 2.756464
0.98058146 -0.030649632 1.7689223
0.45688564 -0.31107643 4.7414737
-0.79185766 -0.36655232 2.8227892
1.1152511 -0.036843561 1.8645988
-0.78933352 -0.47023016 3.1708612
0.30035847 -0.091710046 1.1233597
-0.91933221 -0.4374893 2.8817363
-0.033736408 -0.54476058 4.4698453
0.37111253 -0.077514097 1.051466
0.051390588 -0.54692805 4.1495104
0.46648103 -0.31910387 4.8443694
-0.86049002 -0.4390834 2.8629265
0.33176696 -0.020920034 1.1641774
-0.90265983 -0.42312697 2.9335308
-0.84276885 -0.28748098 2.849514
-1.0706615 -0.40782571 3.1159158
0.048738062 -0.5440582 4.1527705
-0.6010446 -0.30492988 3.5350599
1.1973958 -0.037716299 1.8500047
-0.87822145 -0.35138392 2.8363657
0.75123018 0.026642574 1.0065207
1.1813109 -0.079257421 1.9218202
-0.022279084 -0.51208049 4.1229625
-0.71332806 -0.42092583 2.9524574
-0.85482424 -0.4552238 2.8870463
1.0010271 -0.095801175 1.886538
-0.96697825 -0.42282751 2.9380608
-0.2307573 0.052246854 0.34304595
1.1808779 -0.099703521 1.8111925
-0.78214353 -0.07295461 1.5123405
1.2517257 -0.036511511 1.9799027
0.21719211 0.024712371 0.92200661
-1.0215862 -0.32305014 2.9196091
-0.96657711 -0.3989189 2.9000001
-0.8128857 -0.027242191 1.5942059
1.110935 -0.083879612 1.877069
-0.8438037 -0.33239597 2.1609583
-0.66135365 -0.26800433 2.8557296
-0.788297 -0.34987453 2.8264346
-0.95874792 -0.23177582 2.8622441
-1.019485 -0.39911202 2.9563985
-0.74103814 -0.42782801 3.5577297
-0.18482506 0.058236752 0.34608769
1.019259 -0.078076132 1.7928958
-0.21023524 0.053426005 0.34616041
0.21680421 0.046102084 0.41302919
-0.77561599 -0.17144166 1.0278387
0.38443846 0.012077028 1.1040158
0.40406412 -0.081530079 3.3308964
0.34181774 -0.054876767 1.054646
-0.75294548 -0.38533038 1.7625399
1.4036191 -0.039918825 1.9115434
1.4008591 -0.038295276 1.9089184
0.11196786 -0.2603161 4.3229456
-0.81930262 -0.043861389 1.5487986
1.1933787 -0.097449124 1.8182173
-0.80580503 -0.26473349 2.7795577
0.13219047 0.025035275 0.89116812
2.2158687 -0.21755871 6.4430232
1.0227911 -0.064674318 1.8771448
0.43285543 -0.10429382 1.2774382
-0.41751868 -0.08304584 2.3083487
1.8662477 -0.80198079 5.4534774
-0.85651261 -0.36380163 1.9289145
-0.76869577 -0.47926509 2.8900199
0.23428541 -0.31331754 3.8347783
-0.20197517 0.049796864 0.47958922
0.57009238 -0.18263917 1.1071692
-0.82460505 0.011028329 1.569922
0.51995546 -0.17157964 0.97957373
-0.78493935 -0.27544522 1.8473196
1.4403427 -0.05124034 1.859396
0.14575469 0.016401866 0.83298445
0.31747532 0.019231288 0.66861153
1.0227897 -0.24305204 1.7952237
-0.18825418 0.051322892 0.35649729
-0.18070757 0.047963168 0.63126802
0.17114282 0.016907759 0.80138302
0.2176733 0.03657477 0.90997696
0.37982649 -0.078719109 1.0469494
0.092959523 0.042155165 0.73204279
0.094068229 0.040667169 0.75304747
-0.91192645 -0.40695474 2.7897201
1.0227633 -0.031684138 1.8672242
-0.67011434 -0.34304824 3.6821284
-0.86273068 -0.36444339 1.9536572
0.32557797 0.027204515 0.64735866
0.35042739 -0.077675901 1.0599604
-0.92838567 -0.15734679 1.767694
0.41518486 -0.11347535 0.72569513
-0.063574135 0.058023334 0.2784009
0.34603751 -0.056263655 1.05655
-0.87625271 -0.089836612 1.7308002
-0.7882809 -0.2326476 1.8492565
0.12826431 0.053060774 0.2977109
0.16242975 0.01760477 0.83079243
-0.82457322 -0.30968615 1.8352733
-0.7684502 -0.46010971 3.1711693
-0.69644517 -0.2942664 3.1920233
0.22004896 -0.074385919 0.47788572
-0.80019945 -0.080288835 1.5647173
-0.49666798 0.04501646 0.79584122
-0.19165105 0.051026575 0.61784744
-0.20645553 0.053317875 0.33918214
0.32864434 -0.10611679 0.64332938
0.17188501 0.017396638 0.80166531
0.31744951 0.01951839 0.66787219
-0.82138711 -0.036276005 1.6094704
-0.81608444 -0.27063572 2.7767982
-0.15692872 0.049019188 0.77969503
0.38976985 0.021319604 1.4861746
-0.17862129 0.048072089 0.62416172
0.42081654 0.035684422 0.75436068
0.090853095 0.043067139 0.70123959
0.34022033 0.017375218 0.96218634
-0.99974591 -0.043242022 1.2771177
0.32654536 -0.10374406 0.68953562
0.36740184 0.040930212 0.49160457
-0.81138688 -0.013329957 1.5337114
-0.8195191 -0.044521429 1.5489745
-0.053022385 0.053956274 0.34537148
-0.77858204 -0.030876182 1.5278668
-0.87126535 -0.33150628 1.9676909
1.0347822 -0.059453167 1.8809867
-0.053577155 0.052987043 0.52826929
1.157223 -0.037629649 1.848629
-0.7261942 -0.39690563 2.9321899
0.14351475 0.014464594 0.84027338
0.36115718 -0.09157519 0.66163135
-0.66844863 -0.37309083 2.8536935
-0.26102185 -0.016306262 1.824863
-0.50418693 0.033113141 2.284524
-0.60465413 -0.20446312 3.2390113
-0.48781973 -0.183798 3.1798806
-0.7232582 -0.33359247 3.0684786
0.074734509 0.05831524 0.27855062
-0.87260145 -0.36297265 2.8964219
1.1133702 -0.082646489 1.8143144
-0.35218197 0.051450126 0.81696129
-0.5994882 -0.28916702 3.745986
-0.82917088 -0.26015997 1.811749
0.33902943 0.01901505 0.66625595
-0.14329654 0.050294116 0.7191515
1.1251626 -0.034755275 1.8728719
1.0387404 -0.078099623 1.8567629
-0.15410179 0.043536209 0.96064615
-0.95515758 -0.29927778 2.9748311
-0.55315346 -0.34193978 2.0330043
-0.81380552 -0.28850657 1.933054
-0.82206243 -0.36389804 2.9606051
1.0369098 -0.05614277 1.8789253
1.1137218 -0.10599145 2.1275735
1.0397217 -0.29492405 2.3313313
-0.81571597 -0.16211106 1.739852
-0.2379567 0.053982362 0.36588812
0.84103698 0.0043114126 1.5626354
-0.50160789 0.044887986 0.80578375
0.16766465 0.045613922 0.81091642
-0.62408549 -0.30444473 3.9278717
1.1551912 -0.038624153 1.851531
-0.74049348 -0.38296387 4.3753858
-0.82258481 -0.48006427 2.9141264
0.51641208 -0.16756251 0.95201826
0.02823621 0.046289332 0.76838923
0.21003461 0.055060074 0.26733184
-0.78109306 -0.16367841 2.8344097
0.41683918 0.034795709 0.74638987
0.47229981 -0.14351386 0.74174356
-0.18706852 0.058727626 0.35138512
-0.20140624 0.050710425 0.47906899
0.33728784 -0.053637967 1.1287313
-0.14820343 0.05075334 0.72875738
-0.88786751 -0.34779838 1.8732238
0.15926373 -0.14659715 0.648561
0.20755649 0.054341584 0.26270771
-0.61552757 -0.26311669 3.4247909
-0.57274777 -0.54443812 4.4574289
-0.64571971 -0.35492903 4.0385156
0.19599795 0.034433991 0.80102873
0.18179071 -0.16349889 1.2771525
-0.2338472 0.052862812 0.34828091
-0.51288044 0.059323549 0.77119827
-0.3524521 0.050993651 0.82118702
-0.64737588 0.016636878 2.4701476
-0.74007517 0.0070215762 1.8083568
1.1241529 -0.032829732 2.1025033
-0.78265911 -0.032349728 1.5268393
-0.052877992 0.054409768 0.35597181
1.1267436 -0.034599543 1.8752317
-0.063106745 0.057284005 0.26717854
-0.85779172 -0.47079182 2.9736786
1.464463 -0.060770877 1.8695378
-0.67012924 -0.012881979 2.5226579
0.071920574 0.054953925 0.25054479
-0.85419434 -0.27369684 1.9769149
1.8991275 -0.12448436 2.3978567
-0.92843312 -0.34465528 2.4063921
-0.78906101 -0.24619186 2.6652398
-0.030770749 0.057874918 0.272048
-0.18583709 0.058491424 0.34876394
1.4893456 -0.056874231 1.7980523
0.099410176 0.047557589 0.76915884
-0.35569733 0.053245716 0.71398544
0.18957764 0.037750833 0.77823257
-0.48345745 0.055597164 0.76486683
0.21178931 0.038177915 0.41177821
-0.35008246 0.050650772 0.81600332
-0.030385256 0.057895176 0.27165103
-0.99373823 -0.16763966 1.2688112
-0.66672951 0.032348081 2.616539
-0.78319675 -0.026857123 1.5458908
0.45402104 -0.15255281 0.72634125
1.2439346 -0.033708841 1.4422445
-0.17328221 -0.18667966 2.2700801
1.9099731 -0.37954289 2.2265754
-0.86868101 -0.36236924 2.8819847
1.1647158 -0.087552071 1.9047594
-0.053949177 0.05620693 0.37979531
-0.67064494 -0.17604339 2.9770656
0.77736944 0.020347178 1.1093278
-0.48377818 0.026565209 2.506608
0.35612029 -0.1544797 0.78724289
-0.056056172 0.057907842 0.26508617
0.025087237 0.045413468 0.7084837
-0.38155645 0.02467523 1.9206548
-0.84861535 -0.085520193 1.6167107
-0.76552814 -0.3929373 1.7977986
0.21951991 0.047095254 0.41726232
-0.35819501 0.053763371 0.71852541
-0.89500469 -0.39483085 1.9434261
1.4488549 -0.061883591 1.8376923
-0.79998678 -0.033982851 1.623529
0.18052632 0.045076508 0.77679968
1.7766795 -0.056873091 2.0615954
-0.77149457 -0.029928468 1.5609336
0.17957717 0.04449077 0.77395964
-0.8346166 -0.21590099 1.995008
-0.91286963 -0.34010568 1.8548942
-0.063728869 0.057728067 0.26854897
-0.77761465 -0.4733327 2.8924384
0.076562405 0.054712795 0.37648273
-0.48579866 -0.1581154 0.78094721
-0.51576924 -0.12348032 0.73479128
-0.54225647 -0.12590696 0.76673603
0.26751709 -0.0091500506 0.98477316
-0.49749082 -0.14266863 0.77985525
0.33345407 -0.11904442 1.2563243
-0.10069937 0.049116228 0.72550535
-0.52379477 -0.13916412 0.6601727
1.1348004 -0.038892113 1.8044691
0.15905285 0.045416497 0.71662998
0.074389815 -0.16861109 1.2690325
-0.78151041 -0.030005656 1.5818725
-0.68155569 -0.26117077 3.122427
0.90127152 0.0230652 1.2323627
0.074767649 0.057059303 0.28450656
1.1594641 -0.034356594 1.7968798
0.075078428 0.053761862 0.36054587
-0.46944064 0.031442039 1.3162155
-0.82065707 -0.25789419 1.7918754
1.2390153 -0.063963547 1.8610873
-0.044592679 0.050885722 0.59415293
2.4230464 -0.35338587 3.3361945
-0.42971224 -0.05793073 1.8984442
-0.61877126 -0.010729101 2.8352242
1.0253019 -0.22485167 2.746933
-0.54284114 -0.12877484 0.78183365
2.0467269 -0.1191975 2.5102062
-0.10620534 0.057981167 0.34750032
0.084834039 -0.21156496 1.5379109
-0.18132991 0.057505012 0.3405757
0.30671698 -0.14620429 1.15698
1.557008 -0.078098215 1.8886352
2.844357 -0.44729075 3.8847671
-0.052053243 0.050753944 0.48807979
0.31317002 -0.13128623 0.75361872
-0.63681322 -0.0064249486 2.7043681
-0.65413612 -0.3779746 4.2340455
-0.58105552 -0.19877067 3.6475778
0.083643854 0.051679015 0.4949522
0.21609247 0.047909543 0.321738
-0.49578702 0.058929242 0.66553831
0.24515623 0.044015169 0.32066798
0.22710365 0.044446319 0.54688287
0.17910278 0.052809168 0.35128951
0.36166769 0.034394279 0.5180192
-0.47746521 0.05755708 0.58340383
-0.19819987 0.051920548 0.63696575
-0.21266973 0.052771039 0.37446547
-0.49892008 -0.14347386 0.7829833
-0.80648714 -0.14707415 1.726819
-0.52041566 -0.1489564 0.82448101
0.076039076 0.055180348 0.37737155
0.30165368 0.028246412 0.68972826
0.16604859 0.045816846 0.80796766
0.32084757 0.028292531 0.66486359
0.21978754 0.048660915 0.33358955
-0.3579312 0.052405979 0.84015274
0.1653921 0.055760384 0.26280856
-0.84040374 0.01735387 1.0719132
-0.52571726 -0.13962738 0.66269374
0.33712888 0.032822914 0.64019704
0.80589491 0.021371191 1.102088
0.19248497 -0.1466642 0.65319633
0.48199606 -0.12473947 0.65526223
0.1936534 -0.14778651 0.65878844
-0.81808215 0.034188516 1.1431804
-0.49664998 -0.14285594 0.7791214
-0.54289633 -0.13323238 0.76826525
-0.069811493 0.053339727 0.25974274
-0.18616551 0.050537966 0.60338497
0.29704225 -0.14749946 0.75234747
-0.77158242 -0.24173158 1.739203
1.9960186 -0.1148591 2.4394016
0.39888793 -0.085359007 1.1368408
0.17177176 0.043016464 0.74000263
0.33951759 -0.17399453 0.78586483
1.3019471 -0.037129775 1.7611971
0.15367585 0.011980902 0.62271881
0.30437756 -0.16812831 0.78188515
-0.79482228 -0.29404935 2.6908817
-0.086767972 0.044526387 0.79019976
-0.66291684 -0.38165689 4.2748108
-0.88295239 -0.33774585 1.993804
0.073585272 0.056036491 0.2567296
-0.8469941 -0.37102896 1.8266187
-0.82951635 -0.24102369 1.7941594
0.14113593 0.035735756 0.96385765
0.31666279 -0.10227054 1.0505896
0.21425521 0.042856008 0.87115669
-0.80650622 0.035314783 1.1286416
0.14407527 0.036546435 0.97468233
0.13536936 0.033041216 0.9374423
1.3340349 -0.034658298 1.6153693
0.31889963 0.028069803 0.65872002
-0.47726649 0.0094756894 2.2127738
-0.54468846 -0.20073497 1.330657
-0.48129994 0.0056973659 2.2435336
-0.74916619 -0.43630743 3.7230501
-0.64855188 -0.22010177 2.8612356
-0.54550141 0.014952466 2.6649776
1.237308 -0.062740967 1.8690867
-0.61583644 -0.28164992 4.0135732
-0.45490867 -0.38407576 3.8823543
-0.10924834 0.056447104 0.34886932
1.8807514 -0.29984826 2.3329129
0.32794619 -0.058302857 1.0815573
0.29901719 0.036545418 0.51734877
-0.31679291 0.037068479 0.46682858
-0.055656642 0.058049999 0.26362681
0.1601544 0.055079162 0.27594256
1.8820796 -0.19696224 2.8241258
-0.20659339 0.050674237 0.4742322
-0.027171403 0.053744193 0.24814487
-0.19597077 0.03968215 0.80703592
0.14537919 0.036606088 1.0011196
-0.5581283 0.064173684 0.85614586
-0.52619535 -0.14678229 0.68779707
0.1649338 0.052237045 0.41317153
-0.1145857 0.055373631 0.45304751
-0.76267856 -0.027003735 1.4016662
0.050485969 0.055754162 0.25058246
0.13525653 0.051893104 0.41797161
0.012377143 0.057698049 0.29204059
0.018337935 0.057724744 0.28594136
-0.98730367 -0.22569683 1.8523078
0.28032738 0.036832467 0.4113915
-0.3607679 0.053643011 0.77184296
0.31532151 -0.13088587 0.77352619
0.66061807 0.034188315 0.80901051
0.32113808 -0.035424627 0.65599465
1.1358526 -0.3168402 2.7273355
0.082905054 0.050887626 0.49094534
-0.054083198 0.051685896 0.48651958
0.62000304 0.0077743195 1.6633182
-0.81119341 -0.5454179 4.6519613
-0.36536986 -0.16091934 3.0881166
-0.48849386 -0.15785278 0.79955721
0.27494437 0.029211547 0.72881556
-0.72111017 -0.3743149 1.7520337
0.22180879 0.050693717 0.27040672
0.18794453 -0.14488691 0.69962025
0.35091448 -0.077850975 1.0622616
0.03789258 0.04453769 0.84664869
-0.78430682 0.010469079 1.550622
-0.83283609 -0.24201617 1.7906675
0.024809003 0.046687752 0.72975779
0.077438951 0.056601834 0.25574112
0.12843865 0.05309891 0.28690934
0.31216836 -0.11103353 1.1398726
0.26606899 0.028420238 0.69839525
0.79105896 0.020733444 1.1363268
-0.18538791 0.053879783 0.88006878
1.1349218 -0.083023727 1.8469152
-0.91342884 -0.33589089 1.8489799
-0.83968562 -0.32347244 1.890336
0.081510782 0.049586158 0.48350906
0.08133626 0.057250917 0.39527535
0.33702368 -0.13964973 0.71020746
-0.20966071 0.051655818 0.4026401
-0.57956457 -0.13919713 0.86699533
1.3721018 -0.31896615 2.3259964
-0.061038107 0.055807769 0.37301588
0.31801391 -0.13450596 0.7768178
-0.82727736 0.018193793 1.0564404
0.17587346 0.045269221 0.76899338
0.13008887 0.05374825 0.29261136
0.23627877 0.047385242 0.93488073
-0.20062155 0.040932361 0.82291794
0.27977443 0.029309956 0.73899031
0.31858748 -0.033349 0.65059757
-0.56308395 -0.15459582 0.88602018
-0.21178395 0.049656153 0.31430435
1.1461232 -0.25144717 2.6800742
-0.81723291 -0.29734522 1.9068141
-1.3045557 -0.24929526 2.0665956
1.560858 -0.041281827 1.8959842
2.0172234 -0.17123966 2.4798145
0.27278495 0.028709084 0.72110462
0.43438274 -0.1066424 0.5361824
-0.088234067 0.046133988 0.82004166
0.55595464 0.11702015 1.1575103
-0.52339345 -0.17319855 0.8802104
2.0378065 -0.045671701 2.7039571
0.22146606 0.045393448 0.51028657
-0.20345384 0.05852598 0.35686684
0.22488606 0.046347924 0.42117548
0.36682856 0.041188054 0.49322939
-0.47746909 -0.16101246 0.74167347
0.15750551 0.056014039 0.25058055
-0.20478135 0.050748188 0.48835015
0.12713885 0.053637624 0.26185679
0.2019164 0.033108965 0.83278561
0.38349521 -0.013810411 0.50244689
-0.20052814 0.052062113 0.32591701
-0.2315982 0.052934825 0.34258866
-0.46798617 -0.15403791 0.77980137
-0.18193543 0.048807576 0.63692617
0.26468414 -0.063176468 0.34968281
-0.39891189 0.059419248 0.51433897
0.41869801 -0.088142022 0.76122093
0.38612503 0.032415636 0.65766668
-0.89356571 -0.34919265 1.8877735
0.044109643 0.057704806 0.28540134
0.31519294 0.017187076 0.65929866
-1.0652487 0.016298965 1.9550548
0.064128935 0.048228886 0.22615051
-0.21016997 0.051616147 0.40311384
0.12901312 0.054475993 0.26674724
1.0752614 -0.30672094 2.4195466
-1.78142 -0.3657721 2.821887
0.22106302 0.048207007 0.43425536
0.00070866942 0.040628545 0.20806146
0.21926802 0.049997222 0.26593876
-0.78309435 -0.11177024 1.5311942
0.079012156 0.059676781 0.27587438
0.14460891 0.045453843 0.87704706
0.30089533 -0.14945757 0.76532125
-0.46419954 -0.40153295 4.0527263
-0.46708918 -0.13340762 0.73125601
0.13844037 0.059105977 0.2674737
1.1131322 -0.0095037222 1.4247718
-0.81897396 -0.24157235 1.816433
0.31386757 -0.049210161 1.0287724
-0.10013926 0.048446465 0.7055645
-0.11490518 0.059607685 0.27304602
-0.060399294 0.055184036 0.37195325
0.22287512 0.045610383 0.49883771
-0.027451068 0.051299818 0.25949812
-0.052881896 0.055759009 0.37363148
0.18281776 0.038674947 0.35956645
-0.14450479 0.041440081 1.0115757
-0.18140393 0.04938956 0.64383221
-0.086127341 0.057271473 0.27300453
-0.20710856 0.055417806 0.37656641
-0.17845041 0.054409318 0.52062964
1.9246304 -0.40829128 2.2067146
0.17816979 0.055351578 0.25732183
-0.21686476 0.058722764 0.50626326
-0.73055166 -0.35627052 2.9745822
4.0255818 -0.14541095 5.4087148
0.16564858 0.050723545 0.45864677
0.081682086 0.047003649 0.56192899
0.32224095 -0.13454491 0.79208374
0.14648813 0.060996775 0.29008722
-0.80292243 -0.081986681 1.5371428
-0.95539659 -0.39392704 2.6325312
-0.99219817 -0.23522392 1.4628639
-0.19978642 -0.38593906 3.1554136
-1.0210967 0.017378135 1.8669624
0.18076152 0.05318895 0.35522652
0.23744386 0.039915338 0.72916698
1.2252707 0.034081221 1.7776923
0.13012737 0.041462157 0.775424
0.38930917 0.043260492 0.52330303
-0.16838676 0.059426181 0.87801027
0.16335398 0.050230484 0.45266914
-0.34615451 0.058994159 0.48069715
1.0707076 -0.32817858 2.3127646
0.011185974 0.05284756 0.26205921
-0.6114164 -0.0060611852 1.0498438
1.655406 -0.039083898 2.1656404
-0.91920573 -0.44012257 2.8909793
-0.017948478 0.059642635 0.30418706
0.13860363 0.043723054 0.8294034
0.35261929 0.029495794 0.65910888
1.8345215 -0.040612072 2.4083004
0.2711913 -0.072132774 0.92816257
0.25356549 -0.0039065704 0.72788
0.36058801 -0.011062115 0.81827545
-0.90779203 -0.29902223 1.8158646
-1.3858509 -0.23389634 1.7882533
2.0219665 -0.11825988 2.4777236
-0.19306856 -0.36640051 3.0012908
0.60951847 0.0081716888 1.6341839
0.33152181 -0.13927327 1.1185379
0.072308779 0.056143098 0.30087614
1.1061289 -0.29511496 2.4962049
0.21838427 0.04985543 0.26688957
0.28148401 -0.071430728 0.96097422
0.32601708 -0.058607876 1.0773878
-0.92818385 -0.30277681 1.7668047
0.1839928 0.056844257 0.28922081
