# .PCD v0.7 - Point Cloud Data file format
VERSION 0.7
FIELDS x y z
SIZE 4 4 4
TYPE F F F
COUNT 1 1 1
WIDTH 301
HEIGHT 1
VIEWPOINT 0 0 0 1 0 0 0
POINTS 301
DATA ascii
0.96720386 -0.075739451 1.5324684
0.96509457 -0.22244243 1.5529457
-0.075797394 0.058580689 0.33610162
-0.91978765 -0.033258926 2.0546186
-0.71928173 -0.07422477 1.5062186
0.28480515 -0.18571913 0.99405718
-0.18104534 0.048319008 0.6742878
-0.19369626 0.047699858 0.66310573
-0.17067538 0.050915841 0.25415358
-0.18224296 -0.078536451 0.7072047
-1.276787 -0.099034287 1.5927843
-0.21375398 0.038996462 0.33376911
-0.18683045 0.037591625 0.35366586
0.28375658 -0.17965947 0.87274706
0.23023121 0.052905448 0.77000117
0.13006516 0.06007053 0.3758997
0.067166738 0.059467837 0.33726171
0.21666391 0.062765025 0.38303122
0.60903227 -0.013633252 0.74303591
0.91366863 -0.12003284 1.5202599
0.57145184 0.014144424 0.76816916
0.60247761 -0.011308526 0.7378397
0.20869938 0.060330957 0.36685583
0.60654879 -0.014481706 0.73947477
0.207633 0.062737308 0.33882132
0.29075447 0.054759085 0.39672294
0.12841782 0.059660852 0.37205765
0.59335363 -0.010502194 0.72369528
0.2144202 0.053766076 0.56547797
-0.12434543 0.049901508 0.30378553
0.13669273 0.063574366 0.34940603
0.2171891 0.059880815 0.47767302
0.066585697 0.058408286 0.32826176
-0.18626019 0.036807802 0.35357729
0.20259804 0.06073042 0.47250435
0.12633541 0.058797978 0.34318098
-0.7176972 -0.20742004 1.1907287
1.019365 -0.18159157 1.3696144
0.23428807 0.062503159 0.39389232
0.22444719 0.0553253 0.41187266
0.14316808 0.062384121 0.37366065
1.1625397 -0.2304434 1.7207155
-0.068552293 0.061403137 0.33054611
0.5922609 -0.0066486448 0.72612548
-0.18676403 0.036575515 0.35302046
0.52574956 0.043116588 0.86441576
0.20555477 0.06115476 0.48257217
0.15422998 -0.23809633 1.1339409
0.39994738 0.046112563 0.68541157
0.13163677 0.061646309 0.3352066
-0.96921986 -0.10218014 2.0310862
0.22012721 -0.2725333 1.5401248
0.30618662 0.019229665 1.0305082
-0.14190881 0.048573852 0.61775565
-0.21391405 0.038559821 0.33258209
-0.18267031 -0.085301973 0.71557176
-0.076906718 0.052943733 0.40165409
0.27866486 -0.18893401 0.99109757
-0.21614967 0.019417785 0.75808465
-0.62331951 -0.18612511 1.1666468
0.10841575 -0.23289038 1.1350888
3.2209291 -0.6132006 4.3779955
0.49640784 -0.15899237 1.4115964
-0.17879657 -0.08393684 0.70095909
-0.00046997843 -0.23761067 1.167364
0.15784265 -0.13230027 0.76454973
-1.030578 -0.095227346 1.9311495
0.21064149 -0.15626656 1.0960628
1.0014361 -0.27419358 1.6137135
0.59845752 -0.040642649 1.9369047
3.497417 -0.64447629 4.8033733
0.10694175 0.060450979 0.3528035
0.44075814 0.044980355 0.65239358
-0.22301976 0.039858073 0.34920272
-0.060621761 0.061076447 0.37036672
0.15822534 0.058763739 0.67613173
0.38418528 0.023775622 1.5619323
-0.025864942 -0.24329938 1.1537794
-0.1536542 0.049001411 0.31839839
0.34665802 -0.17141747 0.91447663
0.031796109 0.059323378 0.37664977
0.36404583 0.027357243 1.5346239
0.093595289 -0.20491055 1.1322622
0.22654945 0.055745088 0.41625747
-0.035534807 -0.19689038 1.1412779
-0.10241239 0.053751256 0.2897447
-0.88717264 -0.035714675 2.221127
0.49212271 0.044192571 0.78897905
0.071112677 -0.22166218 1.1417668
-0.2292178 0.049163722 0.59685993
0.84666771 -0.11686087 1.4760689
-0.45535716 0.058478884 0.70861006
-0.79867107 -0.052986886 2.1545732
0.77740341 -0.19225697 1.5060306
0.36991879 -0.15761277 1.5332341
0.44014236 0.045618117 0.65108812
0.38923699 0.023492388 1.5681905
-0.076551177 0.050395302 0.51190233
-0.23257332 0.049307369 0.60693073
0.14119729 0.06905058 0.32293233
-0.18402602 -0.047432385 0.7165364
0.090223856 -0.19367759 1.0639657
0.92394233 -0.12195943 1.5432543
0.47572815 -0.12781945 1.0054361
0.068914779 -0.21877399 1.122918
-0.10076842 0.052416444 0.31391641
0.11082301 -0.23325387 1.1401273
-0.19865572 -0.071320988 0.73710346
-0.076681457 0.059325092 0.29708943
-0.21404432 0.019666705 0.73875988
0.4154022 -0.16737361 1.7367773
0.077858888 0.052412596 0.79229343
0.42769408 -0.018390782 1.6424794
-0.79197741 -0.065605126 1.0300626
0.22388212 0.052909818 0.56373906
-0.071025997 0.063258097 0.26743081
0.48574269 -0.01611853 0.81402683
-0.071932249 0.055948798 0.31698963
0.78579122 -0.15134737 1.4775441
0.18716589 0.062472153 0.36135146
0.47259974 -0.12505609 2.2733309
0.14659221 0.01919172 1.0238837
0.065648884 0.057705589 0.3290756
0.9518919 -0.074300691 1.5043143
-0.21355374 0.038567554 0.3333964
-0.45203173 0.058563892 0.64528954
-0.033830322 -0.19461316 1.1331427
0.38438457 -0.12022996 1.5065869
-0.058795795 0.055261075 0.80048513
-0.19444832 0.04874514 0.6669246
-0.80433965 -0.06820669 1.1781119
-0.12595211 0.051239949 0.32372895
-0.0022065151 -0.24251746 1.1662551
0.82046658 -0.11216503 1.4265786
2.9860203 -0.26479018 4.1187487
0.22081622 0.05647793 0.59401226
0.20012374 0.064161643 0.42069885
0.21731694 0.058383312 0.37219647
-0.19617037 0.021461602 0.81555462
-0.25429466 0.049104109 0.61285341
-0.13569675 0.053733137 0.34053335
0.86183244 -0.11961278 1.5055767
-0.027958523 -0.27365386 1.3189409
0.057767592 -0.23497497 1.1287459
0.22105421 0.056226924 0.59484422
0.23704585 0.053375557 0.71670234
-0.062796742 -0.2424484 1.1212447
0.099752076 -0.25231993 1.146732
-0.18148646 0.015520954 0.76147282
-0.10105019 0.041957416 0.31303349
-0.045836423 0.059280328 0.3322688
0.207647 0.062865712 0.33651742
0.21388008 0.063079052 0.34191564
0.8527478 -0.19085927 1.516951
2.9575047 -0.5389055 4.1473842
0.00076821866 -0.23420633 1.1572428
0.21226972 0.062818296 0.33744654
0.57552224 -0.19034217 1.6693587
0.24573641 0.053188592 0.36268422
-0.20482527 -0.015275381 0.33889976
0.39547929 0.045804143 0.67674518
0.87202227 -0.15719442 1.4780433
0.10073788 -0.23431939 1.265691
-0.14495032 0.050221547 0.26299581
-0.13848868 0.051113989 0.29365948
-0.011956008 0.061887641 0.30659273
0.8455835 -0.19192369 1.5051771
-0.11584373 0.049820367 0.30508551
0.21158235 0.06433025 0.34836146
-0.064212099 -0.24857184 1.1522083
-0.895823 -0.037092019 2.2460122
0.16331337 -0.2207911 1.0857992
0.42890361 0.04596718 0.73771155
0.074781321 0.055905465 0.59870207
-0.95420116 -0.17748424 1.3045142
-0.19555731 -0.025651358 0.36574134
-0.065746687 0.057022188 0.39303467
-0.18075898 0.018285323 1.0784777
-0.9093107 -0.031973384 2.3000128
0.27155095 0.051414054 0.56517875
-0.26126572 0.050825566 0.63411891
0.10502148 0.059021339 0.34188071
-0.21285805 0.018532488 0.74783349
-0.040523116 -0.23120165 1.1385957
-0.082441948 0.062900811 0.37407717
0.03551691 0.059258733 0.30858055
0.21942189 0.055452917 0.58974075
0.30251569 -0.10754548 0.70520175
0.97042078 -0.19899508 1.5359051
-0.49002171 0.058899209 0.6210767
0.025885738 0.055801928 0.58490598
0.071120553 0.058994196 0.32832488
-0.10329049 0.05160908 0.25255826
0.29952574 0.034903821 1.6842504
-0.061044417 0.058702368 0.33985749
0.40826842 -0.068862356 2.1799986
0.26198253 0.054689545 0.39628652
-0.95007676 -0.12124519 2.2941062
-0.11850428 0.051348522 0.32185158
-0.076342508 0.058458399 0.31448141
0.14546435 -0.15762818 0.8809669
0.32366484 -0.20754385 2.0192199
0.30622965 0.051678061 0.4042438
0.98594809 -0.2276244 1.5931832
0.41814503 0.042673778 1.1543597
-0.90066987 -0.031965639 1.9992788
0.99715388 -0.078759603 1.5879103
-0.078367405 0.055379689 0.32297859
0.13076943 0.060898386 0.38284835
-0.51139957 0.061993118 0.65806568
0.23170577 -0.11401379 1.2780243
-0.20419241 0.051955987 0.59755373
-0.19768625 0.048569486 0.67987132
-0.19169302 -0.045899779 0.32475153
0.38771656 0.038397383 1.1258347
-1.1945581 -0.039248087 1.5811226
-0.76256967 -0.15605055 2.3770161
0.44943383 -0.13992301 1.9927621
0.18369469 0.063651875 0.42608634
-0.12778157 0.051392671 0.31436625
0.2222925 0.054863278 0.60121489
0.1049762 0.059547506 0.34442291
0.12815043 0.059550971 0.3744134
-0.070462532 0.055245161 0.31450847
0.95660305 -0.19659969 1.4992869
0.30159318 -0.10693379 0.70253479
-0.88393652 -0.035437632 2.216038
0.068455823 0.060644239 0.35256025
-0.13435398 0.048007552 0.75007272
0.46417803 0.040520519 0.74319613
-0.24276292 0.052728489 0.5412389
0.064971581 0.058010582 0.24417767
0.89436418 -0.16995651 1.528412
0.51456261 0.044492535 0.73173916
-0.23066126 -0.13607101 0.88093841
0.51209342 0.046386883 0.82826304
-0.077827923 0.054110941 0.31644997
-0.095809199 0.054017007 0.26393363
-0.16803165 0.035572823 0.91731632
0.27674687 -0.20063397 0.93805301
-0.19387196 0.018334623 0.81295466
-0.9224112 -0.07412672 1.3672729
2.0631931 -0.3018994 2.9164419
0.18553044 0.061706673 0.35711274
-0.9557327 -0.13662839 2.3118107
-0.095431514 0.053822696 0.26253936
-0.18213981 0.050759032 0.31214097
-0.067041963 0.056875668 0.51004446
0.48228279 0.041368533 0.68044627
-0.099601634 0.050384164 0.48927137
0.20965129 -0.25789657 1.5980588
-0.89085525 -0.036238138 2.2299151
-0.2360159 0.051684443 0.52377093
-0.18490268 0.027645092 1.1144842
-0.059064023 -0.20777498 1.1284108
-0.11526946 0.054081358 0.23599413
0.19847313 0.06345088 0.41640237
0.38824266 -0.016838431 0.67935812
-0.068499401 0.061291821 0.33479378
0.34706244 0.050517946 0.42137054
-0.067205116 0.058075868 0.54881251
0.0047434126 -0.22226344 1.0756241
-0.071874656 0.056029774 0.31657526
0.036531486 0.06178328 0.32963827
0.057241991 0.052752212 0.28278306
-0.067606948 0.06015145 0.3286576
0.82345176 -0.18256608 1.5333799
0.3371591 -0.16621161 0.88666248
0.13110678 0.061893363 0.3409389
0.22498564 0.055637177 0.41468403
0.36434409 -0.16297093 1.4988005
0.92623782 -0.073360831 1.4666183
-0.069688961 0.06126355 0.3829436
0.313898 0.031287454 0.54460299
-0.063570149 -0.20510568 1.1193128
0.96701461 -0.17419212 1.5700878
0.082869597 -0.23577629 1.2118177
-0.88588047 -0.11120357 2.1985455
-0.084741391 0.051533725 0.30149111
-0.22906527 -0.070005961 0.31908455
-0.094722919 0.050007142 0.365459
0.47545421 -0.016983408 0.83186221
-0.13645697 0.050214473 0.28896961
0.89158356 -0.11970426 1.5630014
-0.93983996 -0.033564735 2.3874855
0.1300291 0.060985096 0.36053804
-0.12672339 0.048834465 0.41124973
-0.1988471 -0.0046811095 0.9620074
0.29715961 0.024676025 0.68607533
0.4978849 -0.12420097 1.1186424
0.44140321 -0.011795585 1.5644071
-0.22902282 0.048750866 0.59866178
-0.068782501 0.058555037 0.52820575
-0.28892273 0.051658779 0.42286596
0.81849134 -0.25823143 1.2142503
-0.090452753 0.03993443 0.83880126
0.17914796 -0.28253821 1.3550746
-0.19668786 0.050657421 0.57379806
0.7532739 -0.019893955 2.7081735
-0.4199374 0.051103804 1.1443355
0.43051699 -0.070218235 2.3154526
