# .PCD v0.7 - Point Cloud Data file format
VERSION 0.7
FIELDS x y z
SIZE 4 4 4
TYPE F F F
COUNT 1 1 1
WIDTH 582
HEIGHT 1
VIEWPOINT 0 0 0 1 0 0 0
POINTS 582
DATA ascii
0.97910428 -0.058058932 1.4457834
-0.15456659 -0.18778113 2.7541182
-0.15637535 -0.1867978 2.7576401
-0.21804202 -0.37067112 3.0321486
-0.18670404 -0.37580997 3.1641991
-0.15603578 0.00010036677 1.9001133
0.96193373 -0.26299039 2.7557223
4.5393958 0.80515134 5.9532452
1.1148113 -0.22785261 2.1761229
0.61570227 -0.041325651 1.4208729
-0.11138308 -0.32545942 4.2020731
-0.054226995 -0.14753601 4.0055742
-0.26178998 -0.4073244 2.9997861
-0.81842244 -0.47470942 2.761802
0.1355319 -0.072627559 2.3664849
-0.22492343 -0.36475235 2.8383605
0.91033423 -0.011944383 1.8518817
-0.76951528 -0.44261554 2.7872412
-0.77032387 -0.40207168 2.8409059
-0.87086141 -0.08159475 1.4719298
-0.83968532 -0.2541517 3.0466702
0.15388978 0.052105226 0.58927846
-0.83003616 -0.0063392669 1.3454096
1.51439 -0.054093689 1.8776324
0.68160295 -0.014155418 2.378679
1.5931275 -0.31643406 2.8409178
1.8992238 -0.065179318 2.6677129
0.33559138 -0.0038169473 0.95048547
1.3787038 -0.37156704 2.1122735
1.4962364 -0.054034814 1.8288739
1.7018199 -0.06279631 2.0587904
0.15197134 0.023905318 0.62834191
0.13729626 0.048724037 0.75596023
1.5078099 -0.045859456 1.8555281
2.9018126 -0.14362907 4.6278477
-0.80188429 -0.040336542 1.1337125
-0.94122577 -0.047965065 1.5262983
0.34244114 -0.060139731 0.87264991
0.17318207 -0.16551456 1.0363133
-0.54837 -0.38943458 4.0265532
0.15604287 0.052368347 0.60933948
0.060078084 -0.20663431 1.3848603
0.34408641 -0.067776918 0.88702703
-0.62578261 -0.086016685 2.5781004
1.0967231 -0.02201486 1.6918032
0.19327712 0.039954618 0.64867377
0.71309531 0.032163624 0.9440496
1.0058526 -0.018263675 1.6869228
-0.81696951 -0.07670109 1.3811772
0.30705363 0.029873118 0.47966981
-0.84575784 -0.46021077 2.6746566
0.31799936 0.034199085 0.465451
-0.88427734 -0.39238667 2.5399296
0.40462446 -0.28865018 4.5637016
-0.82473874 -0.35944301 2.642894
-0.78468919 -0.23759302 2.7751138
1.0906935 -0.020658527 1.6838682
0.28806067 -0.083451174 0.94211936
-0.95604026 -0.43305537 2.7127135
4.2902727 -0.16611463 6.1865501
-0.080839992 -0.52117038 4.2430496
1.3238046 -0.31439948 2.109484
1.1452467 -0.075260356 1.8496125
0.0076822042 -0.52173173 3.90641
1.0984845 -0.022209607 1.689038
0.41457307 -0.29712027 4.6890631
-0.85934234 -0.41161427 2.5428927
-0.92952681 -0.41333809 2.7253835
-0.87604868 -0.27933621 2.6657312
-1.1050937 -0.40188634 2.9267414
0.0050294399 -0.52149355 3.9342778
-0.74073672 -0.33830518 4.0304594
1.1700319 -0.021690961 1.665138
-0.85817504 -0.22488439 1.7834408
-0.92600513 -0.35035685 2.709296
-1.4592975 -0.101732 4.1220398
-0.066951394 -0.49500933 3.947572
1.0177158 -0.017296076 1.7079241
-0.74287832 -0.41044876 2.7532289
1.2282988 -0.019609991 1.8072426
-1.1062704 -0.33233654 2.8976471
-0.33213043 -0.39806047 2.9979355
-0.83739078 -0.024587166 1.4173172
0.27705061 -0.021361273 0.79490066
-0.76692021 -0.41658342 3.3279512
0.30631673 -0.095104724 0.98127007
-1.0646532 -0.39823237 2.8088434
-0.77320135 -0.41089913 3.3297389
1.3914821 -0.02238819 1.7570841
0.065458298 -0.2425063 4.1677608
-0.83575773 -0.040306807 1.3527315
1.1595293 -0.080873154 1.6199639
-0.83064091 -0.25385749 2.5652435
0.12683886 0.032351624 0.76850533
-0.78459656 -0.52853525 4.3398371
1.0071288 -0.050040893 1.7162216
-0.65035093 -0.0017737821 2.6497324
1.4609355 -0.044524252 1.7254188
0.37089169 -0.084584326 0.85887265
-0.88183963 -0.36105609 1.7498276
-1.1306568 -0.40390533 3.0038636
-0.81350148 -0.4787977 2.7566497
0.19230592 -0.29460794 3.6490228
-0.20741868 0.05313395 0.29074454
-0.83318782 0.013449274 1.3550737
-0.84690142 -0.28287175 1.7666137
0.13525552 0.022916622 0.64031672
1.025678 -0.22638133 1.6710446
0.36830437 -0.070112407 0.86587358
0.082735658 0.047990315 0.52886939
0.22882813 -0.015790343 1.0084379
-0.73141062 -0.34042352 3.6206949
-0.88541269 -0.36037567 1.7673404
0.36711764 -0.13378498 1.0761411
0.34639579 -0.11951278 0.86928105
-0.82730722 0.014949143 1.3395531
0.30500287 0.029281769 0.47798777
0.31841427 0.034223728 0.46657562
0.33775383 -0.068847887 0.87465739
-0.95073116 -0.1538789 1.5799348
1.5479769 -0.04647468 1.8590114
0.3287943 -0.04702504 0.85280776
0.14907342 0.023730479 0.61829352
-0.78008378 -0.43842402 2.883208
-0.74783158 -0.28775859 3.0809019
-0.82041895 -0.07652308 1.3783991
-0.19462574 0.053967796 0.41236925
0.16155249 0.023824587 0.61070561
-0.82687342 -0.030828118 1.3878963
1.0548567 -0.25494197 1.7340462
-0.1874792 0.052348159 0.44305229
-0.82976949 -0.5538305 4.6151295
0.409715 0.043406527 0.56798053
0.0834108 0.049471598 0.52816129
1.0181204 -0.062564477 1.7110813
-0.83700824 -0.009119153 1.3579185
-0.83674419 -0.040813237 1.3548872
-0.79635537 -0.026742164 1.3355172
-0.89876997 -0.32911173 1.7929404
1.0113876 -0.043526709 1.7016628
1.1411215 -0.020780839 1.6850226
-0.76086688 -0.38892627 2.7556221
-0.81206489 0.0063529685 1.5247672
0.13117814 0.020627819 0.63086629
0.35882533 -0.084766142 0.49469399
-0.51905018 -0.030764304 3.2763741
-0.61434782 -0.2039725 3.6451809
0.72145832 0.032920253 0.96035266
-0.92081213 -0.36119941 2.767276
-0.67229998 -0.29010969 3.7670672
-0.8562572 -0.25841799 1.6382902
-0.92311311 -0.3617782 1.7130611
0.33100939 0.026013829 0.48366952
-0.14843881 0.053868268 0.51058936
-0.71888745 -0.059748754 3.5797341
0.506585 -0.056107953 0.91804147
-0.82648933 -0.18747842 1.6536696
-0.83605099 -0.28067222 1.7435935
-0.85881686 -0.35662064 2.7890656
1.0094868 -0.2762486 2.144037
-0.83800554 -0.15832269 1.5549519
-0.79389131 -0.37122509 4.2224112
0.020076573 0.053282045 0.62580037
-0.8150748 -0.15462409 2.6523216
-0.15503711 0.054494388 0.53043389
-0.91733181 -0.34703103 1.7033956
1.7392452 -0.39002767 2.0588772
-1.187459 -0.46066737 2.9932649
-0.67095816 -0.25704089 3.3402426
-0.64486539 -0.54923964 4.4660311
-0.75095284 -0.37137845 4.2518539
1.0111887 -0.013641555 1.7365191
-0.81036282 -0.028996371 1.3556411
-0.83215272 -0.27680096 1.713342
-0.88953209 -0.46291983 2.7847002
0.96755505 -0.19640461 1.9844763
0.50401235 0.033811171 0.61504531
-0.83751905 -0.25661543 1.689501
-1.1761142 -0.41798517 2.8021929
-0.86482418 -0.25223038 2.6469948
0.087836266 0.052461512 0.5551331
-0.3618663 0.054727152 0.63295197
-0.79782081 -0.022114366 1.346524
0.64243269 -0.13895649 1.2245162
1.1431905 -0.12580857 2.1204484
1.1315141 -0.081344582 1.5760992
-0.24211901 -0.21360737 2.6661341
-0.91853726 -0.36107719 2.7567499
-0.70139992 -0.16408412 2.7740037
-0.23250526 0.044802994 0.84831834
0.42597759 -0.0065180771 1.2079813
-0.42357904 0.037614599 1.8536446
-0.77515924 -0.072314784 1.2751725
-0.36782694 0.057152774 0.53172183
-0.904158 -0.38512638 1.7252467
1.4803933 -0.045704842 1.7454326
0.16984087 0.051170819 0.58412051
-0.82444751 -0.22783038 1.7104375
0.1694352 0.051072098 0.58511329
-0.93629932 -0.33752924 1.6709931
1.5391886 -0.039044403 1.9259284
0.30404919 -0.10338539 1.0015924
0.058487654 -0.15449342 1.0250566
-0.70778942 -0.25129643 2.8991807
1.1388619 -0.019073069 1.6232574
-0.4778145 0.036063999 1.1054838
-0.051036984 0.054659069 0.39620852
-0.78346658 -0.030605815 1.34955
-0.49798489 -0.055818573 1.9503901
-0.64872551 -0.0018066838 2.6330369
1.9769342 -0.094033211 2.2882373
-1.110271 -0.41624644 2.8604338
-0.71361411 -0.37013632 4.1338882
-0.63791645 -0.19093072 3.5672419
0.07604897 0.05539494 0.296175
0.34212643 -0.13522759 0.65841508
-0.84564507 -0.14613497 1.5813148
0.15583605 0.052037615 0.61874557
-0.36452186 0.055531681 0.64204288
0.31594175 -0.0027796775 0.44606924
-0.1949569 0.055178076 0.42182708
1.9591255 -0.091664612 2.2627661
0.1679846 0.05104962 0.58261561
0.17944014 0.020380732 0.61115527
1.1410769 -0.25670862 2.1487596
-0.097121477 0.050125759 0.61851764
-0.73617065 -0.38115373 4.2685862
-0.15177453 0.055419628 0.53663278
-0.85037279 -0.23641741 1.6047056
0.12725496 0.041152604 0.74961114
0.1996848 0.049279079 0.66318917
0.13300115 0.042793598 0.78884959
-0.051187932 0.052740928 0.54225564
0.30701554 0.034411453 0.46654391
-0.52388966 0.018414889 2.1281822
-0.71530056 -0.24523723 1.5488389
-0.88416743 -0.47523919 4.0126963
-0.5186106 -0.13176408 2.9808815
-0.73051989 -0.015963919 3.8808677
-0.54594177 0.023417439 2.3205159
-0.67097974 -0.2708959 3.9063389
-0.51761854 -0.38376233 3.867213
1.4834317 -0.016275682 1.7528679
0.31274039 -0.049183697 0.88758779
1.6295587 -0.15145355 2.2997434
-0.21107543 0.053659074 0.28325558
-0.89555621 -0.034000859 1.4432013
0.075718284 0.055244341 0.29814291
-0.060892999 0.056674637 0.31031466
-0.88862288 -0.54778242 4.6294012
0.25911093 0.034761067 0.52337146
0.33761394 -0.069074184 0.87515283
0.016188264 0.051562354 0.53128839
0.30783588 -0.10527186 0.99323487
-0.92417169 -0.32697615 1.6367409
-0.88005579 -0.26006463 1.5725482
0.075690448 0.055092402 0.30248642
-0.80034912 0.018886201 1.3557923
1.3424172 -0.29892299 2.146529
0.1687659 0.053376265 0.59840035
0.31031376 -0.026152909 0.46633363
-0.83211935 -0.29121619 1.7058084
-0.84483063 -0.23826373 1.6370494
-0.20596617 0.047220193 0.26959062
-0.20687473 0.053044811 0.29010439
0.2637977 0.030717377 0.43293142
-0.52404535 -0.39731365 3.9952881
-0.8788867 -0.24859336 1.7281754
0.36705995 -0.070937783 0.86121583
0.33105868 -0.046356887 0.9562161
-0.11083549 0.054368846 0.53605723
-0.90306616 -0.34212324 1.773782
-0.15885925 0.047331527 0.843261
-0.18604231 0.058184281 0.33699369
-0.74813449 -0.33611998 2.7108681
0.079748273 0.055010047 0.41642237
-0.8326354 -0.26794603 2.6070216
-1.1040262 -0.4341118 2.7848117
-0.23352909 -0.37290597 2.9707062
-0.9327879 -0.2976408 1.6348317
-0.15465569 0.0562388 0.55862069
1.5949767 -0.016524367 1.9420021
-0.9566319 -0.43526736 2.72247
1.7624133 -0.017503161 2.1808717
-0.96788931 -0.30919653 1.7059076
-0.024208248 0.047622368 0.93606877
-0.2457965 -0.3908622 3.1624177
1.0352091 -0.26487288 2.2074277
-0.18628502 0.056433521 0.37695003
-0.72231627 -0.37331286 3.0620596
-0.97671294 -0.30809808 1.6325271
0.14726532 0.058529668 0.32016206
0.3794322 0.026851099 0.82356095
0.31223792 -0.11023702 0.88200068
0.22124791 0.050232954 0.67436719
0.967188 -0.07878264 1.70381
0.11152756 0.039037492 0.39690208
-0.98800647 -0.32770637 1.6856425
-0.050802886 0.055195507 0.40478897
-0.83223605 -0.20615695 1.7444365
0.015192866 0.052778013 0.5456264
1.6389362 -0.037940294 2.1746571
0.53968477 -0.28197581 2.5215156
-0.77852917 -0.034837916 1.0902264
-1.1745225 -0.45995182 2.9695022
0.30785507 -0.1051213 0.99055982
-0.75173032 -0.40892011 2.8115489
-0.025127709 0.044840392 0.84751296
0.13054889 0.01455722 0.73665833
0.19026423 0.018542551 0.64103723
-0.53978825 -0.087972179 3.2425878
-0.23980248 0.055491861 0.31380534
-0.061800241 0.056960151 0.30820084
-0.051355183 0.0524754 0.527951
0.10386389 0.055531185 0.28447056
2.0515866 -0.15136118 2.3893988
-0.14187121 0.048439208 1.0178702
-0.93637061 -0.3002612 1.641094
2.367228 -0.34976777 3.0425889
1.4344987 -0.2519196 1.9389389
-0.41587889 -0.23819742 3.0591123
-0.055900812 0.068106294 1.0893562
1.1560611 -0.078831464 1.6096642
0.08867228 0.053257607 0.55265832
-0.49056381 -0.1236891 0.61489177
0.16265738 -0.14642802 1.037462
-1.0016119 -0.19698216 1.2909658
-0.36503464 0.05658827 0.52887702
0.21178395 0.050361101 0.30390382
0.13248181 0.014051426 0.7438252
0.25981873 0.031125508 0.4207387
0.29653609 0.041751895 0.71235585
0.13187796 0.05410599 0.32892656
-0.81044304 -0.26588318 2.6705325
-0.80198896 -0.37169489 4.2654352
-0.32558835 -0.27775595 2.779217
0.13567418 0.040319607 0.62496352
-0.057756305 0.054973289 0.41121221
-0.15702575 -0.0029048994 1.4923389
-0.95948839 -0.42725265 2.7855556
-0.72570896 0.020887233 1.2235363
-0.4439373 0.024506353 2.2148511
0.31599051 0.034688093 0.46205497
0.11182112 0.049747661 0.86813045
0.32899237 0.017953634 0.47604203
-0.49175614 -0.35894212 3.6293399
-1.0359472 -0.24741462 1.6518447
-0.81312132 -0.078469604 1.3410704
0.076667964 0.055748187 0.297225
0.07922703 0.055000346 0.40857577
0.20317382 0.05270189 0.3556478
0.3076216 0.032414086 0.47931337
0.20946699 0.054639272 0.34288144
-0.94062734 -0.29789081 1.5708134
-0.053689361 0.056871645 0.30363345
0.075919926 0.052498519 0.37941289
-0.49319249 -0.12412858 0.61782908
-0.11806029 0.058326907 0.25898218
0.31039733 -0.03373681 0.46628928
0.32572776 0.032726429 0.46223354
0.33428639 0.026443532 0.48026204
0.311414 -0.053529747 1.0749462
0.0021129251 0.057472676 0.32588434
0.31042105 0.016993394 0.46917963
-0.50001448 -0.054428861 1.4628594
-0.69237185 -0.28654727 4.0474167
-0.1905179 0.054165129 0.46085
-0.18631959 0.058336038 0.33801818
-0.18616927 0.056501158 0.34902859
0.085892141 0.051460072 0.5241158
0.4033432 0.052282892 0.93489671
0.30693293 -0.070006996 0.87950206
-0.20605993 0.051431499 0.35909295
0.12984055 0.020500109 0.61874461
-0.17664361 0.054110669 0.34891915
0.15958202 0.023722012 0.59767985
-0.40304971 0.061728396 0.58474231
0.2342909 0.042887509 0.54430556
0.32956946 -0.047019705 0.96266341
-1.0253495 -0.19144809 1.5689003
-1.0601093 -0.18738613 2.6263053
0.14652961 0.053049482 0.43762755
-0.05384779 0.056734107 0.30344415
-1.1193938 0.0054379851 1.8040659
-0.20120567 0.054427899 0.3002274
0.27033108 -0.020998191 0.84875655
0.16961557 -0.14744805 1.0691078
0.16987884 0.050789904 0.57893395
-0.29115623 -0.43210384 3.0998209
0.29913658 0.041770034 0.7142961
-0.70472181 -0.40099862 2.7910979
-0.59184027 -0.053787731 3.6652663
0.30551767 0.017447345 0.47763252
-1.5428838 0.02755506 3.2815349
1.0885079 -0.33711782 2.2416413
0.34147596 -0.13078611 0.87093043
-0.10990965 0.053918105 0.52509379
-1.0114323 -0.43216825 1.9898098
-0.14229733 0.016658962 1.318877
-1.2085431 -0.11676931 2.9641855
1.1592935 -0.082307816 1.6210153
0.20391917 0.053489283 0.36668372
0.32837069 -0.13303347 0.84464717
0.33708304 0.016943486 0.48903131
-0.1311689 0.035218023 1.0588033
-0.21822083 0.051987197 0.26935315
0.74120963 0.031556334 0.9081161
0.25405425 0.046765536 0.42082381
-0.050872147 0.056641489 0.41999149
-1.0173097 -0.13300914 2.6581419
-0.8856796 -0.2300545 1.6561139
-0.34590209 0.053351585 0.56916261
-0.11498386 0.056827098 0.7229917
-0.20699394 0.053200748 0.28992224
0.22259325 0.048694756 0.44670844
0.19530696 0.053731523 0.49659181
-0.18805796 0.058290079 0.26080203
0.062289655 -0.1597254 1.0892699
-0.17791867 0.054519996 0.43876314
-0.18204665 0.05600151 0.36214733
-0.80880976 -0.48350897 2.7508562
0.92813087 -0.24313781 1.1463878
0.32053065 0.015896704 0.46411085
0.25726938 0.031070458 0.4151597
0.3101117 0.034293763 0.47183824
-1.1859776 -0.11375202 2.9107468
-1.1775011 -0.056729123 1.7573311
0.30779147 -0.085385501 0.46688509
-0.50579214 0.05073195 0.6370728
0.34564191 -0.10973531 0.85668874
0.15824997 0.056456767 0.24849176
-0.45103854 -0.0079331361 2.3877747
1.5556061 -0.023078367 1.986109
-0.51553744 -0.042191371 2.5182335
-0.82344341 0.024582084 1.2468331
-0.22366744 0.051321629 0.35548353
0.079311371 0.055043474 0.4154315
0.46486771 0.033348076 1.0226867
-0.10228658 0.051815368 0.6427114
0.32399505 0.017993383 0.96338725
0.14607418 0.052121483 0.62443137
0.20594364 0.046581164 0.62210298
1.5452354 -0.26846182 2.0152309
-0.10170346 0.050763145 0.49467635
1.0326711 -0.32663244 2.125325
-0.037288189 0.058262087 0.29008651
0.25785017 0.031515695 0.41636777
-0.83987319 -0.26576552 1.3972723
-0.17884254 0.053437456 0.62988162
-1.2097276 -0.057298757 2.9660528
0.75096345 0.032043677 0.92393517
0.33470047 -0.12978657 0.8546226
-0.45231682 0.024359286 2.6949112
0.13798201 0.056445833 0.27568126
-0.33542091 0.052525003 0.47790384
-0.22587287 0.052347634 0.35704494
0.1539681 0.051313847 0.61269784
0.14830309 0.053888295 0.26522803
0.21091706 0.051568769 0.24637914
-1.1692135 -0.074951991 1.8467686
-0.059902787 0.055503089 0.29674053
1.5583934 -0.016717155 1.9783947
0.70615864 0.032542557 0.93719363
0.71559918 0.033847809 0.95013118
-0.20665437 0.053004563 0.28935051
1.2063017 -0.34309432 2.1491911
-0.10087872 0.053268775 0.67751479
-0.11751467 0.051636763 0.64519143
-0.1920796 0.045708299 0.59786248
-0.81877124 -0.04298225 1.365792
0.21196377 0.043786388 0.28748655
0.26808131 0.037602663 0.62750173
0.56469357 -0.29747492 3.5415595
2.1185794 -0.3231948 2.6213338
0.059832931 -0.19731596 1.1452844
0.073867857 0.056530509 0.29952288
-0.18111122 0.050906681 0.42514396
0.30875164 0.013083914 0.4450295
-0.48170632 -0.010120664 2.5737045
0.0016781688 0.058734283 0.33397794
-0.21957731 0.052478518 0.27185512
0.21492827 0.043688264 0.5031774
-0.99815893 -0.21782458 1.7412493
2.0263045 -0.14932559 2.3487041
-0.62853622 0.03057823 2.6302998
0.73113501 0.027326252 0.91764903
-1.0483782 -0.25029576 1.6693485
0.28958106 -0.1352357 0.95943379
0.21254575 0.050504223 0.30582452
-0.22121102 0.051028218 0.34927845
1.935416 -0.12498865 2.5235412
0.34143662 -0.11707044 0.8535111
0.30775267 -0.073183395 0.47350121
1.0075409 -0.27638972 2.1428564
0.12995142 0.038624279 0.59720349
-0.17173034 0.050721362 0.82137179
0.32262373 -0.065001741 0.82600474
0.16541576 0.024661355 0.68083787
1.1907114 -0.33720121 2.1171653
-0.051561534 0.05655086 0.42283416
-0.95720434 -0.33521953 1.6811349
0.61776209 -0.40457767 2.4087493
-0.48732048 -0.37176087 3.7189004
-0.77009821 -0.23409897 2.7215302
0.36318159 -0.070771039 0.9075706
-0.21047091 0.052992061 0.36889219
-0.80717623 -0.28815162 1.6312282
0.17884851 0.05679328 0.25766826
-0.27984756 -0.023786556 0.89343619
0.30135101 -0.074611992 0.89591479
-0.92689919 -0.087582842 1.693404
0.50231099 0.034084618 0.61313272
0.14774632 0.025698908 0.61304402
0.18415242 0.046560429 0.5862391
-0.18674564 0.058713064 0.33877444
0.18051285 0.020124219 0.6114738
-0.91576052 -0.3453376 1.7035453
0.19800884 0.054971702 0.44645929
-1.0031649 -0.16040446 1.2943184
-0.19504583 0.055540077 0.25912786
0.24782258 0.034886949 0.53478551
0.19883275 0.052712262 0.35416245
0.21306783 0.051322918 0.27451444
-0.050213337 0.057318725 0.24019217
3.1659741 -0.46993944 3.9289968
0.22243047 0.042326815 0.29962182
0.44103265 -0.1234545 0.55276465
1.6498185 -0.036888093 1.9921358
0.0032212734 0.057653919 0.32515907
-0.081659555 0.058910005 0.3644588
0.31644732 0.034118846 0.46396279
1.1541384 -0.28559732 1.9533536
-0.091226816 0.059815735 0.32187963
0.068538725 0.05005388 0.2639823
1.6727482 -0.038856864 2.020016
-1.0351351 -0.26416329 2.7557352
0.28864872 0.037552983 0.53604245
-0.20070672 0.052382655 0.32350993
0.44846553 -0.11850452 0.53967023
-0.24548125 0.010047168 0.8340385
-0.55905926 -0.21797001 2.2975156
-0.10070676 0.015021898 0.29304409
-0.057893038 0.055433113 0.4132731
0.35890889 0.031144135 0.89925599
0.30613333 -0.054359004 0.47056794
-0.0378443 0.050619684 0.95797515
-0.70364296 -0.32623526 2.7334549
-0.83609688 -0.14199093 1.22387
0.23468792 0.04294825 0.54856181
0.17425901 0.02368005 0.61001277
0.13646066 0.040479597 0.63215804
-0.19771022 0.053973012 0.29500937
0.4368751 0.031074248 0.82628608
-0.98505044 -0.18711327 1.5871203
-0.79610109 -0.080417365 1.3834956
-0.21111274 0.048035551 0.30212998
-0.26287216 0.012480393 0.89699769
0.014848709 0.055488251 0.56493926
-1.134763 -0.071012869 1.7896001
-0.70534658 -0.39923918 2.7999752
-2.3058352 0.0030840635 3.5278723
-0.19421911 0.054925591 0.25754809
-0.15849203 0.048603822 0.83508039
0.35086232 0.028382983 0.87783074
-0.94055951 -0.15604575 1.8040626
0.31551749 0.025617661 0.48406291
1.0109222 -0.36890411 2.0751755
0.48387706 -0.13647515 0.81208205
1.7326072 -0.38383281 2.0527556
0.15487701 0.018408541 0.6121819
0.23727638 0.041643932 0.3941164
1.170452 -0.23132491 2.0662801
-0.76482892 -0.36665815 1.6217096
-0.27256346 0.071233183 0.40121531
0.21388 0.051506858 0.27614689
0.2124778 0.052675501 0.37765455
-0.025346816 0.030265877 0.35362434
1.1693472 -0.33241573 2.0815022
0.24594629 0.044830497 0.57655978
0.13509214 0.054685161 0.29680181
-0.17547572 0.055154312 0.48664999
0.21957815 0.033697587 0.43434167
