# .PCD v0.7 - Point Cloud Data file format
VERSION 0.7
FIELDS x y z
SIZE 4 4 4
TYPE F F F
COUNT 1 1 1
WIDTH 502
HEIGHT 1
VIEWPOINT 0 0 0 1 0 0 0
POINTS 502
DATA ascii
0.61086911 -0.0040534819 0.81644523
3.1567786 -0.66498029 3.9986508
-0.91638684 -0.0051954305 1.2778559
0.47635531 -0.16526045 0.86867142
0.34358037 -0.15296978 0.99025917
0.51757926 -0.18513538 0.9926126
-1.0002172 -0.091209076 1.358191
-1.2691836 -0.24616382 1.658025
-0.90655637 -0.13421959 1.704663
-0.93643469 -0.0055725658 1.3235683
-0.97612548 -0.097463243 1.3325996
-0.93226951 -0.093961284 1.625036
-0.93005937 -0.095082499 1.6165559
-0.92437762 -0.16240253 1.608463
-1.1652889 -0.14978738 1.4730144
-0.90559942 -0.1365203 1.6924956
0.73728615 -0.052361969 1.5602858
0.80201095 -0.061150979 1.5852833
0.38942415 -0.068802789 2.0541646
0.24142726 -0.17977656 1.3606498
0.54427218 -0.18814158 1.0103326
0.31853282 -0.17620732 1.2094395
-1.4504893 -0.17724551 1.9369278
0.26070818 -0.031417754 2.2927318
0.21742281 -0.18689363 1.2693951
-0.94834065 -0.016168132 1.6642375
0.2370289 0.046708409 0.96097302
-0.21202271 -0.044256311 0.32520843
0.51550812 -0.1560618 0.9457767
-1.0983262 -0.02476177 1.8499942
0.23179433 -0.17357828 1.2929649
0.80747783 -0.051767673 1.9739649
0.4828648 -0.00069221761 2.932554
-0.91382802 0.01961958 1.6774855
0.75355417 -0.055008378 1.5732045
-1.0307653 -0.13154395 1.2695861
0.20673195 0.052557312 0.61633682
-1.2824256 -0.25150114 1.674731
-0.73662668 -0.19307308 1.5451357
-0.70836413 -0.16973552 1.5438311
0.76150393 -0.054086883 1.6016099
0.21980172 -0.18567792 1.2713671
0.14253476 0.055300273 0.6396569
-0.97702527 -0.080863878 1.3290164
-0.077464491 -0.385694 2.098963
-0.22396302 0.0075589768 0.32945955
-0.077486515 -0.3896794 2.1191356
0.31188112 0.065491855 0.39182842
-0.21405914 -0.031431694 0.32593536
0.32931823 0.046634909 0.5610795
0.24483697 -0.17830744 1.2735336
-0.5268392 0.045561887 1.2547812
0.25047463 -0.02543268 2.9643681
-0.22224718 0.043755278 0.32837582
0.53667414 -0.12978233 0.75532782
0.17911942 -0.25420666 1.2149177
0.55140644 -0.03221691 0.87337422
-0.53089666 -0.037401006 1.1609552
-0.65324068 -0.19319542 1.5243104
-0.52952099 0.046031088 1.2600088
-0.94594032 -0.019390937 1.664839
0.2021513 -0.23461339 1.3542907
-0.9068017 -0.2178894 1.5932896
-0.88522488 -0.21464323 1.7732146
2.71979 -0.14158446 4.5707083
0.2005758 0.042080302 1.5072668
-0.25095874 -0.31170002 2.1022258
-0.29310262 -0.20987436 2.0964158
-0.19937313 -0.33065316 2.5260768
-0.73690307 -0.23222493 1.5615058
-0.66315126 -0.16972938 1.5150352
0.14300485 0.055149276 0.63492703
-1.2879947 -0.25026339 1.6149764
-1.2999933 -0.25199342 1.6304202
-0.67499101 -0.23683693 1.4961207
-0.32637846 -0.24499381 1.9029939
-0.85932958 0.044444486 1.5118372
-0.22293708 0.057355091 0.27980804
-0.96409488 -0.01480529 1.6767373
0.063278407 0.056618139 0.53225386
-0.30309916 -0.2072425 2.1097906
0.20995738 0.055336598 0.64126146
-0.91218692 -0.27143276 1.595103
-0.4344756 -0.005181442 2.3003013
-0.22309002 -0.040701244 0.31871879
0.40832558 -0.19111905 2.533031
0.34740773 -0.22981519 2.2309091
-0.062767446 0.055994667 0.4875648
0.24258131 -0.2073123 1.1898313
-0.98257053 -0.071322218 1.3295689
-0.22713086 0.047433335 0.71091688
-1.0278995 -0.27058226 1.8355601
-0.90301669 -0.021224156 1.446877
1.8255296 -0.057552766 2.2537646
-0.17997348 -0.091019474 1.5898995
-0.21053785 -0.22430643 2.2745275
0.50181001 -0.10797247 2.3767767
-0.67793381 -0.29066893 1.5750647
-0.72210068 -0.22830316 1.5346451
-2.7651486 -0.36937535 3.5463655
-0.28183639 -0.37537745 2.1275132
-0.98167574 -0.076558121 1.3311868
0.17441989 -0.25806272 1.2514658
-0.19020884 -0.3007623 2.5429919
-0.22835007 0.04638442 0.71500492
-0.18965542 0.055091109 0.32356274
0.3005991 -0.037243426 0.36367702
0.29667667 -0.045110445 0.37128437
0.35707742 0.043665878 0.98051691
-0.84421229 -0.014236207 1.3278286
0.12922072 0.060142059 0.29644608
-1.3090985 -0.2562741 1.6479757
0.22791238 0.04931752 0.49376142
-0.96909022 -0.09489692 1.3292711
-0.82333517 0.011632869 1.4968247
0.21428983 0.056180332 0.54749572
0.21126534 -0.2535868 1.2439773
-0.11164364 0.05822384 0.77735662
0.45035368 -0.17244591 1.9665184
-0.17266923 0.059030123 0.79661894
0.3453716 -0.15220834 1.7586634
-0.22595021 -0.040281646 0.32782757
-0.28609633 -0.37948161 2.1502242
0.67171073 -0.012691022 1.4225698
0.39999998 -0.11662623 4.1099882
-0.067979053 0.058902506 0.78776252
-0.27820998 -0.27751115 1.8079453
-0.16321346 -0.32758549 2.6717284
-0.24368247 -0.25808793 2.0142097
0.47686368 -0.19898999 4.3711596
-0.19131833 0.047768947 0.33566451
-0.74413192 -0.19363043 1.5695233
0.35120314 -0.1775261 1.8672566
-0.2220614 0.05250632 0.32006884
-0.22257391 0.053253349 0.32069099
-0.22234491 -0.057645243 0.32393861
-0.19479619 0.052242298 0.33165967
-1.285858 -0.25372434 1.6196504
-1.3513837 -0.26742417 1.7672095
0.23581252 -0.0090953177 1.5690327
-0.19710356 0.053443663 0.44296432
0.76736736 -0.050510384 1.6142077
-0.72795296 -0.234938 1.5659683
-0.17773513 0.051016483 0.91165185
-0.25120953 -0.30380744 2.0561793
-0.22234005 0.04433661 0.32823145
-0.98352313 -0.073107317 1.331389
0.31016517 0.016087187 0.96324992
-0.21601811 0.0377266 0.32491136
-0.51960152 0.061384242 1.0010068
0.37386847 -0.18490115 0.99452066
0.34426889 -0.031061389 3.2044046
-0.88289821 0.016463442 1.6506383
0.82325387 -0.033692442 1.067507
-0.49163896 0.004418443 1.4941947
-0.29349917 -0.20663919 2.0690973
0.22393391 0.050318509 0.94054079
0.44714454 0.015975066 2.0033078
-0.95981777 0.062990159 1.2158935
-0.99338388 -0.022006974 1.9112766
-0.197092 0.030357711 0.32661402
0.67389309 -0.011929343 1.4266219
-0.34212327 -0.44554758 2.2539508
0.12607528 0.059009895 0.28310525
-0.18110108 0.050129574 0.72068179
-0.22262001 -0.05644222 0.33042967
-0.92824554 -0.097625263 1.6070256
0.30589509 0.0088037904 0.36753261
0.064071372 0.057305794 0.54025865
-0.22622138 -0.3521342 2.1644156
-0.35721332 -0.28852639 1.5105057
-0.1536015 0.059677344 0.45555711
-0.91374999 -0.17941029 1.7570574
-0.25623557 -0.20042264 2.0354571
0.29923701 -0.0047629168 0.36509824
0.43658191 -0.18429814 2.2669294
0.30139685 0.0068136449 0.36374199
-0.42236358 -0.25789228 2.0906839
0.5521602 0.061572369 1.2106609
-0.24458137 -0.23640244 1.697489
-0.32684278 -0.35253927 1.6093783
-0.24473774 -0.38386136 2.0241745
-0.28884453 -0.3796367 2.1526139
0.24610789 -0.1772543 1.2738538
0.22040157 -0.1953855 1.1011152
0.45170051 0.042260513 0.8391484
-0.96440589 0.0077493181 1.3177297
-0.20509425 0.046142589 0.33144045
-0.1269629 0.058498874 0.49893427
-0.94418895 -0.22792114 1.6670988
-0.31774712 -0.27432716 1.5027814
-0.22983584 0.036384184 0.33651495
0.40930539 0.041672923 0.64555478
-0.9265877 -0.1347499 1.7602279
-0.23688915 0.023009226 0.7059406
0.58639878 -0.088671319 0.77665699
0.30025384 -0.0060881404 0.36745751
-0.91656101 -0.21550688 1.6788716
-0.94250607 -0.020265367 1.6628687
-0.92216766 -0.009377501 1.677808
-0.99699855 -0.0045198677 1.2288108
-0.15323181 0.059524912 0.45654523
-0.14283174 0.049634334 0.64797878
-0.99339616 0.069654331 1.3086412
0.32160318 -0.11909462 0.80895531
-0.22813904 0.037216663 0.32955801
-0.14660275 0.06056964 0.36603558
-0.18719742 0.053866677 0.44422007
-0.14670199 0.060442526 0.36905086
-0.16824633 0.05772746 0.75777364
0.11875001 0.059800092 0.29263711
0.61561805 -0.148054 0.70954919
0.40573481 0.04072025 0.63913155
0.3573589 0.039242685 0.53603637
-0.21161956 -0.04734306 0.33105636
-0.23530793 0.028110694 0.76362169
0.44319129 0.04117002 0.81524444
-0.19777215 0.055314712 0.30707502
0.30798891 -0.06712734 0.37409127
-1.0824485 -0.13510743 1.3317249
0.45043388 0.043086305 0.83643472
-0.2422204 0.049836908 0.59637034
-0.071467251 0.058000501 0.4282825
0.29934192 -0.0055481335 0.36557305
0.38198692 -0.14614715 1.213697
-0.33150208 0.050232057 1.3893139
-1.292069 -0.029238611 2.0825074
0.30594492 -0.14076386 0.93545198
-1.2293643 -0.2651442 1.6589744
0.34478647 -0.18410918 1.0594471
-0.28919056 -0.26856333 1.5177565
-1.0151601 0.029593956 1.8356888
-0.25078845 0.03164351 0.8473953
-0.31951338 -0.27410308 1.5041125
-0.2200675 0.0431014 0.32398999
0.23032071 0.052314643 0.98621726
0.35796553 -0.19138657 1.110182
0.42056361 -0.0636926 2.5220456
-0.10066016 0.054114338 0.62951922
0.46653798 -0.15040983 2.2772181
0.0018057413 0.053274941 0.64968348
0.0021029972 0.053165384 0.64656031
0.35514438 -0.13302332 1.2063317
-0.22658414 0.023197919 0.33027053
-0.2483159 -0.26426193 2.0698206
-0.28872633 -0.26676151 1.5037014
-0.41360641 -0.18140109 2.2022765
-0.88869661 -0.034854479 1.5855207
0.6818819 -0.053486984 1.4499648
-0.26780725 -0.25610936 1.9754024
-0.29157338 -0.22114401 1.7869868
-0.42293173 -0.18474613 2.2533364
-0.05097184 0.049225569 0.77357519
-0.82133687 0.053548854 1.4082398
0.55316573 -0.22870505 5.2092047
-0.16089238 -0.29310301 2.8401761
-0.18982743 -0.2785449 2.719425
-0.41284585 -0.00093249325 3.0511229
0.93046081 -0.054668043 1.7075098
0.55030566 -0.42189318 5.5695553
-0.21832106 -0.36882719 2.8188131
0.19745515 0.055842452 0.51613343
0.12760861 0.059105232 0.28272307
0.38489789 0.045285672 0.58912563
0.44161016 0.044253733 0.51803303
0.057768326 0.062107529 0.32594299
-0.4422124 0.0427627 1.9013536
-0.2319504 0.046413053 0.68832231
0.21546759 0.052059785 0.4989512
-0.29256532 -0.22159831 2.4711857
-0.27832797 -0.33282983 2.9034274
-0.22030896 0.044416934 0.32377648
-0.2131941 -0.041240189 0.32558393
-0.60005039 -0.17682013 1.4750979
0.1535629 0.057839639 0.4337666
-1.1583276 -0.14517747 1.4812582
-0.25418636 -0.31962511 1.9649122
-0.063657433 0.057120074 0.5150218
-0.18266717 0.050968021 0.7306931
0.77275163 -0.073787026 1.4124272
-0.15366119 0.05699693 0.38394201
-0.18466468 0.053190626 0.43741333
0.35479698 0.010378595 0.99062634
0.30393401 0.026555507 0.36396229
0.37038147 0.024857093 1.2415876
-0.22589391 0.046485901 0.32321608
-0.18430968 0.053267155 0.34570384
-0.14837466 0.05789433 0.28649437
-0.059888903 0.055748496 0.74086308
-0.13096899 0.060969159 0.51866865
-0.34388706 -0.2882652 1.4850862
0.20714799 0.058596496 0.39639235
0.22179097 0.053438757 0.35232139
0.18908332 0.042344522 0.76863754
0.30726266 0.026763774 0.36949372
-0.1337218 -0.22580598 2.5255532
-0.17033258 0.057873961 0.76806176
-0.20528519 0.037950121 0.33530807
0.20883459 -0.019875031 2.3194971
0.38084978 -0.19640481 1.7293148
-0.25160357 -0.38486171 2.2329516
0.39637497 -0.20634842 1.1050501
0.15102381 0.060760107 0.33580947
-0.32085353 -0.27533847 1.5062249
0.0029361434 0.050931107 0.62380672
0.36925274 -0.17172948 1.8816707
-0.62707043 -0.14097214 1.4879673
-0.33786929 -0.23441559 1.4695187
-0.33032581 -0.22704943 1.4252779
-0.23642004 0.04390448 0.74474299
0.44044316 0.044393055 0.70283723
-0.056676034 0.055751368 0.92993164
-0.21036103 -0.07314115 0.34706604
-0.076619238 0.062060434 0.46375155
0.29811522 -0.027125929 3.208709
1.5087454 0.16121422 1.9780471
0.29905665 -0.0044473587 0.36462283
0.057111558 0.061108395 0.31840122
-0.41822141 -0.18636163 1.7438097
-0.20982073 0.047887191 0.33151138
-0.20772018 0.046915743 0.32644212
-0.067832828 0.059369277 0.27795672
0.16453271 0.064354889 0.49636197
-0.50120497 -0.063425429 2.9353912
0.06035139 0.062291346 0.28072178
-0.64913356 -0.19063377 1.5013559
0.34394026 0.04099787 0.93759179
-0.17520276 0.05422749 0.3633225
-0.1369819 0.060896594 0.28241539
-0.99753201 0.010812307 1.3714046
-0.20579514 0.046526298 0.33419096
-0.11345869 0.058574855 0.82681167
-0.18449721 0.054857712 0.32953715
-0.11733744 0.063457683 0.3460499
-0.24053034 -0.29782659 2.0442851
0.19820191 -0.22055258 1.2451906
-0.35131824 -0.16191466 3.1060283
0.019700278 0.025065314 1.5931668
0.57245004 -0.23429222 5.3742056
-0.6848107 0.065817863 0.88991618
-0.21988049 0.051478948 0.31640756
-0.4553045 0.011943038 2.2836573
-1.0950056 -0.13363869 1.4181452
-0.17317417 -0.27168608 2.67716
0.46187949 -0.038901258 0.69639528
-0.19557986 0.04895946 0.34512639
-0.19524863 0.052702621 0.33286405
-0.16181228 0.054279335 0.50547802
-0.24694836 -0.40552858 2.7730627
0.36859286 0.0028821416 1.2938495
-0.068959042 0.060162704 0.27955723
-0.16268627 0.056305885 0.46499693
0.63962948 -0.059997763 1.4254801
-0.39859939 0.0595253 1.006053
-0.16634241 0.049086794 1.4029412
0.091350332 0.059949782 0.2955389
-0.55284792 0.046661627 1.4145238
-0.29122445 -0.22214085 2.4507143
-0.22194654 -0.068723477 0.35491717
0.3373726 0.048662741 0.57753444
0.63703012 -0.28022689 4.7938995
0.36016437 -0.22208555 1.9019642
-0.14949776 0.055961959 0.37150335
-1.0016649 -0.091235779 1.3587425
-1.2415906 -0.24244058 1.6297014
-0.28422508 -0.38964942 1.7986014
-0.12718013 0.037233204 1.4654326
1.0002233 0.10575986 2.2306666
-0.22837546 0.046802912 0.32953632
-0.79165113 -0.014692766 1.165585
-0.21524484 -0.068081141 0.34042132
0.37106615 0.041602943 0.75769234
0.20809899 0.058232985 0.39893627
-0.63460243 -0.14182243 1.5077834
0.55934948 0.033742789 1.1981022
0.29759598 0.035349756 0.80228257
-0.33214504 0.029897101 2.3689997
-0.82918143 0.047523659 1.3097377
-0.22449771 -0.20937465 2.2489998
-0.22410589 -0.070144191 0.32116485
0.063015178 0.056336958 0.52936852
0.24127324 0.051619593 0.52526546
0.060725141 0.057444621 0.42629099
-0.45613283 0.040143225 1.1659141
-0.22117883 -0.058131162 0.3214457
-0.18119633 0.054162908 0.32268107
-0.53815812 0.046165705 1.2949224
0.26268566 0.051668856 1.0923278
0.33619058 0.04820649 0.57509708
0.13253321 0.057013132 0.56565988
0.46297562 -0.16903248 1.0336156
-0.20975327 -0.064336352 0.33252621
0.21822798 0.054139424 0.55559528
-0.19067873 -0.30456969 1.4199269
-0.11120145 0.053968083 0.39415383
0.29937243 -0.04383852 0.36510587
-0.075271547 -0.39380053 2.145668
-0.15290883 0.053770736 0.43329918
-0.55578852 0.046636257 1.6015515
-0.14502472 0.061702125 0.27055931
-0.21941108 0.054509506 0.32060659
-0.43398511 0.021991335 2.1672919
-0.20681912 0.03092261 0.3315649
-0.21648446 0.016814988 0.3315922
0.088780627 0.053124715 0.95992708
-0.18430865 0.053546883 0.34543562
-0.41376129 0.015007144 1.9165566
-0.64253873 -0.27297807 1.4662566
0.43820316 0.050102968 0.66390646
0.12863036 0.05968494 0.28819883
-0.64158088 -0.14245349 1.523088
0.60388589 -0.040480267 1.2866976
-0.91802508 -0.17845662 1.766748
-0.22648439 -0.26063505 2.4748664
0.6825121 -0.062595837 0.88738799
-0.17258997 0.054173354 0.32963026
-0.57200527 -0.059104364 1.3773932
0.49475199 -0.13573377 1.3563504
-0.61705512 -0.18284194 1.5240653
-0.2249487 -0.041738179 0.34519184
0.21886578 0.053102326 0.34935534
0.68241066 -0.018096142 1.2296832
0.092032284 0.06046962 0.29761732
-0.094802722 0.063050911 0.31657457
0.21259251 -0.2602452 1.2944009
0.49415308 -0.18815446 1.2551761
0.32062536 0.035754297 0.69875968
-0.52068061 0.0444934 1.2307801
0.22118108 -0.19759387 1.1187837
0.23280564 0.057628449 0.59792972
-0.18225217 0.051443569 0.72891283
-0.071872473 0.062801719 0.28994989
-0.15956661 0.055967409 0.37907696
-0.5736621 0.053694762 1.1660347
-0.22230822 -0.069794744 0.31793642
-0.20640744 -0.063449748 0.3257829
0.020822685 0.06054635 0.31239676
-0.30245051 -0.25507876 1.4947035
0.29875943 -0.037513655 0.36407125
-0.18339622 0.054073352 0.29374897
0.010763038 0.052940469 0.80297148
-0.1826953 0.052800488 0.34099543
0.30473274 0.0076748203 0.3680166
-0.50407076 0.057535704 1.0989201
0.33861977 0.048255976 0.57995248
0.36351234 0.018053578 1.1823237
0.58653849 0.031460598 1.2305348
-0.75655389 -0.23153803 1.5992672
-0.20797813 0.023537634 0.34753656
-1.1538254 -0.27772585 1.5309947
0.35302615 0.042415515 0.96028471
-0.49424314 -0.18908621 1.3425298
-0.59122872 -0.05017202 1.3238993
-0.63304406 -0.31752411 1.4491332
-0.22970137 0.049255073 0.72342801
-0.21256289 -0.014722186 0.32591045
-0.73886138 -0.0077384403 1.033498
0.42497757 -0.16738716 1.2600513
0.40188757 -0.089228451 1.4356863
0.75619256 -0.085319825 1.3449142
0.31467074 0.044767853 0.53062975
-0.16830666 0.056705654 0.31496835
-0.61773616 -0.3186408 1.4950321
0.20901622 0.057120036 0.43692958
0.13993464 0.057901885 0.58476186
-0.06497404 0.059016328 0.54371727
0.49246672 -0.19007194 2.1630242
-0.18455467 0.053100836 0.66992116
-0.14567573 0.057280157 0.27973998
0.40133241 -0.0009863833 2.3632121
-0.9668138 -0.30357993 1.9586861
-0.17038402 0.057141617 0.37113631
-0.66938752 -0.28729716 1.5461714
0.63548255 -0.088112526 1.5082202
0.24873622 0.053093959 0.3184309
-0.41608733 -0.04130071 2.8486044
0.020018253 0.059620097 0.30632532
-0.2300266 0.045131303 0.73935759
-0.047738817 0.062186703 0.27977371
0.3316108 0.043258321 0.55421495
-0.60020185 -0.16412666 1.5032048
-0.1544643 0.057613574 0.38437784
0.016504828 -0.39903489 2.1364334
0.47133267 -0.1979288 1.3500316
-0.21232876 0.015797433 0.32189393
-0.11649737 0.060610715 0.82779479
0.29803631 -0.036617182 0.3610121
-0.2135575 -0.042054933 0.32617033
0.26218981 -0.18999392 1.3616354
-0.21431735 -0.031998605 0.32738435
0.23427688 0.050911862 0.50933671
-0.16193166 0.054428581 0.34803188
-0.20723045 -0.04483426 0.31976569
0.28384906 -0.23005807 1.8502653
-0.19398341 0.056401301 0.33218253
-0.19739339 0.049463112 0.3492471
-0.18195951 0.053132482 0.95088339
0.48153013 -0.089664176 0.82267368
-1.160383 -0.25007153 1.5053642
-0.17543101 0.057083342 0.30505204
-0.5898602 0.048966888 1.532629
-0.1892111 0.060068153 0.29721248
