# .PCD v0.7 - Point Cloud Data file format
VERSION 0.7
FIELDS x y z
SIZE 4 4 4
TYPE F F F
COUNT 1 1 1
WIDTH 566
HEIGHT 1
VIEWPOINT 0 0 0 1 0 0 0
POINTS 566
DATA ascii
2.3551133 -0.088407241 3.6246297
1.4546192 -0.08240658 2.3039706
1.9420624 -0.099636219 3.5742252
-0.28761029 -0.2779423 1.4205954
0.29508078 -0.19300568 3.88958
-0.2734392 -0.33011842 1.5637858
0.30180293 -0.1968755 4.0403318
-0.27246785 -0.23856352 1.3195949
0.28052717 -0.38443863 4.4073362
-0.29271877 -0.25109744 1.524322
0.29057035 -0.15174966 0.80137229
0.1731894 -0.0097856689 2.6729529
0.31076056 -0.20035137 4.1703787
-0.51641744 0.026078613 1.0762243
-0.51685548 0.032340638 1.07739
-0.30148995 -0.22604783 1.2051771
0.41020173 -0.18250899 2.4834559
-0.2085835 -0.18982951 1.3342757
0.30192399 -0.17978425 4.0279198
-0.38834929 0.062769949 0.49626207
-0.55682576 0.029320125 0.83349586
-0.55898201 -0.1086436 1.1178994
-0.55956036 0.028996022 1.1021361
-0.55775237 -0.10690266 1.1139169
0.88231999 -0.059977196 1.7240548
-0.45264095 -0.19349279 0.94984818
0.75453752 0.02380822 1.133523
-0.81356913 -0.083846644 1.6557114
-0.19207138 0.054159656 0.56678581
-0.45132512 -0.17060485 1.7306159
-0.30032215 -0.19022596 1.1208243
-0.556261 0.016022071 0.93310642
-0.56724072 -0.0020419154 2.9661982
-0.38072744 -0.17980219 0.97494793
0.97844189 -0.033795983 3.1365535
-0.46393126 -0.14863902 0.96516585
-0.59064335 0.0097018518 0.74598479
0.37237734 -0.15424378 0.92826724
-0.29958758 -0.22501577 1.4125893
-0.54358983 -0.21246648 1.0645432
0.21122402 -0.016041132 3.7008407
0.27155852 -0.32356703 4.4293804
0.31950271 -0.27126196 1.6549911
0.11116619 -0.0035908837 2.0804026
0.48629928 -0.19885796 2.3163588
0.40984234 0.037559338 0.97819257
-0.57225722 0.031034339 0.73848534
-0.30738723 -0.27059886 1.5455236
-0.29343718 -0.23227052 1.5476675
-0.25328034 -0.2029772 1.8238802
-0.19030264 0.054933928 0.57062745
-0.54734761 0.015709884 1.1282012
0.31919178 -0.21616265 1.4336214
-0.56566584 0.026339158 0.85442853
1.1249444 -0.032517299 3.105293
0.46299928 -0.14377452 1.3856506
-0.84678918 -0.071296029 1.4821422
-0.56068403 -0.11004237 1.1209667
0.98395818 -0.14121924 1.4378824
0.50024861 -0.17935041 2.0744936
0.50298005 -0.015636345 2.0112846
-0.51166385 0.019478397 1.051065
-0.19772488 0.06052845 0.46354628
-0.11548122 0.060857721 0.42655039
0.31198493 -0.21744713 1.1763697
-0.24282384 -0.17020881 1.4899726
0.13348418 -0.41038895 4.4104118
0.37018868 -0.15467024 0.92241716
0.88553441 -0.061844289 2.5607955
0.29245028 -0.14039503 0.821172
-0.39922661 -0.16459945 1.3546441
0.46153885 -0.14165029 1.5181866
-0.4295063 0.044413209 1.4448595
-0.57298136 -0.16068269 1.1807594
0.52629006 -0.1190865 1.9197247
-0.32538968 -0.30377591 1.5924456
0.13277555 0.048882402 0.36992741
-0.14597777 0.041631173 1.0512702
0.52005738 -0.334043 5.4284916
-0.32469773 -0.20014806 1.1552007
-0.062947981 0.061802953 0.3351891
-0.44093394 0.043541513 1.3562093
-0.48276907 0.046210535 1.0373936
0.15244293 0.057831109 0.50990915
0.26197109 0.043082368 1.507551
-0.048361845 0.060659796 0.58611608
0.31320998 -0.24985789 1.6595478
0.22940934 0.05433853 0.3813498
-0.4940986 -0.1093035 1.0826342
-0.52066422 0.036103334 1.0889404
-0.50724977 -0.1287998 1.0537553
-0.32843903 -0.16150548 1.5197179
0.56989938 -0.16069843 5.4204702
0.23715377 -0.42775607 4.4588089
0.23175067 -0.43037331 4.4237728
0.23043895 0.054984771 0.38432789
-0.19697994 0.051989824 0.57003236
0.23899481 0.054530971 0.61792302
-0.48651946 -0.10791517 1.063271
-0.67774814 -0.043856196 2.00682
0.23787105 0.054701053 0.61387801
0.96705246 -0.28990638 2.3385279
0.90670687 -0.26468733 2.1353467
-0.46759695 -0.16705601 1.0143745
0.73432952 0.032756988 1.4800491
0.17262736 0.058137707 0.45511079
1.4451153 -0.18241669 3.8008263
-0.48850864 -0.10693803 1.068923
0.012169547 0.05814337 0.40260077
-0.3234672 -0.21047591 1.0084021
0.1459229 0.057413243 0.37580562
-0.38691318 0.062882245 0.49564767
1.1095369 -0.033082396 3.0626991
0.34128398 -0.27536532 1.7361875
-0.2092346 0.054411605 0.39061332
-0.55670154 -0.10602951 1.1113827
0.090757318 -0.027621495 0.89801788
0.7528519 -0.16322817 2.0707901
0.9738602 -0.047697358 2.4365547
-0.3326329 -0.18480605 0.9651022
-0.096289806 -0.21794249 2.7978885
0.17678955 0.059446849 0.46762824
-0.67950892 0.03197936 2.2195523
0.14896435 -0.029900936 1.6840038
-0.3283439 -0.45539075 3.8733695
-0.86501491 -0.17027991 1.2538106
0.22719014 0.058115192 0.47993493
0.23443946 0.053711817 0.42139983
0.73186225 0.034258854 1.467344
-0.32590663 -0.21453567 1.0241265
-0.53544599 -0.15181625 1.0811825
0.167788 0.057651833 0.44213748
0.46104804 -0.1524557 1.0832906
-0.43705606 -0.20613177 1.0184212
-0.20209602 0.058217645 0.36721611
0.60077667 -0.066882029 2.3132665
-0.59083933 -0.036815554 1.7448926
0.4225446 -0.1848544 2.1803081
-0.049041815 0.05846332 0.40006733
-0.12397736 0.060052745 0.55434704
1.2041216 -0.022269109 2.941088
0.32505536 -0.25834578 2.6187079
1.2365048 -0.15345427 3.6297328
1.0457535 -0.32266364 2.5876772
0.5174194 -0.08162415 3.4759781
-0.12674782 0.04346697 1.1289854
-0.20876893 0.054593235 0.38990951
0.55029655 0.037721194 0.85550499
-0.21016026 0.054620564 0.39315867
0.1554918 0.059056178 0.39114022
-0.55381078 -0.19537228 1.0779603
-0.18963444 0.059862942 0.47245955
0.61151731 0.040681008 0.98508477
-0.86624724 -0.1671095 1.184314
-0.55334651 -0.19651574 1.0828223
0.33175102 0.038591765 0.84176064
0.71360922 -0.016078232 1.2665875
-0.065081336 0.06243784 0.33400726
0.73152584 0.031450544 1.4802668
1.4208235 -0.33645752 3.1474717
0.028371252 0.058283664 0.53609347
-0.099819385 0.057993472 0.52222824
-0.35877696 -0.22590688 1.684726
0.37166297 0.035908401 0.91258478
0.23174155 -0.35401121 3.8775532
-0.7686823 -0.069114298 2.5708172
-0.28442433 -0.42014709 4.2298946
-0.26994276 -0.33171234 1.5582926
0.20580932 -0.022373794 0.50102711
0.080051936 0.059680186 0.3065536
0.25839117 0.046212703 0.42063546
0.67141277 0.024771014 0.91864967
0.36361444 0.046214905 0.50711465
-0.19271624 0.06132827 0.38502836
-0.11553686 0.061311319 0.41317534
-0.50779957 0.047714911 0.89606547
-0.19704777 0.055940323 0.43423367
0.43087018 0.042899281 0.6087606
0.44283065 -0.18681251 1.0320237
0.65842921 0.029489394 1.0120094
-0.55313081 -0.20359485 1.1089613
-0.44625694 -0.14066029 1.0147381
0.613361 -0.036104687 1.0312805
-0.11952411 0.058559313 0.52530766
-0.11495974 0.061107419 0.42004323
-0.58321291 -0.18367778 1.7450109
0.29197872 -0.30926746 1.521229
0.15079382 -0.015726456 0.67806578
-0.48434997 0.02469944 1.4807918
0.33900762 0.0073274691 1.9310901
-0.66067296 -0.042015634 1.9671562
-0.034438275 0.054950416 0.59725213
-0.47841871 0.024732094 1.468034
1.5363104 -0.23230354 3.5426915
1.540127 -0.25043473 3.3080852
-0.82099521 -0.17342502 1.5372577
0.32842243 -0.29010403 1.7321327
1.4420055 -0.32396385 3.7779
-0.88649279 -0.17427513 1.1464391
-0.35249832 -0.19767784 0.9853816
-0.22269577 -0.34296325 2.9527571
1.2046432 -0.076520629 2.2945368
-0.92228812 -0.082249396 1.3728387
-0.89871389 -0.077788956 1.3136818
-0.58659047 0.0087811407 0.74274874
-0.1063851 0.060704187 0.40053821
-0.11383448 0.060271755 0.39781141
-0.82627064 -0.17245018 1.4727943
0.78707057 -0.15341482 0.98113203
0.23608324 0.054335743 0.60562825
0.6803028 0.0050511844 0.82758832
0.36364633 0.048756622 0.44791865
0.43444356 0.043596521 0.61543965
0.43736574 -0.18598789 1.0184164
-0.19015032 0.056011446 0.58282328
0.17656043 0.059124388 0.46178055
0.23216316 0.056413218 0.55610037
-0.59346801 0.014186911 0.73526931
-0.45508796 -0.16347693 0.98070097
1.069422 -0.25910577 1.7247584
-0.54783314 -0.19205719 1.0391564
0.47339007 -0.1965134 1.1147113
1.0152229 -0.25206527 1.6328895
0.5800814 -0.16433278 1.0422287
-0.50450456 0.022579217 1.2237532
1.2406392 -0.23152548 1.9563096
-0.038198255 0.061474271 0.34968662
1.1112897 -0.28243428 1.8611081
0.15581778 0.060811609 0.33936477
-0.51779485 -0.13380064 1.0897608
-0.55984706 -0.20710045 1.1338181
-0.037979834 0.0611865 0.34673715
-0.51833528 -0.19145505 1.0290139
1.1151122 -0.28436992 1.8670862
0.078882195 0.058997542 0.30455041
0.081315227 0.061133079 0.32364011
-0.90105158 -0.083381973 1.4783366
-0.063745491 0.060838714 0.31787038
-0.34334213 -0.16993625 1.2405436
0.91209221 -0.038434818 1.7283952
0.31636101 0.039531752 0.82981133
-0.53912944 -0.13982584 1.7719107
0.43106669 0.003631942 1.4003644
-0.36147752 -0.23033108 1.6824877
0.28627372 -0.23797952 1.7326794
-0.030635066 0.055609465 0.62796736
-0.52016479 -0.13432612 1.09217
1.1018338 -0.18301693 1.9252031
-0.55453104 -0.13523814 1.0993681
-0.85091037 -0.18689464 1.3167052
0.51953745 -0.17601751 1.7910466
-0.50417644 0.01313838 1.0879827
0.26178429 -0.20494436 1.5968544
0.29839021 -0.23461021 1.8553946
0.41602415 -0.1724682 1.9776742
0.26177293 0.046888821 0.94943118
0.39678228 0.046420313 0.55777383
-0.50639164 0.017591903 1.1179838
0.30266455 -0.15482111 0.8321836
-0.19399041 0.06070447 0.32088709
-0.51846308 0.029287551 0.6498661
-0.54698235 0.028621318 1.0701661
0.400812 0.046862923 0.56673932
-0.55878723 -0.20187195 0.98843575
-0.89883929 -0.17583527 1.1640787
0.67279911 0.0068662893 0.87452054
-0.49091178 -0.16102453 0.75892448
-0.59741026 -0.19944769 1.005749
0.41756403 -0.16870071 0.81606197
0.15668368 0.057335623 0.5294733
-0.5528 -0.19920158 0.97474408
-0.44256061 -0.1384594 1.0059695
-0.055805854 0.06100902 0.3155365
-0.56014055 0.015828358 0.94642687
-0.11907157 0.05839657 0.52012563
0.66550142 0.028266823 0.86646032
-0.45197099 0.044136878 1.3953738
0.63080454 -0.21540892 1.4995041
0.44715869 0.014100345 1.4558761
1.1393423 -0.17603655 1.7134955
-0.11373871 0.060116678 0.39951992
0.011711396 0.058304474 0.40084147
0.010756217 0.059646152 0.40510702
0.30836439 -0.13511615 0.82282162
0.27260563 0.049991697 0.98830462
1.291508 -0.19549884 1.94678
-0.10497683 0.060144924 0.53706598
-0.18407238 0.056450836 0.46175814
1.2758269 -0.23691069 2.0239832
-0.31022072 -0.35188553 1.5934401
0.39364421 0.038629141 0.96628714
0.029455133 0.058500186 0.52963233
1.0995761 -0.18676899 1.7854159
0.4947632 -0.12103686 1.8714006
0.61868495 0.032902241 0.75069356
0.31502998 -0.24239089 1.9685652
-0.70097381 -0.017912673 2.2346776
-0.31322068 -0.20168057 1.1403799
0.39510432 -0.048629202 1.3889809
-0.30412111 -0.31725723 1.52197
-0.54802322 -0.18292192 0.90722966
0.37627691 -0.17387626 2.0250933
1.4391718 -0.27551273 3.1667101
0.30986959 -0.19068016 2.1051452
-0.72156048 -0.018347992 2.3080971
-0.7886551 -0.068454392 2.6575673
0.31970924 -0.14993776 1.6968877
-0.83077794 -0.17291406 1.4068468
0.35874361 -0.30038723 1.8796546
-0.58014101 0.036893286 0.74298453
0.14291674 0.055948891 0.30037975
0.15276402 0.058031358 0.37968636
1.1140841 -0.29360577 1.7394977
0.17773342 0.059589967 0.46438766
-0.46778256 -0.21260029 0.93339801
0.20172498 0.059075326 0.35289979
-0.20111614 0.054248586 0.41283822
1.1680413 -0.31714916 1.7424583
0.086143889 0.061112113 0.43206191
0.22913316 0.054182358 0.50481057
-0.50077307 -0.16304122 0.75805402
0.35043174 0.035854191 0.41383123
0.23524976 0.055978507 0.52217484
0.083492793 0.058994099 0.41153359
0.38616937 0.018521605 0.94039774
-0.22428358 0.057716653 0.32737255
0.059379615 0.060000442 0.2873733
-0.38721246 0.062972292 0.4979701
-0.21927533 0.056255214 0.31311131
0.28790024 0.050958924 0.41571212
-0.56594598 -0.22590701 1.1081512
-0.046603926 0.056920096 0.39270687
1.072638 -0.16352563 1.7130201
-0.20396551 0.059619971 0.31829429
1.2330261 -0.32459778 1.7524855
0.26550123 0.047685072 0.85987306
1.1064366 -0.36887032 1.7700937
0.16879216 0.058805168 0.51097846
0.67867982 0.037292212 0.91554213
0.31240702 -0.2337458 1.318244
1.2505331 -0.19079551 1.8726823
1.1822156 -0.20733912 1.965874
-0.45570958 -0.16423932 0.98844123
1.7707117 -0.22954111 2.6021392
-0.065552704 0.062392846 0.32967424
1.3209307 -0.061837137 1.9161127
1.1891222 -0.35176566 1.917166
-0.41121262 0.068551451 1.5396078
1.3172326 -0.060489632 1.910908
-0.3142423 -0.29466414 1.5339792
-0.84749144 -0.078521639 1.2168915
-0.50946325 -0.06240619 1.0745623
1.521683 -0.29272026 3.1271222
-0.3207581 -0.33825547 1.5980473
-0.53910726 0.052626684 0.97418237
1.1894722 -0.071842425 2.1473596
-0.53035939 0.029730003 0.84077835
0.32414043 -0.20823926 1.6932478
0.025703527 0.057950661 0.57845879
0.22143161 -0.017266536 1.4996884
-0.25484532 -0.35805681 3.5910738
-0.46881562 -0.046786562 2.1741192
0.36273098 0.0088118631 2.0714271
0.49275896 -0.16209956 0.89159203
0.15821046 -0.15102549 2.4028323
0.66596782 -0.017701024 2.4825108
0.28352055 0.050069265 0.40817833
0.16335356 0.057914414 0.56892705
-0.84252048 -0.21477418 1.4263806
0.35986871 0.04408852 0.60472131
0.23468626 0.055898979 0.51904297
-0.5673185 0.032925956 0.91431904
0.22161737 0.057327196 0.47328019
1.217013 -0.40603495 1.8198791
-0.51807338 -0.16603483 0.73357654
-0.8327077 -0.21634807 1.48153
0.83523625 -0.061774015 1.6177688
1.2874007 -0.19740649 1.9356887
-0.11008751 0.058246851 0.38018942
-0.48449206 -0.15792944 0.71407413
1.0884862 -0.38824436 1.6974766
0.20786631 0.05938562 0.52125001
-0.38634628 0.062863909 0.49863243
1.1039644 -0.32390586 1.6252794
-0.57174736 -0.19381939 1.0421441
0.083642252 0.059732556 0.41876006
0.25352353 0.055259101 0.31145716
-0.51600832 0.047595717 0.70643401
-0.19253209 0.060320236 0.46987629
0.36101061 0.045385201 0.53646398
0.10233191 0.03938894 0.29902434
-0.49382406 0.047082573 0.86862063
0.16696584 0.062749743 0.42965889
-0.58084136 0.021043157 0.85661697
-0.20955372 0.05462613 0.39281631
-0.22377393 0.052227996 0.39953756
-0.47817391 -0.16035639 0.97060084
-0.054193325 0.059214719 0.30203819
0.99178493 -0.29745808 1.5354033
0.23122564 0.058900312 0.49200225
-0.58341795 -0.19877687 1.0779986
0.65523279 0.031324662 0.84838319
0.29637367 -0.14382984 0.83593011
-0.4949348 -0.10788702 1.084358
0.0094030872 0.055945218 0.36794257
-0.10960493 0.058330871 0.58549333
-0.53660542 0.027964335 0.8915062
1.1285676 -0.3086139 1.6907058
0.95706779 -0.12094029 1.6094563
0.80119389 -0.077722542 1.5309558
1.1720293 -0.16301556 1.7617939
0.74587506 0.030985259 1.4428189
1.2794873 -0.24022539 2.0176179
0.54235363 -0.19454706 0.92076039
-0.10570378 0.055580564 0.54172611
1.1706736 -0.30645335 1.8388746
-0.8288421 -0.21341749 1.4735088
-0.33235341 0.054966681 1.1516922
0.24903345 0.056492493 0.72433233
-0.86650717 -0.17286912 1.3280709
1.0880442 -0.34925699 1.6628833
1.166926 -0.34603396 1.8795335
-0.20009679 0.054331601 0.49648976
1.2832289 -0.19618841 1.9298275
-0.50821716 0.08251299 0.62080812
-0.50434858 -0.041971244 1.0772049
0.27456063 -0.17885296 0.79847908
-0.073139198 0.039796844 0.31666636
-0.048162945 0.059209995 0.54979706
0.5038417 -0.13895008 1.4841661
0.27584565 -0.14776377 1.2197101
1.2226281 -0.132774 1.7255917
0.38385379 -0.16574425 1.4036496
0.90723217 -0.040232286 1.7273872
1.0899501 -0.13564028 1.8498914
-0.3114332 -0.17907639 1.2080019
0.78571433 0.024597425 1.6279066
-0.58482045 -0.1808684 1.751344
-0.42439902 0.046578661 1.3658752
0.27112636 0.050954431 0.97299409
-0.28233632 0.089093544 0.83726263
-0.49481255 -0.056840427 1.0609531
0.23311791 -0.0060025528 1.4653456
0.44532967 -0.18851511 1.7950947
-0.28625268 -0.27651903 1.5929792
-0.49681586 -0.056519963 1.066546
0.35203791 0.044623777 0.48874688
-0.56010038 -0.19521058 1.0581865
0.16613328 0.062987447 0.55657935
0.31920686 -0.20417427 1.6528816
-0.0470872 0.059004933 0.5495944
-0.15359825 0.042958237 1.1039917
0.2620123 -0.22641207 1.7167189
0.3146522 -0.25091258 1.6908619
0.27365667 -0.23631196 1.8038297
-0.84963578 0.216042 1.3991725
-0.016690277 0.053021513 0.78600597
-0.084055595 -0.11584457 0.93907309
0.48950201 -0.37426284 2.3401353
-0.38259754 -0.2567735 2.1173284
0.86291045 -0.2570737 1.5300052
0.10422985 0.063392796 0.31454158
0.49092489 -0.17073883 0.85850954
0.62751323 0.0333675 0.82937837
0.10019884 0.060874499 0.31402946
-0.5127697 -0.19554758 0.96089649
-0.57174069 0.031776674 0.73747349
0.15321797 0.058962114 0.51154995
0.6702382 0.0051430892 0.81280208
0.62232178 0.035938036 0.75746202
-0.20313498 0.057653308 0.45056176
-0.06538222 0.062333964 0.32434034
-0.52820045 0.057039589 0.83926368
-0.55898994 0.042070523 0.75178528
-0.54690522 0.040826712 0.73503494
-0.5036419 -0.16268313 0.744241
0.48889068 0.041566551 0.67241788
0.081662424 0.057392478 0.39852118
0.57582909 -0.16650254 1.0324214
0.4792617 0.039945871 0.65809131
-0.51385909 0.030211534 0.93486333
-0.14614922 0.034070201 0.21474743
-0.53454429 0.02689535 0.9312346
0.088620372 0.054239497 0.51243973
0.15910757 0.057581834 0.43579292
-0.056178786 0.062043078 0.31969166
-0.33141217 -0.18508893 0.95963717
-0.50625145 0.023664543 1.2287152
-0.09865921 0.06498412 0.30085325
-0.82139438 -0.1676863 1.3917842
-0.19714195 0.052459501 0.56988597
-0.60858321 -0.2368571 1.2474904
-0.22295487 0.051912084 0.39857936
-0.057953574 0.060662262 0.43599629
0.59015554 0.044443689 0.69386125
-0.055954091 0.059032619 0.41974235
-0.014016978 0.059253074 0.36464596
0.23480344 0.055885822 0.39359093
0.60583365 -0.12834959 0.86197615
-0.12007699 0.059463292 0.69507718
0.082845725 0.03022515 0.2372601
-0.35859066 -0.14604408 1.1538146
-0.099045865 0.058963954 0.536273
0.096686669 0.058713116 0.29986119
-0.53408009 0.058240175 0.87552619
0.41910553 0.038305283 0.57332611
0.10071296 0.060067512 0.34003997
-0.48355043 -0.15813157 0.74584246
0.031320341 0.06085337 0.27757335
-0.22009173 0.05158332 0.32226157
1.1793025 -0.21413279 1.8745673
-0.53970271 0.054639898 0.84007549
0.24258658 -0.19213054 0.84308791
0.26872024 0.063163459 0.69565082
-0.45057321 -0.17138831 0.92398906
-0.19617593 0.062228531 0.34157681
0.88616431 -0.03657151 1.6682539
0.37103686 0.036169372 1.0642762
0.50071162 -0.20384777 1.2059815
-0.11381855 0.060837932 0.40258431
0.83996421 -0.2411686 1.3898432
1.1734743 -0.26428252 1.6368456
0.53251278 -0.14574918 1.1737576
-0.90115172 -0.079098307 1.4536769
-0.88071209 -0.16679932 1.1405232
0.36862507 0.046714142 0.54905963
0.64903945 0.038178664 0.75140023
-0.49021208 -0.10422625 1.0737765
1.2407479 -0.23087005 1.9651115
0.69358045 0.031864684 1.3805823
-0.32288805 -0.18599288 1.263128
-0.059790559 0.062578239 0.45177865
-0.38029301 -0.17981569 0.97059107
-0.35842836 -0.27137586 1.5284472
1.0911709 -0.27514002 1.8214481
0.37093008 0.032193363 0.88031697
0.17969644 0.053179711 0.44957256
0.28198388 0.052447617 1.0205033
-0.087654404 0.053966112 0.66944861
-0.50260037 -0.11029627 1.0977573
-0.32730579 0.055195995 1.2428997
-0.35750359 -0.27060521 1.5284982
-0.29133904 -0.29685345 1.6749156
1.172029 -0.34634221 1.8820989
0.3184315 -0.19115515 1.2687874
1.9975773 -0.15944158 3.583061
-0.59742033 -0.20158413 1.0411525
-0.26660976 -0.28563011 1.6548851
-0.28078359 -0.26995531 1.5936499
-0.29452363 -0.18440507 1.0686288
0.32118273 -0.25915685 1.6114099
-0.29967463 -0.2928097 1.7036953
-0.65845239 -0.11148066 1.9177034
-0.8676824 -0.1646377 1.1876264
0.1360766 0.049469061 1.0326383
-0.72461635 -0.15954043 2.0194004
-0.085611217 -0.066929288 0.93888974
-0.1514582 0.04232572 1.0858233
0.35331422 -0.17789407 1.9325025
-0.21767882 0.052096821 0.3247757
0.33694136 0.036598857 1.9107149
0.73060292 -0.24517743 1.5277159
-0.4216401 0.10659229 0.57771778
2.6518111 -0.12296193 4.0736275
-0.58277595 -0.057467021 1.1770446
1.7382989 -0.51622027 4.2055483
