# .PCD v0.7 - Point Cloud Data file format
VERSION 0.7
FIELDS x y z
SIZE 4 4 4
TYPE F F F
COUNT 1 1 1
WIDTH 599
HEIGHT 1
VIEWPOINT 0 0 0 1 0 0 0
POINTS 599
DATA ascii
-0.14184746 -0.19272831 2.8521738
-0.20168003 -0.37665793 3.1191812
-0.13711217 -0.19015536 2.8237791
-0.1656861 -0.37529784 3.1618552
-0.14389405 -0.0039459355 1.9732232
-0.20366845 -0.30823892 3.0343714
0.80917156 -0.02596584 2.0053496
0.62278008 -0.044764414 1.5181603
-0.74285293 -0.15977699 1.5748463
1.1270159 -0.23413271 2.2616429
-0.089488477 -0.33283654 4.2640257
-0.033498019 -0.15569721 4.1110005
-0.24353793 -0.41086039 3.0605583
1.0136675 -0.17633082 2.5964484
-0.80285156 -0.47916883 2.8474364
2.0075989 -0.085256726 3.0188341
-0.2083551 -0.36865994 2.9053254
-0.80200577 -0.07578437 1.4475045
-0.75528872 -0.44793919 2.881526
0.23953328 -0.037179559 0.99080133
-0.75819182 -0.40894592 2.9485207
-0.8669076 -0.085095823 1.5780816
0.15820286 0.049704168 0.68361759
1.5251755 -0.06011945 1.9601932
0.020017296 -0.38565931 2.8784423
1.5056385 -0.062490046 1.9089913
0.14160845 0.045811117 0.83877468
1.4950097 -0.053914905 1.8936224
-0.92741787 -0.050915889 1.6063876
0.34914252 -0.06335447 0.9684906
-0.52819502 -0.39845189 4.1335464
0.15982029 0.049817435 0.69627285
0.34968159 -0.07098034 0.97642803
-0.60760772 -0.08984831 2.647552
1.1109735 -0.027515642 1.7869506
1.1436509 -0.026529782 1.7643499
2.4878602 -0.1361075 3.7797928
0.34656516 -0.067113146 0.96165657
1.1282709 -0.072879612 1.7749596
0.7180239 0.028552836 1.028698
0.95489657 0.084969908 2.0049458
-0.02438882 0.046867527 1.1172218
-0.80943632 -0.079605952 1.475853
0.31008533 0.026950639 0.56686401
-0.82849145 -0.46346271 2.7543902
-0.85502565 -0.48245484 2.875216
-0.85490322 -0.38947761 2.5722017
0.42774692 -0.29734287 4.6382952
-0.81758654 -0.25722998 3.1072998
-0.78638995 -0.45468238 2.9710231
-0.93800819 -0.43597025 2.792707
-0.059568614 -0.53445077 4.3809714
1.3367766 -0.32054782 2.1955328
0.43537405 -0.12520923 0.63039207
0.028321654 -0.53214073 4.0165009
0.43818858 -0.30591181 4.7626972
-0.85835731 -0.28337574 2.7455597
-1.0831681 -0.40327099 2.9985209
1.2793504 -0.027689487 1.9731069
0.025484711 -0.53051257 4.032053
-0.66204131 -0.31853658 3.7327142
1.1841491 -0.026985601 1.7585855
-0.85512114 -0.23010135 1.8947358
-0.91724873 -0.35755044 2.8235373
0.74300027 0.033662707 0.91224766
1.0960538 -0.025439471 1.7532887
1.1370823 -0.063674942 1.7617612
-1.435868 -0.1083234 4.216217
-0.046087474 -0.50212145 4.0283413
-0.98176563 -0.41918275 2.8324251
-1.0479982 -0.3245236 2.850513
-0.98536062 -0.39745185 2.8094921
-0.30462447 -0.39405581 2.977654
-0.83258164 -0.027388416 1.5189791
0.28469393 -0.023422942 0.90061331
-0.74414062 -0.26381582 3.2687244
-0.81072664 -0.34927675 2.7555842
-0.76988971 -0.43631816 3.5414991
-0.75419438 -0.38689211 1.7101073
-0.98088455 -0.2298134 2.7802367
-1.0436289 -0.39966226 2.8819866
-0.76290071 -0.42243087 3.4655538
0.40036574 -0.067821875 1.4317107
0.21417722 0.049665615 0.32018089
0.96210599 -0.24892151 2.0755115
0.37639955 0.017400369 1.0074115
-0.76477706 -0.38481092 1.6707482
1.3892524 -0.027714178 1.8204474
0.086331159 -0.24963275 4.2388058
-0.82749224 -0.042962864 1.4455705
-0.82232153 0.014539324 1.4404626
1.1762557 -0.08641047 1.7185121
-0.81298935 -0.2579053 2.6440158
0.12662849 0.030346921 0.80428123
-0.74529612 -0.52415776 4.3204999
0.45381418 -0.10438663 1.317112
0.2267333 -0.016687989 0.95945311
-0.43008217 -0.078422129 2.200058
1.4688367 -0.050152093 1.8048663
-0.86581767 -0.36177203 1.8267584
-0.78657961 -0.47634381 2.8000741
0.21100941 -0.30131871 3.7213058
-0.20530328 0.051443949 0.38272643
-0.8308605 0.010873247 1.4613867
-0.83088017 -0.28497672 1.8437223
0.14040646 0.02040044 0.73968124
-0.46867421 0.032829255 1.1885347
-0.77155614 0.0064035095 1.4769711
0.16571572 0.021025421 0.70564318
0.20473525 0.039792452 0.77307415
0.37354639 -0.073248453 0.95414972
0.086463243 0.045313619 0.61787462
0.088584155 0.043465666 0.64877748
0.22640309 -0.018212624 1.026886
-0.69637239 -0.33904561 3.6149201
-0.87580991 -0.36383072 1.8607707
-0.81456769 0.012610797 1.4232984
0.3068023 0.025791047 0.56116772
0.32198229 0.031707626 0.5559814
0.34522125 -0.07257165 0.97151423
-0.94131148 -0.15689841 1.6729112
-0.46782926 0.054331943 0.61633873
0.45318869 -0.11635113 0.75067759
-0.79543519 -0.22992411 1.7406278
0.15409079 0.021297289 0.71455002
-0.77175426 -0.25776771 2.9828062
-0.76724875 -0.44480595 2.9858184
-0.72574461 -0.29208183 3.1464515
-0.81430984 -0.079857193 1.4762745
0.16656062 0.021334004 0.70650434
0.081283182 0.055488609 0.43191075
-0.81362617 -0.033755541 1.470211
-0.83403385 -0.26777238 2.6848526
-0.1661112 0.052766778 0.70978498
-0.18451151 0.050515667 0.53499937
-0.047937661 0.051706754 0.45482969
0.085994869 0.046583023 0.60543919
0.35982952 0.038557142 0.42764807
1.5505021 -0.066808417 1.8064699
-0.82741845 -0.012269415 1.4480739
-0.82848108 -0.043610953 1.4477525
0.37691227 -0.0092136413 0.98186636
-0.78608322 -0.029699542 1.4234033
-0.11784813 0.051247329 0.7818923
-0.88832688 -0.33245283 1.8848281
1.1534563 -0.026492491 1.7748275
-0.65186131 -0.0030593015 2.5750299
-0.74255109 -0.39205864 2.8314018
0.13689962 0.018309625 0.7349081
-0.70629323 -0.38213348 2.8651972
-0.39947477 -0.027290955 2.5771737
-0.51415777 0.037306141 2.1634231
1.4786875 0.005124677 2.1377854
-0.64947045 -0.2075147 3.2947612
-0.54393196 -0.19226263 3.3638229
0.73161995 0.029385947 1.0548525
-0.89514577 -0.3615807 2.8201299
0.3999435 -0.0092717931 1.3478503
1.1133839 -0.072907999 1.7464876
-0.63377655 -0.28848431 3.7338743
-0.8442775 -0.26060483 1.7245564
-0.90473986 -0.36145249 1.7855849
-0.14576849 0.052033573 0.60675049
1.1068453 -0.023672249 1.7714982
-0.82023919 -0.19130349 1.7545285
-0.16183099 0.046606943 0.87474871
-0.95625305 -0.2900635 2.8143973
-0.8258723 -0.28582194 1.8364949
-0.84689033 -0.36322713 2.8950191
1.0246681 -0.28322849 2.2380075
-0.82780755 -0.16121665 1.6449671
-0.78825235 -0.078022361 1.4359164
0.16168651 0.049499888 0.71266127
1.1474159 -0.027735077 1.7699714
-0.76570117 -0.37572527 4.2762785
-0.84049332 -0.47754651 2.8233943
0.42257717 -0.13011374 0.63609362
0.023339838 0.050064635 0.68848133
-0.79463494 -0.15862481 2.7217369
0.091656238 0.055140153 0.31240463
-0.20455393 0.052293651 0.38157034
-0.15049359 0.052583933 0.6169796
-0.90576899 -0.34942514 1.7918372
-1.1493456 -0.45611912 3.0231156
-0.64404655 -0.26022539 3.3772678
-0.60801816 -0.54514939 4.444561
-0.69113433 -0.35942662 4.0905852
0.19445685 0.039097395 0.72684336
0.1690248 -0.15327987 1.1342969
-0.7957052 -0.031659842 1.4347281
1.1078889 -0.024254225 1.7724471
-0.80391145 -0.27459723 1.7588158
-0.87273324 -0.46669745 2.8691854
1.4369777 -0.046758503 1.7586141
0.44998774 -0.13172352 0.6141758
-0.29739615 0.079545796 0.94492292
-1.0405687 -0.37905145 2.5785708
0.091929525 0.050197989 0.64865112
-0.36262271 0.054854725 0.62175846
-0.49391732 0.05710499 0.67679977
0.20783487 0.041322932 0.31491351
-0.35786971 0.052582607 0.72513437
0.58235097 0.027699547 1.0956917
-0.79020822 -0.025251731 1.4405222
1.225366 -0.09355557 1.8058991
-0.63970816 -0.024994969 2.6446805
-0.20701596 -0.19871129 2.4696579
-0.89597499 -0.36326188 2.8220482
1.4938667 -0.063376293 1.7325573
1.3774136 -0.02073314 1.674624
-0.83373308 -0.14889289 1.6649652
0.020512849 0.048802447 0.61987209
-0.41262093 0.032995209 1.9412913
-0.35822031 0.054166198 0.63430452
0.21688965 0.050599065 0.32412982
-0.89490175 -0.38868082 1.8190298
1.4463161 -0.049588531 1.7641315
1.1283114 -0.2569679 2.184113
-0.80789042 -0.031662315 1.5188489
-0.19820914 0.052143764 0.27017403
0.17394915 0.04860422 0.67441893
-0.83982408 -0.23739111 1.8726029
-0.78001153 -0.028410107 1.4583545
0.17467251 0.048654094 0.68111372
-0.86071503 -0.21780887 1.9341006
-0.92745876 -0.34088475 1.7652903
2.0153077 -0.10697992 2.4988832
-0.84053624 -0.2127437 2.7867341
-0.81197083 -0.4799754 2.8666711
0.072538108 0.056580085 0.27317619
0.27425233 -0.0053207949 0.94967127
-0.50449789 -0.14244998 0.68655014
0.31422082 -0.10884286 1.1095538
0.21309713 0.04089665 0.37538242
1.1323541 -0.025691226 1.7317204
0.15161625 0.048680756 0.60965824
0.065573543 -0.16035147 1.1395264
-0.69527161 -0.25675088 3.0043907
1.1503688 -0.02436085 1.7118154
1.2407424 -0.053249925 1.8036337
-0.048158854 0.052886553 0.48889613
-0.77607763 -0.031590089 1.4439278
2.4741602 -0.34764114 3.3645072
-0.45679495 -0.056402631 1.8820925
-0.63157427 -0.0065584555 2.7119188
1.9944293 -0.1012212 2.3754296
0.07581082 -0.20472124 1.4293947
-0.21055427 0.065130502 0.95591497
2.7366867 -0.40761405 3.6738348
-0.056655198 0.054467775 0.40855408
-0.60920715 -0.1942858 3.5937734
0.078183442 0.053300187 0.38405824
-0.4920207 0.057434857 0.62216139
0.17838201 0.056460984 0.26168656
0.35939422 0.038899802 0.42690754
-0.21403942 0.053627625 0.27460146
-0.50732815 -0.14351358 0.6919651
0.073026568 0.057520587 0.28035855
0.27832767 0.030591084 0.54570532
0.15758172 0.048873659 0.69511795
0.31126896 0.032241419 0.55775547
-0.36083952 0.053541314 0.73532248
-0.80368125 0.033414658 1.0104628
0.34399912 -0.0071651451 0.59531498
0.80574584 0.02919583 1.0223436
0.48663273 -0.12185895 0.57613277
-0.19201884 0.05308447 0.51287317
1.9779497 -0.098927557 2.3515019
0.37701204 -0.075422116 0.99345636
0.16798654 0.015692657 0.62504959
1.1249571 -0.25591344 2.1727324
-0.69599378 -0.3796272 4.2404737
-0.88001609 -0.33105105 1.8608732
-0.14820227 0.053290773 0.62775087
-0.87894607 -0.38056833 1.77951
0.13144818 0.038715292 0.83624983
-0.79450262 0.032043435 0.99584675
0.30044839 -0.10010669 0.9171977
-0.82247055 0.035258189 1.0429201
0.13702866 0.040079944 0.87221241
-0.04777804 0.050567999 0.63528109
0.31265828 0.032117296 0.56016207
-0.49894378 0.013801917 2.1542029
-0.65434217 -0.23286492 1.5129285
-0.66024387 -0.025280595 2.7300053
-0.81270552 -0.45437762 3.8467951
-0.68540502 -0.022036083 3.8210063
-0.55545473 0.018006146 2.5307069
-0.63887274 -0.273633 3.9155221
-0.4896082 -0.38581818 3.8939199
1.1798815 -0.055060476 1.775104
0.32055774 -0.05275093 0.98509932
1.7398194 -0.16536434 2.5340629
-0.1953468 0.040968455 0.6806798
0.13889095 0.040883325 0.90591478
0.16114554 0.055079967 0.31626797
-0.11754999 0.057156578 0.35513639
-0.82737744 -0.031889647 1.4168205
0.13161597 0.054678738 0.32087564
0.31578013 -0.03082414 0.5593276
1.1283655 -0.30640686 2.660634
0.079114467 0.053836677 0.39457965
-0.058028042 0.054419365 0.39617682
-0.85034716 -0.5464133 4.6340981
-0.40080789 -0.15987445 3.1373763
-0.49176309 -0.15728877 0.69989252
0.26403645 0.032467306 0.61633205
-0.16730997 0.047707878 0.91175079
0.34546837 -0.07279072 0.97253513
-0.84564734 -0.16386397 1.1788259
0.56440985 -0.10344037 0.90611124
0.032027572 0.047340903 0.73274183
-0.78245866 0.012411304 1.4259753
-0.8284992 -0.23841012 1.6573272
0.020020217 0.050044514 0.6370306
0.31179658 -0.10802115 1.0740004
0.27452984 0.032742202 0.64486456
0.77752805 0.028705705 1.0358491
1.1195488 -0.072420508 1.7504358
-0.91073012 -0.32887787 1.7210455
-0.86744595 -0.33063021 1.8360329
0.07843408 0.053055566 0.39344215
-0.21206161 0.052856077 0.30427885
-0.79597723 0.014231976 1.4567103
0.17056987 0.049111027 0.67327929
1.1443168 -0.23716712 2.6305084
-0.82811701 -0.29633221 1.8098364
1.5311424 -0.027527452 1.7843323
2.0238616 -0.15659034 2.4242134
-0.096122295 0.050140657 0.75136614
-0.4967331 -0.1616495 0.72545862
0.21920243 0.049160127 0.41924787
-0.20513377 0.05160927 0.38310432
-0.21152505 0.052689541 0.30276895
0.21582416 0.051339701 0.33592939
0.30414769 -0.14857753 0.69396353
-0.50926423 -0.41081256 4.1505957
1.1128412 -0.00041037425 1.3474488
0.38294092 -0.080021918 0.97414732
-0.10379753 0.050441403 0.60119724
-0.056530356 0.058353648 0.28258085
-0.15300331 0.044891328 0.93023348
-0.18155143 0.050272785 0.52985883
1.4300911 -0.041972585 1.8063765
0.22978196 0.044420391 0.62352467
-0.20197108 0.054857377 0.26354051
-0.1832839 0.056421738 0.42776012
-0.66365898 0.021938654 1.0075178
0.082085878 0.052521531 0.50093842
-0.79130077 -0.26319429 2.6015668
-0.87460577 -0.087119341 1.5648742
-1.0367478 -0.4185816 2.7292123
-0.040460557 0.048128221 0.5750277
-0.21279588 -0.37111026 2.9821577
-0.91056287 -0.29616043 1.7013369
0.22534457 0.043277863 0.61021662
0.16545227 0.055194031 0.37721562
-0.94140053 -0.43974328 2.8129716
0.12590078 0.044441149 0.6870594
-0.93232679 -0.3045446 1.7475095
-0.018730193 0.045434996 1.0470262
0.58898604 0.016214449 1.512095
1.0421522 -0.26860356 2.2779808
-0.18338332 0.054439601 0.46792436
0.31769225 -0.052599989 0.97795248
-0.73071146 0.0055067986 2.5237055
-0.71386361 -0.38386846 3.1955862
-0.98315597 -0.31624743 1.7564554
-0.2012156 0.053069644 0.28083706
0.21862963 0.049748171 0.37146902
-0.51355326 0.049701098 0.62419987
0.22803155 0.033227548 0.42895293
0.71606898 0.029641733 1.0178537
-0.18898055 0.060111687 0.25330186
-0.055797994 0.052916095 0.38927889
0.31933162 0.020636305 0.58664179
-0.17600796 0.070229694 0.33743501
0.22260091 0.048492841 0.45125842
0.2800763 0.038924754 0.68904781
-0.1636264 0.064687274 0.31309342
-0.796435 -0.14500129 1.1874061
-0.48848131 0.056816876 0.6176362
-0.51389313 0.058942571 0.70690489
-0.49784085 -0.12680942 0.71837282
-0.8694247 -0.21863845 1.4652481
0.31712559 -0.11329563 0.96914244
0.22703812 0.047859721 0.76958704
-0.89705813 -0.24411991 1.7661328
-0.88184643 -0.16160497 1.6975751
-0.19095132 0.040250786 0.75594854
0.38956442 -0.14416842 1.1530766
0.97939754 -0.084052116 1.7946844
-0.95527709 -0.3232618 1.7336273
0.32646981 0.025557863 1.0524778
-0.93358302 -0.18869779 1.3377399
-0.04849872 0.054046527 0.50562882
-0.96199536 -0.37299645 1.9078364
0.019013077 0.051287323 0.64900064
0.15735236 0.051951922 0.94521809
2.4586005 -0.45323542 2.8527808
1.6603858 -0.043815404 2.2717533
-0.49229881 0.057535779 0.62316799
-1.1320941 -0.45434585 2.9881225
0.31582275 -0.10979378 1.0876541
0.25508723 -0.19685973 1.2654691
0.43962696 -0.090090021 0.74366665
-0.73371518 -0.41217151 2.8894305
-0.020006508 0.042349868 0.94810343
0.13678703 0.01171061 0.83811617
-0.78607929 0.0077046007 1.5030489
-0.84202635 -0.42697236 2.6680622
-0.97583318 -0.22143969 1.287365
1.4204392 -0.26710054 2.2881665
0.31111839 -0.089551702 1.0720644
-0.35604492 -0.22298172 2.7895632
0.2150614 0.050684765 0.27407861
-0.4976981 -0.14027372 0.67638826
-0.23353752 0.053977624 0.39791822
-0.060477555 0.056413792 0.40920424
-0.51155555 -0.11944963 0.72044277
-0.052344531 0.053946197 0.39156175
0.22901842 0.046713278 0.31883812
-0.046503454 0.048860576 0.59476709
-0.055952162 0.058234796 0.28297281
2.191771 -0.16877241 2.6311722
-0.11712238 0.057257809 0.3539362
-0.12910202 0.042896889 1.0417686
-0.11518815 0.06007047 0.27527928
-0.12386206 0.061021224 0.27487755
-0.49812105 -0.13695458 0.69087696
0.17961165 0.056889277 0.2635932
1.145557 0.0073029678 1.4353642
1.0357291 -0.20891246 2.2003412
-0.95725775 -0.31434059 1.7955399
0.17616829 0.057566728 0.27243567
1.5121207 -0.34343481 2.0603943
-0.7847724 0.018132892 1.4384346
-0.12360182 0.04144416 1.007915
-0.36728796 -0.041705623 2.7671127
1.442522 -0.25675932 2.0174198
-0.39968517 -0.24129921 3.1402774
-0.94316506 -0.22355291 2.6797271
1.1666948 -0.084858879 1.6969404
-0.8079083 -0.27460375 1.4600773
-0.8056736 -0.17489596 1.6875372
-0.066082358 0.058307283 0.25324368
0.093059808 0.051052161 0.64704895
-0.49253306 -0.12715372 0.71682167
0.60879505 0.040892951 0.69910812
0.16727409 -0.14754961 1.112072
-0.74868178 -0.25204983 1.678247
-0.06717357 0.059129708 0.2589047
1.5992118 -0.31041977 3.6058755
1.4680705 -0.02697587 1.933156
-0.69626999 -0.34096763 2.8596754
0.13719144 0.011004411 0.83374071
0.2294322 0.04676339 0.31964922
0.13492319 0.04428418 0.82040262
0.72102559 0.033703342 0.87476206
0.13591841 0.011205675 0.82635307
0.26137039 0.028384279 0.50612378
-0.50499856 0.046835966 0.70227766
-0.2039707 0.053732179 0.27886772
0.31940535 0.040971115 0.85668421
-0.37167904 0.058229282 0.49170113
-0.77802086 -0.083223835 1.4576645
-0.47834286 -0.1360586 0.68626642
0.1442267 0.057427414 0.27117586
0.22810528 0.040658768 0.39575839
0.14372084 0.056719765 0.28149939
0.45657906 -0.12185413 0.57758951
0.11136684 0.04427148 0.96905375
0.13962629 0.059983615 0.32271147
-0.20273563 0.051616702 0.37764263
0.34253195 -0.070661701 1.1430597
-0.75781143 -0.36846015 4.2251072
0.21895447 0.045054246 0.31680536
0.13843712 0.053564571 0.35903311
0.11358598 0.045401584 0.98501062
-0.054308534 0.052599214 0.49728322
-0.17457196 0.053035088 0.32489681
1.1311672 -0.013734408 1.3744202
-0.00020718575 0.053341422 0.24641418
-0.14632675 -0.0069740266 1.5491929
-0.93303621 -0.42697343 2.8396311
-0.71423817 0.018276431 1.3075957
-0.43672827 0.023284715 2.3424492
0.31101534 0.031602629 0.53439736
0.4634538 -0.12124309 0.58731127
0.118139 0.047857575 0.96949244
0.33548042 0.018576154 0.57259369
1.5012265 -0.23544216 1.9707723
-0.46353748 -0.35923484 3.6386328
-1.0339503 -0.25231606 1.7589774
-0.20157847 0.013980214 1.6704974
0.31358734 -0.11155996 0.96369553
-0.80519044 -0.08110036 1.4338136
0.23022237 0.034428649 0.43449521
-0.20063409 0.051225167 0.42878604
-0.212836 0.057503752 0.26129341
-0.20161214 0.055668663 0.25245714
0.074382633 0.05046897 0.36027241
-1.1095667 -0.11121394 2.8325615
-0.82609224 -0.05397027 1.4528713
0.084955364 0.054118883 0.5165801
0.20666203 0.050872535 0.44626546
0.31538996 0.030026011 0.57730007
1.4986452 -0.036350496 1.7349558
-0.80753231 -0.081412017 1.4408007
0.2107397 0.052107692 0.42874622
0.074722975 0.056745969 0.23861551
-0.39720795 0.04178549 1.0426722
-0.050068647 0.054112222 0.3855145
0.24328557 0.030169392 0.59556246
0.074411899 0.04764339 0.43358898
0.30689743 -0.035314254 0.54156327
0.32688573 0.03008808 0.54682374
-0.50487089 0.058818962 0.66016769
2.0503721 -0.15484375 2.3453503
0.7233057 -0.21305275 1.1241341
0.28522167 -0.049456179 1.0329323
0.32158992 -0.12483549 0.5596292
0.35645702 -0.15425692 0.71653128
-0.41293195 0.052281417 0.6879344
0.16913691 0.055992983 0.27422619
0.1501846 0.022232281 0.69639921
0.18307742 0.054547574 0.31799793
0.0049836934 0.056678146 0.42681575
0.31047907 0.014352087 0.55148005
-0.46102151 -0.053067662 1.445724
-0.46460876 0.054169644 0.62547112
1.145992 -0.050692737 1.7161679
-0.91661441 -0.35279286 1.8175354
-0.18388483 0.051310223 0.54051018
-0.18353209 0.056449093 0.42865276
-0.18185219 0.05450606 0.43570638
0.062589973 0.050613988 0.24295378
0.086462706 0.047602285 0.5900116
0.21533528 0.051059473 0.28595376
0.074293286 0.056348894 0.23673129
-0.50809908 -0.11805235 0.71622658
-0.19756302 0.048108499 0.43540597
0.13245454 0.017884623 0.69923639
-0.15153894 0.045477595 0.37768245
0.16968176 0.056091212 0.27526093
-0.86992073 -0.21949899 1.9554253
-0.50445867 -0.11790603 0.70969677
0.29843345 -0.11598124 0.51755428
0.3124043 0.015538312 0.56931877
0.44329372 -0.13653886 0.66085291
-0.033112437 0.043934159 0.92904663
0.34346452 -0.052104384 1.0807624
1.8913376 -0.0597504 2.1619124
-0.95160067 -0.18493971 1.5544047
-1.0194138 -0.18713336 2.6476951
-0.1889067 0.051573537 0.30655742
0.15376946 0.052215476 0.54326916
-0.051634312 0.055346154 0.39734244
1.9869273 -0.063483477 2.2734656
-0.8397001 -0.30536118 2.0883775
0.067478389 0.0543167 0.26483965
-0.19876412 0.052788273 0.39125705
-0.13017616 0.063589446 0.29725909
0.020268172 0.058492608 0.27030396
-0.12692639 0.062553123 0.27995372
0.22627488 0.047632702 0.2913053
-0.97499073 -0.31829298 1.8340235
0.17060986 -0.1468111 1.122231
-0.96609724 -0.19426656 1.3424797
0.16881898 0.047068998 0.64696121
-0.27115372 -0.43195069 3.1374712
-0.49173293 -0.12642086 0.71367121
0.46039608 0.042409085 1.0418496
0.31804445 0.040727891 0.84657335
0.16021857 0.052726235 0.27909517
0.25772026 0.05958017 0.31108356
0.14385697 0.048922539 0.29890442
1.4383043 -0.034149736 1.6378365
0.13262078 0.050741471 0.4154892
0.28031608 0.015390862 0.50998592
0.075544089 0.056718856 0.27593684
0.33991662 -0.074194439 0.56120467
-0.18586656 0.051071636 0.54463673
2.049865 -0.32306117 2.6950498
0.34811804 -0.13427448 0.96345282
-0.52965987 -0.14689383 0.7353487
-0.10354552 0.0504352 0.59676647
5.6342607 -0.39967892 7.1913557
-0.13416347 0.01344208 1.4054208
-0.71213269 -0.31910178 2.5256877
0.16347751 0.056062929 0.32396936
-1.2036589 -0.12262788 3.088871
0.50607455 0.030019326 1.1735706
1.1646459 -0.087273046 1.6982989
0.20758447 0.051039696 0.45796728
0.22487262 0.052959293 0.27765012
0.28925154 0.067196079 0.38412261
0.33915707 -0.1382989 0.95023537
0.33799514 0.016985957 0.5730207
