# .PCD v0.7 - Point Cloud Data file format
VERSION 0.7
FIELDS x y z
SIZE 4 4 4
TYPE F F F
COUNT 1 1 1
WIDTH 607
HEIGHT 1
VIEWPOINT 0 0 0 1 0 0 0
POINTS 607
DATA ascii
-0.87447065 -0.021297995 1.1184883
-0.81850612 -0.018024445 1.0754478
0.22410023 0.048151143 0.72024298
-0.91159242 -0.1303395 1.5094194
-0.93584901 -0.090214327 1.4274981
-0.93373042 -0.090997174 1.4191747
-0.92877978 -0.15833415 1.4130938
-0.91662669 -0.1336907 1.5121956
-0.91960645 -0.2142358 1.4215629
0.29802182 0.025597498 0.65802062
0.38348103 -0.064364575 1.8895788
0.24687174 -0.18472412 1.2841561
-0.95761567 -0.098433636 1.4517286
0.26118264 -0.027928166 2.270895
-0.95637 -0.013093119 1.4762924
-0.95587146 0.061159104 1.2441254
0.2358554 0.055195283 0.82863712
0.22617066 -0.16960698 1.1102424
0.83127952 -0.048448607 1.8990233
-0.91025227 0.023953531 1.4598873
0.74540806 -0.050402001 1.3862276
-0.84992331 -0.021048475 1.1251614
-0.66990548 -0.1667133 1.3238912
0.20597813 0.05636102 0.44213676
0.34904289 -0.12830126 1.0168161
-0.74244529 -0.18917951 1.3537083
-0.72731715 -0.16824721 1.3950903
0.66579419 -0.011585078 1.1094065
-0.085855938 -0.3807233 1.9110899
-0.33140361 -0.37143052 2.0557737
0.23775241 -0.17306006 1.0775554
-0.53494841 0.049094625 1.0738797
0.24190721 -0.01969637 2.8386614
-0.56721884 -0.037352368 1.0622063
-0.65789336 -0.18887533 1.3295994
-0.53601283 0.049115881 1.073189
-0.95221424 -0.015516675 1.4728692
-0.91976249 -0.21587448 1.4172277
-0.89361286 -0.21121994 1.585953
-0.25471747 -0.30109584 1.877985
-0.20755917 -0.32275537 2.3125224
-0.74049175 -0.22648574 1.3632226
-0.66515142 -0.1651018 1.3129096
0.34291682 0.027959907 0.96183467
-0.69161272 -0.23647478 1.3374047
-0.70067739 -0.22209944 1.3328373
0.57662404 -0.15543491 0.74167132
-0.34450871 -0.24827048 1.789736
-0.90381229 0.0584547 1.4177012
-0.78352624 -0.20283352 1.471782
-0.25932467 -0.26261202 1.8859332
-0.96506429 -0.011433494 1.4733222
-0.64304018 -0.13703427 1.3277555
-0.30600646 -0.1993584 1.8755207
0.20553598 0.057622351 0.44911194
-0.91114742 -0.26590705 1.3884776
-0.44364491 -0.00033083279 2.1092498
0.41099623 -0.19037443 2.4475055
0.34099054 -0.22645929 2.0742459
0.3044714 -0.15902862 0.91265845
-0.83844268 0.012970609 1.570719
-1.1108886 0.23554572 1.794189
-0.95484596 -0.26024103 1.4473493
-0.87666202 -0.01635382 1.1894722
-0.5312866 0.0029474916 1.4341829
-0.22277692 -0.2204449 2.1116576
0.50421965 -0.10571512 2.2784908
-0.7368145 0.030028474 1.0868394
-0.73205543 -0.22493753 1.3539505
0.33699384 -0.16238338 0.88050747
-0.29008853 -0.37039447 1.9375527
0.34887442 0.046979144 0.78315687
-0.84356272 -0.010466364 1.125139
-0.74761432 -0.0058970293 1.140729
-0.82835042 0.015065369 1.3035104
-0.86138332 -0.17194155 1.6758664
0.17863047 -0.24378452 1.1491308
0.44099393 -0.16720469 1.7762907
-0.17159426 0.060852386 0.57526624
-0.29679 -0.37751317 1.9807518
0.39983401 -0.11221261 4.1467457
-0.2530081 -0.21616527 1.8894002
-0.28695863 -0.27327815 1.624063
-0.17077824 -0.31655514 2.4303966
-0.25386378 -0.25518996 1.8440781
-0.17292243 -0.29113185 2.1214845
-0.17361468 -0.30478945 2.2657826
0.46812883 -0.19610021 4.3218622
0.30259824 -0.0091031725 2.0242019
-0.92827219 -0.25390089 1.4003651
-0.72794586 -0.22884724 1.3589361
-0.18327579 0.054696064 0.73046494
-0.2601651 -0.30034879 1.8766599
0.12583384 0.053972058 0.39344335
0.33873403 -0.026780434 3.1274798
-0.89261276 0.01985801 1.4684496
-0.48762807 0.0087494412 1.2603676
-0.30261704 -0.20212772 1.8850386
0.22454128 0.054596264 0.78451109
-0.23119986 -0.3587935 1.9821422
-0.88345855 -0.19729288 1.3516355
-0.18594778 0.05378215 0.53917634
-0.91489929 0.025390673 1.4732277
-0.2616027 -0.41901249 2.4145939
-0.93417019 -0.093713745 1.4150753
0.06034375 0.060011134 0.34566367
-0.85745627 -0.25072563 1.3014812
-0.23791277 -0.34756321 1.9632707
-0.36345747 -0.28446713 1.3220351
-0.26695007 -0.19749191 1.8684688
-0.9107582 -0.27647302 1.5651877
0.35020059 0.0090429243 0.97104764
-0.52405536 0.0030988762 1.4114983
-0.35179183 -0.20577301 1.4428973
-0.29921508 -0.37760022 1.9811668
0.2383056 -0.17184107 1.0758049
0.42090106 0.044504672 0.59083831
-0.12973785 0.061757468 0.31133258
-0.32181525 -0.26580486 1.303345
-0.32564852 -0.27134377 1.3219633
-0.23015857 0.029386483 0.53623509
-0.92019802 -0.12931725 1.5391448
-0.56948161 0.020864546 1.54124
-0.53802401 0.032385129 1.4371283
-0.92196161 -0.21162334 1.4853201
-0.95078021 -0.016936585 1.475055
-0.92933911 -0.0058443034 1.4878254
-0.29771721 -0.24975348 1.6015935
-0.17133471 0.060701039 0.56494689
0.39990208 0.043402221 0.55314469
0.43698218 0.04483977 0.62503254
0.41732004 0.044770956 0.58521068
-0.88052225 -0.24487767 1.3368111
0.73803538 0.013793859 1.6501825
-0.5370456 0.031292107 1.4361074
-0.35743579 0.056479409 1.2990129
-0.29370117 -0.26290202 1.3180256
-0.92228246 0.033074737 1.4421461
0.44980162 -0.064698234 2.645658
-0.18149298 0.053637676 0.71824694
-0.10688793 0.05842793 0.4626503
0.49461406 -0.15748022 2.3086038
-0.001689665 0.057324514 0.47597003
-0.0015494898 0.056717388 0.46443999
-0.29626 -0.26401025 1.3229821
-0.29432237 -0.22302444 1.6124191
-0.55185926 0.021975759 1.3813236
0.52909189 -0.21826237 4.9776487
0.52710038 -0.41117048 5.3605042
-0.2182841 -0.34632769 2.4749215
0.34049079 0.04894441 0.56049097
-0.19392025 -0.25527102 2.3453319
-0.44759253 0.046467036 1.7003884
-0.24161619 0.051896632 0.52250445
0.2116676 0.055263836 0.31046438
-0.31017187 -0.22145161 2.3566892
-0.26865456 -0.32333526 1.8367178
-0.9866842 -0.292377 1.427593
-0.32793748 -0.32077903 1.7330403
0.65743262 -0.009653545 1.0957854
-0.067127407 0.061921868 0.60963476
0.24073756 -0.19608134 1.1222608
-0.14555871 -0.22193068 2.3683305
0.36051795 -0.18596902 1.4771237
0.59326512 0.040953979 1.1207666
-0.47155598 -0.14653839 2.0359352
0.36038163 -0.16623721 1.6902337
-0.34354651 -0.23002441 1.2779911
-0.948084 0.037887137 1.2082593
-0.060442872 0.058997605 0.73415256
0.31551337 -0.023627538 3.3896811
-0.41801187 -0.17823942 1.5198386
-0.51851255 -0.057227314 2.7742221
-0.37526977 -0.37184191 2.0528364
0.40602222 0.048431862 0.66412663
0.34147474 0.044952825 0.75750995
0.19849786 -0.22340848 1.1028035
-0.36501741 -0.15724126 2.9387701
0.54835147 -0.22385442 5.1495018
-0.44767573 0.016383026 1.9996326
-0.16941142 0.058819637 0.33380401
0.34809247 0.0079334853 1.0489464
0.30436718 -0.18611686 1.4032686
-0.14156094 0.043316644 1.388778
0.37885472 0.045117613 0.59761512
-0.63586479 -0.13715661 1.3035579
0.30672029 0.040695436 0.66158032
-0.34589174 0.034805376 2.2115088
0.0047725812 0.057875209 0.64370155
0.060730644 0.060254991 0.35068309
0.22849408 0.05308507 0.31377721
-0.54284143 0.050320953 1.1029227
0.55785292 0.041249815 0.72659326
-0.87574875 0.061858289 1.1351955
0.21056846 0.05631724 0.35553575
-0.68496567 -0.23179378 1.3328621
-0.085837178 -0.38787532 1.9545369
-0.43384236 0.024347149 1.9254134
-0.44292471 0.020271182 1.8368037
-0.63431937 -0.13632245 1.3001099
-0.23108295 -0.24886531 2.2152791
0.47131577 -0.12405863 1.1155851
0.70212942 -0.014640796 1.0938308
0.55973369 -0.21201392 1.2766767
-0.53869265 0.047711134 1.0736938
0.21715143 -0.19449304 0.93863583
-0.1868456 0.054867968 0.54440308
-0.58719575 0.057556812 0.99762225
-0.31145209 -0.25396177 1.3231945
0.0069318488 0.057893589 0.64287686
-0.27618995 -0.24023345 1.830375
-0.52010792 0.062086128 0.93952417
-0.75883007 -0.2261083 1.3935323
0.35180455 0.046161558 0.7830677
-0.52430904 -0.19478296 1.2245283
-0.58082688 -0.044195093 1.0954628
-0.23064846 0.051705599 0.5247885
-0.068189479 0.062001031 0.35488355
0.44541335 -0.17022179 1.7952938
-0.18534046 0.055331998 0.47010684
0.428904 0.0043749576 2.427341
-0.96391565 -0.29644638 1.743099
0.38935897 -0.11942056 0.93199635
0.0079092607 -0.38582259 1.8971839
0.2262989 0.05335772 0.3097198
-0.52993178 -0.19745314 1.2386565
-0.17798737 0.053570949 0.70958686
-0.13883653 0.060717683 0.46018767
0.21288657 0.055634886 0.31317234
0.53897524 0.043174546 0.70686316
0.36081865 0.043529037 0.61160457
-0.54551154 0.032691818 0.9892621
-0.16967076 0.056293957 0.27174103
-0.065819196 0.059795886 0.3367449
-0.1816293 0.056138504 0.26732707
-0.67015618 -0.17578328 1.3036902
-0.60866791 -0.23926133 1.2486551
0.21372572 0.054805618 0.46222901
-0.16072837 0.061703116 0.3244189
-0.55687577 -0.21281275 1.1900272
0.0080917999 0.062012803 0.29601765
0.45310774 0.03802133 0.9903419
-0.23128879 0.051384531 0.52720273
-0.14307404 0.062743343 0.47961164
-0.10635454 0.05688978 0.44598484
-0.52957553 0.062163305 0.96340728
-0.58222443 0.036750074 1.0764258
-0.95847768 -0.017559562 1.4908841
0.14602402 0.060243681 0.37348163
-0.56806421 -0.037567519 1.0693018
0.21990687 -0.19697534 0.95627403
-0.11041456 0.059654869 0.62137103
0.27147931 -0.17495914 1.0694363
-0.41152349 0.013121222 1.7875097
-0.37137401 -0.25289354 1.2297075
0.2112205 -0.19814354 1.1143069
-0.067915022 0.061306339 0.34520245
0.10386627 0.059996262 0.34964168
0.20295843 -0.21251751 1.0065451
-0.33561233 -0.19720173 1.4495265
-0.94176167 0.026984172 1.4827681
0.66806161 -0.040555999 1.2336075
0.28889564 -0.23417027 1.7519093
-0.88265932 -0.27208626 1.5674162
-0.44856924 -0.19371733 1.6686811
0.086010121 0.059185144 0.77841926
-0.98529685 -0.31656095 1.69679
0.12892935 0.058775146 0.36841333
-0.97565556 -0.31340957 1.6737063
-0.89746481 -0.16898784 1.5992284
-0.99224067 -0.31991228 1.7040176
0.72614807 0.083311647 1.3279231
-0.56792736 -0.025052104 1.0809882
-0.96639585 -0.29408082 1.6805258
-0.67649114 -0.24327135 1.3490276
-0.71872318 -0.18871531 1.3423281
1.0820639 -0.04806849 1.3367836
-0.73660558 -0.19179477 1.3492115
0.065221049 0.049281858 1.3816261
0.58479917 -0.20560336 3.5266044
-0.24696982 -0.38351601 2.5027616
-0.23789418 -0.27092656 2.1127563
-0.056341447 -0.39526296 1.9704323
-0.92468786 -0.21778876 1.4123173
0.53891158 -0.20242925 5.0680103
0.33186018 0.048089359 0.54207671
-0.52916729 0.06360773 0.70964837
-0.13230819 0.063378185 0.31932497
0.21161765 0.055038109 0.45747876
0.13581389 0.06187585 0.47832656
0.22938249 0.056350652 0.79554844
-0.19604695 0.055975739 0.25926614
0.36030897 0.046039604 0.8727026
0.33445981 -0.11119095 0.6117363
0.48997393 0.041174795 0.78562117
-0.35387853 0.056288771 0.46713305
-0.39017621 0.060024563 0.64080977
-0.1912789 0.057333793 0.26033902
0.44618928 0.045350466 0.61524963
-0.11726949 0.060254224 0.59175169
-0.59444249 -0.025621071 1.1293409
0.35611382 0.044880915 0.86010599
0.35373405 0.044594213 0.84904957
0.21267045 0.055638313 0.31389058
-0.67501581 -0.19746463 1.3382471
0.14047992 0.056537278 0.60151708
0.21380079 0.049705103 0.83351851
-0.36151075 0.056638282 1.1011248
-0.54900098 -0.02307222 1.0377378
-0.11017851 0.058527797 0.56986618
-0.62040389 -0.18547626 1.2716498
0.14518642 0.05967591 0.6251297
0.17993945 0.043666832 0.69524002
-0.4638617 0.027333066 1.5714631
0.083213769 0.058125366 0.7327559
-0.06446857 0.060929704 0.60671937
0.45709538 -0.15862598 0.94905424
-0.34335974 0.054346599 1.3850088
0.20895511 -0.19637856 0.99944139
-0.43842283 -0.19699095 1.8049233
0.14367366 0.055326153 0.73830891
0.3453466 -0.14671469 0.83867359
-0.37654322 0.059293702 1.527308
0.42783597 -0.16576269 1.716881
0.29693887 -0.19147056 1.1772149
-0.68652147 0.062783569 0.91502452
-0.91568696 0.064344078 1.1929722
-0.54960608 -0.034836203 1.0616498
-0.9165107 -0.1683889 1.4804025
-0.96426749 -0.29083061 1.6177976
0.39948016 -0.18473515 1.9069231
-0.49833861 -0.12237191 2.0779803
0.082375713 0.056743629 0.74014139
-0.37664664 0.034153704 1.916523
0.0082175061 0.060441189 0.3188926
-0.49516901 -0.12164724 2.0710158
-0.42563131 -0.25511181 1.2246153
-0.23684025 0.07393349 1.9338105
1.0563352 0.13274357 1.9605007
-0.3465375 -0.2813164 1.2775075
-0.44464391 0.046045817 1.685293
-0.27955931 0.026834711 1.9463658
0.062142216 0.047754593 1.3071487
-0.25059983 -0.22115473 2.2428362
-0.71535248 -0.16572735 1.3719099
-0.34969378 -0.082542315 2.598465
-1.4338462 -0.42701873 2.2924254
-0.56013834 0.066894308 0.68694615
0.48708406 -0.20743999 1.0668013
-0.91346383 -0.21244709 1.4693654
0.40185335 0.046370637 0.54872227
0.3745639 0.049418997 0.47202206
-0.12973258 0.062361144 0.30823636
-0.1692487 0.056298297 0.27153707
0.34184775 0.049443685 0.56371272
0.061051197 0.060625717 0.35800862
-0.066425316 0.061463773 0.3502723
-0.18663171 0.05584541 0.47574854
-0.51462638 0.060500212 0.79648972
0.19784245 0.059904352 0.34560168
-0.57956719 0.058737133 0.87354207
0.20108774 0.059680797 0.31992173
-0.89967626 -0.21138772 1.519489
-0.069435544 0.058478054 0.46782649
0.088858895 0.061001688 0.25617814
0.23286775 0.054155719 0.32080793
0.1658476 0.060311463 0.42378509
-0.52503896 0.062556066 0.95779371
-0.59262741 0.05574479 0.96723366
0.35878605 0.045957923 0.53485656
-0.67067063 -0.27818644 1.3274081
0.12872767 0.055690996 0.42325473
-0.19664609 0.056310885 0.26009452
-0.56594491 0.067321263 0.69486785
0.33383927 0.052425683 0.38999498
-0.40518218 -0.22381094 1.2195923
0.36387977 0.047991835 0.45605457
0.25193763 0.054138292 0.31680906
-0.23624393 0.051919885 0.77063894
-0.16966012 0.056227472 0.27198422
-0.6192525 0.046517197 0.88918328
-0.1965234 0.055217411 0.55006516
-0.16789493 0.058219772 0.32712305
0.285909 0.045358762 0.71586585
-0.14137024 0.061813038 0.47019553
-0.38488761 0.059968211 1.1914787
-0.39633361 -0.2163312 1.1900067
0.38897803 -0.17292979 0.92839408
-0.60299933 -0.23759478 1.2356174
-0.10559944 0.06147629 0.31707692
-0.11627003 0.062009171 0.61266255
-0.89777386 -0.21168026 1.51653
-0.17357054 0.061509274 0.48827374
0.31826803 0.0075198803 0.9562614
-0.62247872 -0.13689673 1.2858925
-0.76320118 0.01797469 1.235795
-0.83613199 -0.01252032 1.3744285
-1.0320122 -0.24148944 1.7106457
0.14580065 0.058289543 0.63718975
0.14053586 0.054904439 0.7186265
-0.11283358 0.061709318 0.64372253
-0.17760956 0.054324482 0.62935519
0.008985199 0.060438681 0.3218528
0.20593125 -0.21160753 1.1842909
0.0021049678 0.060953528 0.50932205
-0.47410962 -0.18559097 1.444406
0.16939086 0.074594356 0.51092744
-0.17362511 0.061584279 0.48942256
-1.1501646 -0.32285392 1.4967978
0.0020689145 0.059249148 0.49620056
0.23522678 0.053203177 0.93358588
-0.25645185 -0.40106189 1.9509101
-0.65133148 -0.186911 1.2949889
-0.44854942 0.022104438 1.8334215
-0.48917827 -0.11793284 2.0415595
-0.45276728 0.019773867 1.8513162
0.16710946 0.054451197 0.92962027
-0.06726829 0.058769003 0.48373795
-0.48182681 -0.00025294069 2.097415
-0.36529449 -0.24806416 1.2028875
-0.54147512 0.019464236 1.5081217
1.0009595 -0.076140016 2.5744004
-0.43352658 -0.18389413 1.5777314
-0.57294267 -0.24343377 1.2168293
0.2559073 -0.16907933 1.1112716
-0.30890992 -0.19656913 1.8757694
0.47625139 0.047618903 0.68308139
-0.45903692 -0.20138316 1.7172503
-0.4492183 -0.18385352 1.7335787
-0.68676919 -0.084278934 2.6638095
0.30933413 -0.18059807 1.4794104
0.3645834 -0.18771583 1.8313239
0.2871801 -0.20504671 1.30375
0.21017578 -0.19987194 1.2028356
-0.97923291 0.042396203 1.2653961
0.8128103 0.28473061 1.9471295
0.078797095 0.048517808 1.4570644
-0.19394737 -0.35792145 2.719877
-0.42752817 -0.044233754 2.9272296
0.4962987 -0.35883531 4.6902084
2.4477365 0.22355548 3.131357
-0.22366694 0.048262887 0.35734367
-0.77731508 -0.0083491197 1.0333207
0.062058367 0.062326685 0.36975777
0.337396 0.048591364 0.72386765
0.2340757 0.054182235 0.3188138
-0.1655741 0.057332262 0.26272953
-0.42860278 0.065888345 0.55469549
0.33110243 0.044854157 0.64609265
-0.23772043 0.056259025 0.43795085
-0.0634299 0.056702398 0.30843902
0.32548717 -0.0032313718 0.61670029
-0.67294961 0.068521112 0.88113189
0.16926867 0.060789451 0.33597255
0.49700901 0.043068953 0.80011916
0.50271499 0.042337693 0.80916119
0.48403269 0.038567364 0.75429296
-0.55287004 0.067089513 0.87156248
-0.096097402 0.054520652 0.42449248
0.40949872 0.044282608 0.49412799
0.22561875 0.053395588 0.30957115
0.23744923 0.054920871 0.48592949
-0.16541719 0.057884298 0.32466388
-0.57009315 0.046513095 1.1398015
0.30293515 -0.0061539514 0.56325424
-0.20883203 0.053498566 0.43340313
-0.2003684 0.057583895 0.25655675
0.20249936 0.06173449 0.35722268
0.48270395 0.03888524 0.7520175
-0.42426971 0.065264881 0.59728336
0.55879873 0.042261906 0.81250954
-0.067409508 0.060984649 0.28581047
-0.24384278 0.05221916 0.52517033
-0.097104423 0.055382814 0.43069291
0.5696137 0.042997528 0.83274841
0.22940964 0.05352328 0.3146143
-0.22317359 0.02541087 0.51529431
-0.069273055 0.063232072 0.29778588
-0.19543827 0.056071185 0.2582438
0.19264039 0.058231223 0.33593082
-0.10559241 0.059466876 0.46951771
-0.18714711 0.054816492 0.54566312
-0.23587072 0.054894757 0.51822436
-0.092184998 0.059400942 0.30511463
0.4072502 0.043816492 0.49086344
0.34801602 0.048982199 0.40428567
0.52329302 0.041583329 0.68148041
-0.18109727 0.055598967 0.27218413
-0.097191833 0.062621236 0.32460582
-0.0089636147 0.062147979 0.3184644
0.31222805 0.041960791 0.60155165
0.31741217 0.043241825 0.61024904
0.20364192 0.061871585 0.3596226
0.13995677 0.05866738 0.44615579
-0.23617107 0.055705134 0.43437016
0.015275098 0.061205436 0.29548395
-0.25478238 0.055497177 0.55358708
-0.58764136 0.061719231 0.8807776
0.17060006 0.061214641 0.33930385
-0.23336911 0.026813641 0.54294217
-0.60917932 0.057918008 0.95838284
0.21554866 0.056469709 0.31769729
0.22605693 0.052996129 0.31007707
0.33671895 0.053036869 0.39395225
-0.066903196 0.060719505 0.28347087
0.41497895 0.045202002 0.50104833
-0.9049167 -0.16928498 1.5338173
-0.16475448 0.05707128 0.26097023
-0.16006482 0.061847925 0.3361007
0.2127409 0.054397825 0.45969629
0.82463604 -0.16366388 1.2199535
-0.068052039 0.057325441 0.46199131
0.27263471 0.047109354 0.79691148
-0.67004365 0.04632074 0.93074036
0.14262477 0.060615517 0.53058028
-0.71702701 -0.30520055 1.4443259
0.50976497 -0.17671447 1.0729983
-1.1013043 -0.0041885851 1.5316393
0.13385853 0.058652524 0.60232401
-0.6709016 0.059614781 0.89822006
-0.12755874 0.057957549 0.58898187
-0.1786038 0.056031041 0.56503725
0.19910261 0.055525307 0.61116815
-0.90554106 -0.26992992 1.4760966
-0.96644866 -0.016319133 1.6097708
-0.060100794 0.061802693 0.4582231
-0.37674573 -0.19969217 1.2061579
1.5881455 -0.14567323 2.3312275
-0.88360965 -0.016650293 1.4694407
0.61566603 0.023985062 1.3746803
0.48541161 -0.16622858 1.0971813
-0.46741697 -0.21209225 1.3418443
-0.90072018 -0.014675506 1.4905126
0.30225757 0.047844097 0.77993441
-0.24539706 -0.16242057 0.89421415
0.14131168 0.05928871 0.45186877
-0.92543381 -0.015284433 1.5328071
0.24418369 -0.18216921 0.99472308
-0.67805588 0.03662353 0.95545983
-0.64571476 0.015620751 0.92221189
1.116946 -0.15024571 1.5965841
0.34513727 0.0079879761 1.042572
0.42978135 -0.1860483 1.1716998
0.28242561 -0.13306771 0.71673942
-0.63539696 0.014771458 0.90618253
0.46294934 -0.19213942 1.0580206
0.067336194 0.059173785 0.49561119
-0.23999634 0.050909877 0.38403881
-1.1295257 -0.0052737789 1.6913998
1.2599399 -0.17469735 1.8252871
0.81651425 -0.14309116 1.2161341
1.2435682 -0.094084404 1.8114421
-0.81908727 -0.14718375 1.2623029
-0.87744057 -0.20985511 1.5563207
-0.92125356 0.014111684 1.4381464
0.75893378 0.020362057 1.8867788
-0.44862595 0.012191341 1.4603271
-0.62819409 -0.24845657 1.2951152
-0.19114381 0.049095504 0.9809258
-0.92830789 -0.0051015904 1.4876912
-1.1347715 -0.08183381 1.8817708
0.14493003 0.059744798 0.37093723
-0.71616709 -0.17026044 1.3362257
-0.12235681 0.037946127 0.41766286
0.14175439 0.059528913 0.51979458
0.78437912 0.019455574 1.9575002
0.14125538 0.05994435 0.48133981
-0.18731019 0.055497058 0.89598107
-0.91455019 -0.21583989 1.4976382
-0.072214879 0.061081134 0.60517192
0.15330842 0.056982905 0.97138
1.5229692 -0.16921782 2.3534539
-0.48888054 0.052246168 0.95287609
0.12682402 0.0098897405 0.40989208
0.53158885 0.0069537265 1.3404648
0.42392549 -0.14362754 1.5365829
-0.16984698 0.054325696 0.52115214
-0.42174247 -0.28857577 1.2805293
0.43639684 -0.16423032 1.7525582
-0.66205907 -0.19926655 1.0659337
-0.18156895 0.055292666 0.55905879
-0.23704824 0.054741431 0.54600942
-0.35299113 -0.20611492 1.2136946
-0.18200094 0.055193078 0.73160124
-0.38870275 -0.21567771 1.1744552
-0.99338281 -0.059726045 1.4495022
-0.069310457 0.025001902 0.6378839
-0.060645342 0.055963092 0.52045846
0.95740873 -0.028570302 1.1790957
-0.71709383 -0.088172816 2.7856638
-0.44835028 -0.047840748 2.3401353
0.2900292 -0.22920077 1.7484195
-0.10487052 0.055410467 0.57804883
0.69374895 0.089288481 1.1436725
-0.29387045 0.0033081388 1.8274858
-0.53383094 -0.10325515 2.527323
-0.20224816 -0.12298533 2.148916
-0.9356243 -0.16098899 1.4251354
-0.52386034 0.0062887305 1.4101646
0.17381546 0.055684067 0.97675991
-0.11278766 -0.06006372 1.1476736
0.86153626 -0.092340037 1.4737191
-0.33158955 -0.027563564 2.612577
-0.49752542 -0.12899297 2.9096606
-0.74479777 -0.23354773 1.3623788
0.2551356 -0.20353785 1.3648622
1.2768742 0.14972806 1.5082259
