# .PCD v0.7 - Point Cloud Data file format
VERSION 0.7
FIELDS x y z
SIZE 4 4 4
TYPE F F F
COUNT 1 1 1
WIDTH 466
HEIGHT 1
VIEWPOINT 0 0 0 1 0 0 0
POINTS 466
DATA ascii
2.0149353 -0.10986668 2.9399972
-0.088533223 -0.21315506 3.2158313
-0.14360994 -0.39785951 3.4615035
-0.059127092 -0.011502277 1.6307464
-0.086119413 -0.21187368 3.2220039
-0.10252398 -0.38531047 3.3520751
-0.10825968 -0.019371126 2.3757238
-0.095257521 -0.0066122152 1.5531816
0.83493501 -0.041779544 2.2597647
0.3255803 -0.1810538 1.1502523
0.041342795 -0.18291758 4.5335279
-0.18510127 -0.42970738 3.3807044
-0.61314851 0.017966432 1.1333189
0.29842424 -0.18944684 1.1414146
-0.73716313 -0.48909095 3.1258221
0.60372001 -0.032966036 0.90048933
1.0207365 -0.04852603 2.2920218
1.2797215 -0.2635164 3.2055759
-0.8208248 -0.41556835 2.9349046
1.216574 -0.25742993 2.1829476
0.17733872 0.0095992424 1.0741901
0.95487624 -0.032961052 2.2417774
0.36348432 -0.12873866 1.1583853
-0.99851197 -0.060819801 1.5523372
0.26283485 -0.048691873 1.3229957
-0.71148652 -0.43253991 3.3426466
0.18071991 0.010649953 1.0820189
-0.7816084 -0.28456554 3.575943
0.17681706 0.039458055 1.0247183
1.1155045 -0.45776239 2.6439266
0.54296541 -0.16002415 0.90691519
0.28131515 -0.022839073 1.2181191
-0.8774851 -0.37773779 2.7871318
0.18471068 -0.14839208 0.89986825
-0.78235847 -0.01773091 1.7561808
0.25504982 -0.024919171 1.2812619
-0.76388806 -0.10468172 0.98508453
0.33621216 -0.14039405 1.3097706
1.6835272 -0.35471249 3.281126
0.3413527 -0.11876667 0.97886896
0.06487751 -0.33636242 2.5732965
-0.62698001 -0.16818015 1.0352211
1.1860669 -0.11278947 3.0544596
0.17594022 0.011134878 1.0652103
0.22700828 0.039412003 0.6626482
0.07722199 0.057926133 0.40652609
0.15384412 0.032318946 1.0628896
-0.86719662 -0.060398344 1.871583
0.97199732 -0.03268047 2.29281
0.37424016 -0.075608581 1.310782
0.042516887 0.040511668 1.0767255
0.34010118 0.018022187 0.95289135
0.1744709 0.040497322 1.0045347
-0.41574287 -0.39096984 4.0849938
0.17877454 0.040099174 1.0397043
0.37418431 -0.083397493 1.3145766
0.22621435 -0.19187862 0.98860598
0.74764818 0.024462149 1.1156578
-0.45870978 -0.085298628 2.3781705
0.09540385 0.044612989 0.79567242
2.2044768 0.14060459 3.8977056
0.37642747 -0.024196196 1.1691494
0.20259529 -0.16416985 0.90113449
0.28911394 -0.21100333 1.7952323
0.36958116 -0.079052702 1.2939625
-0.027545094 0.040307999 1.0039272
1.0067699 -0.09859769 2.0666714
0.73654795 0.024744414 1.0795212
0.74811536 0.015339136 1.3675117
0.18143797 -0.16642047 0.88427043
1.0612586 -0.040870558 2.1128612
0.00071692467 0.03533015 1.523489
0.18091965 -0.16569443 0.88537383
-0.77466196 -0.090738535 1.8119702
0.35217804 0.034862883 0.66790533
-0.79227871 -0.49554387 3.1780934
-0.83321506 -0.42107517 3.0315533
0.31229317 -0.036690112 0.99014711
0.84868783 -0.03492308 1.6797476
0.51300997 -0.32521522 4.9748669
0.71773422 -0.042929698 0.8290441
0.36438441 0.019841988 0.90312195
-1.4035447 -0.12857027 4.8805242
-0.874731 -0.44677165 3.0923805
0.020966232 -0.54972118 4.5927892
1.3591599 -0.33793476 2.4626346
0.31515187 0.031283453 0.44326472
0.71561247 -0.028181169 0.83565426
0.3883689 -0.084300414 1.2944937
-0.72021514 -0.12318465 0.93806362
0.10214871 -0.56480217 4.4128895
1.1461258 -0.043895859 2.0939331
-0.35554653 -0.13552956 2.1302495
0.5233584 -0.33362287 5.0767298
-0.81791252 -0.44897431 3.078187
-0.87638015 -0.44410339 3.2276435
-1.0321481 -0.42385232 3.364306
0.1001963 -0.5651561 4.447854
-0.4611764 -0.26561341 3.0179954
1.2294362 -0.043812234 2.0930877
0.49804759 0.21177922 1.0460663
-0.71876603 -0.20782802 1.9319582
-0.84878498 -0.36683184 3.105444
0.2158488 -0.13248771 0.8801837
0.75420696 0.021187808 1.2124929
0.20688635 -0.15090524 0.86357856
0.17282563 0.050481506 0.50565624
-0.56906778 -0.21354091 2.1074939
1.0699131 -0.039154235 2.1257458
-0.67509645 -0.43367761 3.1881347
-0.79113573 -0.28937751 3.631484
0.096145689 0.045110181 0.7977078
-0.90359479 -0.42228395 3.0756412
-0.18488556 0.048191205 0.57937312
-0.22162437 0.045607768 0.57864141
-0.50122446 -0.19458868 0.95740557
-0.7531876 -0.089211315 1.7626543
0.70473027 -0.088903576 0.83716106
-0.19497854 0.052821878 0.35624099
0.23133218 -0.16891733 0.83332491
1.2482853 -0.10958059 2.1215072
0.075067282 0.055063419 0.39440322
-0.74802917 -0.082275808 1.7202897
0.33631521 -0.14285022 1.3220329
0.24531639 0.020277698 1.2538815
0.27258742 -0.11177115 1.5616546
-0.93346387 -0.41406819 3.1577954
-0.098000407 0.055731438 0.34946394
-0.73439461 -0.40120164 2.0307794
0.32456535 -0.07504493 1.3589673
0.071814746 0.056113947 0.27493167
0.22895575 0.040847417 0.66677332
-0.76416391 -0.035195153 1.7654018
-0.52605301 -0.18942071 0.99567127
1.1335669 -0.089186683 2.1012173
-0.64150518 -0.27107933 3.3720708
-0.78951699 -0.33266336 2.3196235
0.39946336 -0.14087495 1.2823749
0.19988447 -0.16306423 0.88667846
0.44639641 -0.17167279 1.0063119
-0.72861809 -0.35235646 2.9542327
-0.68538541 -0.45046684 3.7832141
0.40314156 -0.14190923 1.3020825
1.3099778 0.57880217 2.5287886
-0.52568489 -0.18741356 1.0274677
0.34498852 -0.05830342 1.3983827
-0.66138691 -0.0049536563 2.6181631
-0.51528168 -0.18580505 0.96960163
0.28305161 0.075374961 1.2840195
0.13033831 0.056247704 0.26587892
0.23402405 0.047684185 0.27874494
-0.052336395 0.050730906 0.5329144
-0.91739899 -0.24378017 3.0849862
0.22331595 0.037680965 0.64713502
-0.70911592 -0.39455339 2.0181837
-0.94685429 -0.39676917 3.0708761
0.32835013 -0.13990802 1.2833056
-0.68166631 -0.43634841 3.7110252
0.3797341 -0.13834094 1.322094
-0.75453919 -0.078206047 1.3464975
0.3901003 -0.071872085 1.5734143
0.30604661 0.037990618 0.44305468
0.16913378 0.049921803 0.50112605
0.3140043 0.031993259 0.44122338
0.21186602 0.053537592 0.33888006
-0.19595981 0.04517537 0.56238842
0.15788627 0.051892169 0.52331209
-0.83050412 -0.41426602 3.0549788
0.22603452 0.041151136 0.65250301
-0.055637956 0.0570569 0.26687908
-0.50648099 -0.17861526 1.0010023
-0.13615984 0.058128536 0.36147237
0.33226085 -0.12608005 0.79548836
0.80495495 -0.2106154 1.8951144
-0.051584542 0.052573424 0.35191584
0.74194813 0.021731989 1.1958313
0.36279392 0.0065397024 1.1972389
0.084734082 0.050159391 0.60312629
0.43101662 -0.088017285 3.4029255
0.38970721 -0.2206507 1.1321025
0.30646342 0.017299565 0.856282
0.36363822 -0.061412755 1.3151956
-0.71294874 -0.38765132 1.9580507
0.068528324 0.054461401 0.26660609
1.4524679 -0.046752889 2.1768589
-0.92333192 -0.24076894 3.1104321
-0.097438544 0.055617943 0.34718919
1.430532 -0.044044476 2.1421156
0.1543203 -0.25660104 4.2248554
0.089826226 0.052777544 0.65056777
-1.0779033 -0.048881073 3.6113372
0.36821836 -0.021547284 1.426352
0.29759377 0.037205115 0.49010801
-0.19195169 0.058253631 0.28132939
-0.79353064 -0.00081786513 1.7902422
1.4542313 -0.047377694 2.1786432
0.49371135 0.20974636 0.96879673
0.072425097 0.056321688 0.27465081
-0.77292293 -0.27959594 3.0320497
0.33035004 -0.12535007 0.79375362
0.44325137 -0.17082058 0.98807001
-0.56996822 -0.47153494 3.9148793
-0.39036804 -0.094721228 2.5650449
1.5156028 -0.070573106 2.1310482
1.0607488 -0.080693007 2.16991
1.4441941 -0.04652724 2.1553206
0.6861124 0.028495081 0.84250355
0.31602317 0.02505428 0.44393039
0.71105903 -0.042268556 0.81831169
-1.0490451 -0.42144427 3.4150853
0.31916368 0.01137514 0.4331522
-0.72202021 -0.48748901 3.0848737
0.28006905 -0.32632971 4.0662932
0.3355701 -0.15095158 0.81036377
-0.64664882 -0.16353899 0.90667915
0.36068517 0.034926333 0.69573498
-0.19083112 0.042936105 0.71134901
0.33008754 0.041839752 0.46508574
0.22038352 0.04751255 0.38743329
-0.75161594 -0.12679644 0.98077393
-0.79422671 -0.0022261366 1.7929368
0.35950834 0.036096387 0.47480512
0.22160351 0.047064099 0.43662596
0.3579396 0.03503307 0.68749571
0.19930607 -0.0019820966 0.66373229
0.45125282 -0.17479345 1.0047917
0.16059941 0.010147266 1.0868387
0.33434331 0.01529165 0.9228878
-0.052546471 0.053813078 0.37178659
0.23414272 0.047955614 0.2784934
-0.67371243 -0.17178553 1.1914368
-0.17813873 0.044538792 0.58774805
-0.17485839 0.042120919 0.90080786
-0.69282109 -0.16314198 0.93011236
0.23564917 0.03029244 1.1748786
0.39600021 -0.084943667 1.2846169
-0.68656415 -0.16070765 0.98983717
0.70358306 0.011848759 0.84087634
0.28544247 0.03406515 0.41148233
-0.18524969 0.043192353 0.67437506
0.1181882 0.035900962 1.1247382
0.20592391 -0.20892704 1.5423336
-0.45089513 -0.17328301 0.94438887
-0.05506143 0.051661275 0.52321291
-0.62539738 -0.35883483 3.9249759
0.72473305 0.025550105 1.0555382
-0.36817378 0.053322278 0.62357116
0.082029462 0.051575065 0.51044059
0.16925746 0.056833185 0.27230167
-0.54432052 0.0061166994 1.2611432
-0.82529789 -0.37136739 2.1662693
0.37568635 -0.13520977 1.2947049
-0.18319577 0.048024204 0.57554221
0.36898476 -0.15452316 0.72329473
-0.54554194 -0.14532983 0.96020985
0.22366852 0.043145485 0.28626776
0.07378161 0.054340094 0.38702273
-0.45684612 -0.20429374 0.97443342
-0.19187027 0.059481788 0.25880146
-1.1159856 -0.11610761 1.8072882
-0.053200901 0.055327877 0.38822269
0.33259553 0.021520866 0.87068486
-0.064277232 0.057547078 0.27314711
0.36576897 -0.083725914 1.2945118
0.22418791 0.047180772 0.441257
0.39931875 -0.16034494 0.71968794
-0.89769703 -0.16760197 1.9966397
0.29411268 0.036393311 0.48395395
-0.48186022 -0.18779717 1.0264645
-0.46963567 0.047160216 1.0016022
0.43753344 -0.12201028 0.99332142
0.14499199 -0.13914861 0.71916461
-0.055151045 0.050849967 0.49903536
1.1702387 -0.29977006 2.9227214
0.36651838 -0.063406825 1.3117142
0.21679246 0.042373769 0.48996687
-0.046031475 0.048537664 0.58104467
1.4343953 -0.064864695 2.0120378
-0.80121249 -0.095508516 1.8473854
0.08263582 0.038514428 0.67950201
0.18017888 -0.20277603 1.4853034
0.1787166 -0.14029495 0.85535645
0.31891924 -0.058906246 1.5635309
0.2261582 -0.16506746 0.81448793
-0.77258247 -0.010380458 1.9416838
-0.72633141 -0.39797461 2.0065594
-0.66949493 -0.15911025 0.96123505
0.17554688 0.011148028 1.068656
-0.803011 -0.32334304 2.0899134
2.7158062 -0.59260517 3.9509759
-0.6984517 -0.26907817 3.2328405
0.072081268 0.052926004 0.36192679
-0.67983633 -0.16912906 1.1895223
-0.79395288 -0.51824361 3.7407355
-0.65653282 -0.30832112 3.4303956
-0.68542737 -0.39739743 3.6125717
0.23016179 -0.080842912 0.7174201
-0.77077454 -0.089609042 1.7870984
0.35355198 0.034384303 0.55478716
0.29595214 0.0097697042 0.41619968
-0.49742895 0.044037864 0.83856392
-0.57604855 -0.20214598 0.95177078
-0.17314136 0.057800658 0.27231336
-0.15393883 0.063986883 0.4296174
-0.48147064 0.036633372 1.032722
-0.56590211 0.059183374 1.0189762
0.19738454 0.039018489 0.44294429
0.306081 0.030996539 0.42895508
-0.18765217 0.045028873 0.89037251
-0.070266157 0.05041144 0.45055461
-0.063987315 0.055424608 0.31036067
0.40445769 -0.10987721 0.4780345
0.067121476 0.053279858 0.25135064
-0.35052651 0.050761677 0.5879705
0.323627 0.010461103 0.4445672
-0.50505495 -0.17956245 0.93116808
0.3673166 0.038858928 0.48800802
-0.19498819 0.046373013 0.56965446
-0.13568509 0.057577521 0.32006693
-0.68976051 -0.16215515 0.92714787
-0.53200364 -0.21691367 0.99186802
-0.066141486 0.059158791 0.2826581
0.86459219 -0.22202796 0.99361992
0.37199986 0.016557362 0.93644094
-0.69312078 -0.14008394 0.87307382
1.0878885 0.33770269 1.5993271
0.17591387 0.055236839 0.24842763
-0.049831748 0.052113332 0.30026841
0.34634823 -0.15414925 0.83313704
-0.14098638 0.05702953 0.32813168
-0.53725344 -0.19773936 0.94517088
0.30661851 0.03884536 0.4416523
0.31321949 0.035313863 0.4453609
0.14186072 0.055607084 0.3258121
-0.64072055 -0.16267893 0.8540132
0.14259732 0.056143679 0.32908583
0.0032059252 0.057350568 0.31104207
-0.17937809 0.052547276 0.59269691
0.20011258 -0.14808151 0.96618795
0.71717328 -0.05671059 0.84797454
0.71939379 -0.048429001 0.8386035
-0.15572238 0.058320157 0.27346253
0.29360151 0.01031455 0.41877437
0.37113738 0.013879746 1.2899108
0.42067105 -0.095199868 1.3644166
-0.05311498 0.055582993 0.32505441
2.7985079 -0.60955346 4.082448
0.32614577 0.015300194 0.89563322
0.099439025 0.04880961 0.81296706
-0.76062375 -0.048570659 1.7575183
-0.62873322 -0.28307778 3.1852965
1.0176713 -0.25637996 1.9665194
-0.66570109 -0.33555639 2.333499
0.90814 -0.20692161 1.0498085
-0.79401797 -0.28897792 3.0761881
0.17702919 -0.19950722 1.4531455
-0.13212043 0.038524002 0.91910648
0.070036441 0.057278905 0.27800369
-0.034391671 0.043744382 0.80337119
-0.8894034 -0.39054498 3.041636
0.52933735 -0.043442074 1.7892861
-0.67878073 -0.55234766 4.7125831
-0.053014189 0.054913461 0.31060076
-0.057564825 0.051535621 0.29607296
-0.19836456 0.052445449 0.36422491
0.22473919 0.044221986 0.50433111
0.078872025 0.058522463 0.33252525
-0.21949679 0.051286414 0.3398211
0.71296084 -0.042103652 0.81976914
-0.15194833 0.058568154 0.2773838
-0.056829691 0.058008395 0.27458334
0.18238038 0.056941316 0.24657965
-0.19815391 0.053773087 0.27045846
-0.10067624 0.053007942 0.39553881
0.49248987 0.034526549 1.1366663
0.2124064 0.048269954 0.38816285
0.22116894 0.047095183 0.4349494
-0.10535812 0.062103145 0.28008223
0.15856874 0.058656827 0.57286
0.25162536 0.045243453 0.29829574
0.72019124 -0.045235332 0.8569293
-0.099914551 0.054170705 0.49014306
0.68690079 0.015966242 0.81435061
0.31314558 0.032003503 0.43939519
-0.048810154 0.050600909 0.35044336
0.69186938 -0.0056305118 0.81884122
0.44483614 -0.19135797 1.0261707
0.18185729 -0.16804624 0.89012671
-0.9998377 -0.05566125 1.5540266
-0.46509212 -0.18039638 0.91709995
0.0025727749 0.055000048 0.29006457
0.42556304 -0.13923019 0.71763802
0.31754839 -0.10309979 0.86396694
0.12834764 -0.099681422 0.58255601
0.37176138 0.029409559 0.75341392
-0.098656088 0.056517407 0.27159882
0.21479946 0.046165347 0.37777519
0.39694113 -0.12960728 0.71336365
-0.0995 0.056439128 0.34999609
-0.097058892 0.055813119 0.34897494
-0.37303823 0.054035455 0.63981843
0.33702123 0.026047809 0.47691131
-0.097942799 0.056119308 0.35251546
0.085865408 0.054987356 0.26731157
0.30472654 0.025341913 0.42507148
-0.20739692 0.063826062 0.30214238
-0.057404727 0.059703257 0.34234476
0.13015413 0.056639384 0.28375101
0.17246324 0.053508554 0.41812015
0.33372909 0.047344524 0.40679908
0.22552472 0.046442192 0.49417925
0.37342793 0.029123578 0.75668192
0.60769111 0.033391017 0.69918609
0.20915538 0.056971118 0.24720955
0.69551307 0.015131418 0.8262639
-0.17717916 0.07551647 0.48205829
0.22939897 0.040999427 0.67000985
0.37675285 0.013037946 0.52661276
-0.12951171 0.055134833 0.35617709
0.70222867 -0.088971004 0.83473778
0.17530942 0.055829428 0.3088932
0.40440595 -0.1544971 0.98437881
0.19046211 0.056016065 0.560251
-0.15139776 0.055890743 0.28379393
0.70914894 -0.0069667548 0.8432045
1.0616498 -0.083677664 2.1092701
-0.79393822 -0.056094248 1.7825537
0.34763199 -0.090090066 0.84361815
0.82556814 0.25780445 1.1514511
0.13625139 -0.054036025 0.31940675
-0.057732642 0.053831708 0.54134536
-0.062968135 0.054334186 0.29520702
0.7094512 -0.0072654672 0.84356523
0.70337152 -0.088781044 0.8364737
0.29671836 0.02952634 0.44205379
-0.60816437 -0.40710726 2.5778275
-0.043733895 0.046638146 0.55754423
0.68879628 -0.054151122 0.81364441
-0.69560868 -0.037828278 1.6203008
-0.098959923 0.04140202 1.1216302
1.0442016 -0.038742807 2.0761852
0.5864132 -0.074293226 1.4040718
-0.80363435 -0.32572109 2.093029
1.0632277 -0.066552535 2.119494
0.17052901 -0.13000898 0.84836006
-0.042091131 0.044898037 0.72707629
0.31428188 0.031515814 0.44127512
-0.48638791 -0.016714964 2.3099704
-0.19406778 0.056802347 0.67423081
-0.76619142 -0.010944795 1.9496903
-0.14881903 0.057446525 0.27575374
0.36056447 -0.13825876 1.3370914
0.38882649 -0.10811608 0.51548386
-0.84450549 -0.15797921 2.001574
0.16297179 0.0084825419 1.1329217
0.3807857 -0.098922849 0.92356062
-0.45169336 -0.16906144 0.9458828
-0.64395171 -0.3432982 2.974721
-0.63123506 -0.33401299 2.8791857
-0.60467893 -0.38134393 2.9644589
-0.17734843 -0.016516592 1.4461617
-0.50263566 0.019676896 2.6982679
0.5444774 -0.13391741 0.98068047
-0.44724005 -0.17326613 2.6777344
-0.46563202 -0.18125923 2.7708836
-0.33081776 -0.14419115 2.3972211
