# .PCD v0.7 - Point Cloud Data file format
VERSION 0.7
FIELDS x y z
SIZE 4 4 4
TYPE F F F
COUNT 1 1 1
WIDTH 626
HEIGHT 1
VIEWPOINT 0 0 0 1 0 0 0
POINTS 626
DATA ascii
1.6103494 -0.10032296 2.686275
-0.14728308 -0.18948402 2.8191247
-0.20811367 -0.37344596 3.0911598
-0.14222676 -0.18677521 2.7844
-0.17268395 -0.37321118 3.1493573
-0.20953709 -0.30456844 2.9993763
0.61866236 -0.042109918 1.4926391
-0.097991467 -0.32886216 4.2481813
-0.0413692 -0.15109944 4.0723076
-0.25013232 -0.40791458 3.0352893
-0.80883479 -0.47629511 2.8175297
1.9899423 -0.081045553 2.966651
0.14366949 -0.075354025 2.4370885
1.1962113 -0.2281934 2.7781658
-0.21283275 -0.36397767 2.8576241
1.101321 -0.21310852 2.1790161
-0.76096261 -0.44490778 2.8501821
0.98038733 -0.28274149 2.1041121
1.1103705 -0.27276227 2.0671277
0.23748249 -0.035768222 0.95960379
-0.76335657 -0.40539739 2.9134407
-0.86881053 -0.083108932 1.5423937
0.15655875 0.050698452 0.64950085
-0.82615745 -0.008330889 1.4098282
0.70125389 -0.017519116 2.4962583
0.014737725 -0.39185998 2.9246235
1.5022132 -0.057881478 1.8825259
1.7091842 -0.066592187 2.1130791
0.15498489 0.022501439 0.69079971
0.34532398 -0.061840866 0.92832088
0.17457098 -0.16568583 1.0779781
-0.53646708 -0.39398149 4.1009688
0.15850568 0.050872535 0.66661072
0.34789711 -0.069694251 0.94726324
1.1057576 -0.025090575 1.7546239
1.9962374 0.15524369 3.2657337
1.1401306 -0.024206385 1.7359676
0.19634247 0.038516145 0.7101326
1.1213067 -0.070328698 1.7384362
0.71609688 0.030076716 0.99965334
0.99844086 0.089090779 2.1362133
1.0126069 -0.021231081 1.7449698
-0.026387513 0.048164371 1.0749769
-0.81283307 -0.077898309 1.4450126
-0.83518779 -0.46118638 2.7280912
0.32087898 0.032685384 0.52645016
-0.85792625 -0.38556585 2.5329304
0.41946769 -0.29303652 4.6224074
-0.81540358 -0.36098436 2.7013311
-0.79059088 -0.24403781 2.9109945
0.29106575 -0.085020706 0.99703503
-0.94408953 -0.43335071 2.7629905
4.2328229 -0.17158163 6.1008143
-0.067527056 -0.52781427 4.3304629
0.020445704 -0.52663004 3.9766502
1.1078892 -0.025578666 1.7524381
0.42917824 -0.30124003 4.7393966
0.32154113 -0.018224712 1.0426903
-0.92154026 -0.41560581 2.7904239
-0.86713243 -0.28152579 2.727406
-1.0896591 -0.40093538 2.9688182
0.017726183 -0.52560854 3.9971595
-0.69355452 -0.32502735 3.8672805
1.1779709 -0.024695899 1.7248492
-0.86022103 -0.22839898 1.8664985
0.28755343 -0.079033583 0.89099169
0.7413007 0.034999169 0.88319302
1.1353153 -0.061492939 1.737083
-0.054028988 -0.49784017 3.9990139
-0.73329341 -0.4121117 2.8112621
-0.83873284 -0.28153628 2.8587871
-0.87994969 -0.45080307 2.7711124
-1.0727375 -0.32723016 2.8817072
-0.99226654 -0.39516586 2.7823343
-0.31503719 -0.39484254 2.9912786
0.21668667 0.050531492 0.30521226
-0.83606505 -0.025729258 1.4879313
0.2777015 -0.021336343 0.84016705
-0.81637156 -0.34619737 2.7245564
0.32274228 -0.045624655 1.0735307
0.31010419 -0.096994191 1.0402732
-0.75938237 -0.38615957 1.6842432
-0.98819673 -0.2272847 2.75421
-1.0517972 -0.39778411 2.858099
-0.77198088 -0.41958776 3.4457383
-0.48446888 -0.06996122 1.8821192
0.37717295 -0.061253104 1.3001699
0.96912003 -0.062835768 1.5858607
1.0053798 -0.25873846 2.1686106
0.36465251 -0.063696966 3.0209851
0.33375376 -0.048129681 0.9327836
1.3891521 -0.025462758 1.7981954
-0.98382127 -0.22119331 2.7410698
0.078537822 -0.24644572 4.2360358
-0.83108032 -0.041379582 1.4150786
1.1696508 -0.084033132 1.6840048
-0.81789601 -0.2549178 2.6108956
0.12676871 0.031371403 0.79261875
-0.76135588 -0.52494311 4.3385553
0.45493579 -0.10343502 1.3044586
0.21439993 -0.014979288 0.84920883
1.4648579 -0.047804762 1.7763133
-0.87220669 -0.36086237 1.8020887
-0.79414642 -0.47437608 2.7772079
0.20376182 -0.29740351 3.6948557
-0.44200099 0.044902764 1.3443508
-0.20578837 0.052119441 0.35072136
-0.8307606 0.012140084 1.4224815
0.13858873 0.021522919 0.70565367
-0.47175068 0.034504104 1.1596322
0.1638273 0.022005955 0.67142534
0.20214409 0.040756922 0.73575878
-0.76297784 -0.367524 1.6944551
0.37116563 -0.071811318 0.92233467
0.085412621 0.046528697 0.5904851
-0.91197741 -0.25825292 2.7650204
1.0020176 -0.018801607 1.7364197
0.22407717 -0.016756594 0.99451923
-0.71059239 -0.33871722 3.6270866
-0.88026464 -0.36202815 1.8309789
0.35152787 -0.12193407 0.93455076
0.30730325 0.027252564 0.5365777
0.32016659 0.032691292 0.5240078
0.34384692 -0.071368694 0.9436183
-0.94508696 -0.15510154 1.6417956
0.33698601 -0.049505416 0.93047667
0.15238506 0.022340318 0.6819458
-0.83709598 -0.30518427 1.7011471
-0.77651131 -0.25451475 2.9469962
-0.77237523 -0.44137037 2.951447
-0.73078513 -0.28840575 3.1085739
-0.81790411 -0.078005612 1.4458013
-0.50490695 0.047061548 0.66911507
-0.194152 0.053313717 0.47856092
0.16504973 0.022418529 0.67528009
0.33852589 0.025635507 0.89313316
0.076619804 0.054071773 0.3642993
-0.82160842 -0.032141183 1.4492135
0.71606445 0.033466645 0.85695887
-0.83816063 -0.26450372 2.6481071
-0.16687644 0.053667895 0.67488718
-0.18571907 0.051409725 0.50465608
-0.048964053 0.052589707 0.42577052
0.084845245 0.047584303 0.57533312
0.35391402 0.023710951 0.92335987
1.5682956 -0.065388352 1.8091283
-0.83145487 -0.041887421 1.4159017
-0.78945577 -0.027906302 1.3926573
-0.1182183 0.051919356 0.73983812
-0.89549208 -0.33163291 1.8619056
1.1462752 -0.024027161 1.7394385
-0.74876809 -0.38937232 2.8027339
0.13430136 0.019234154 0.69387865
0.36042106 -0.085182652 0.55073547
-0.6976701 -0.37139356 2.7662692
-0.45181847 -0.028501932 2.9247689
-0.66536176 -0.20692983 3.3200479
-0.57021093 -0.19520603 3.4756804
0.72843075 0.030881766 1.023459
0.20725578 0.047729082 0.72639179
-0.90534163 -0.3605023 2.8054552
1.1108646 -0.070672944 1.7195649
-0.36231315 0.05454633 0.69762087
-0.6510874 -0.28926206 3.7694106
-0.84812582 -0.25880271 1.6939006
-0.68958807 -0.061008532 3.5323515
-0.16299146 0.047752831 0.84001827
-0.95416009 -0.28498384 2.7556386
-0.82868564 -0.2830562 1.8025775
1.0816932 -0.070108533 1.7337027
-0.85710418 -0.3619591 2.881824
-0.18426657 0.056954946 0.39723301
1.0132482 -0.082439631 1.8206663
1.0186071 -0.27997911 2.2050643
-0.7912153 -0.076438412 1.4042263
1.1415025 -0.025301207 1.7369838
-0.77557254 -0.37196699 4.2541542
0.021993041 0.051146306 0.65843773
-0.80270398 -0.15620421 2.7005401
0.09094727 0.055733647 0.28120065
-0.2045027 0.052844033 0.3479991
-0.15185118 0.053640462 0.58696556
-0.9065783 -0.34633571 1.7537456
1.7379405 -0.39186329 2.1011558
-1.1650821 -0.45716447 3.0193172
-0.65237689 -0.25690871 3.3552012
-0.62109494 -0.54441303 4.4496665
-0.71358085 -0.36253247 4.1571317
-0.68370235 0.018960189 2.4418077
0.19326317 0.040132679 0.69753695
-0.80412245 -0.03003272 1.4146252
-0.82011378 -0.27651447 1.7595553
0.97191799 -0.19901797 2.0350122
1.4456506 -0.045123998 1.7490492
0.45411021 -0.13211121 0.59494829
-1.0909901 -0.39223334 2.6701035
0.090229332 0.051008373 0.6133213
0.18495709 0.04344029 0.66454887
-0.49577975 0.05813675 0.64614964
0.20734388 0.042112969 0.28500175
-0.35929167 0.053645078 0.69379044
0.5910579 0.029626776 1.0922737
-0.79202664 -0.023526102 1.4063425
-0.6571542 -0.023550265 2.6732616
-0.22114414 -0.20541838 2.5654535
0.34828174 -0.098197058 0.6344285
-0.9100219 -0.36341533 2.820775
1.3159333 -0.016283147 1.5625181
-0.67505705 -0.16241735 2.7514095
0.28120154 -0.079479724 0.92896032
0.39433897 -0.0017881133 1.1427708
0.019402325 0.049935699 0.59318876
-0.81922436 -0.07921958 1.4377484
-0.8398509 -0.080144435 1.4383368
0.21638632 0.051361717 0.29421425
-0.36562014 0.056200717 0.59275103
-0.89923179 -0.3869563 1.7890921
1.4580926 -0.047917198 1.7583618
1.1434996 -0.25876352 2.1979957
0.173379 0.049968705 0.64807034
0.17338932 0.049872953 0.65121174
-0.9322561 -0.33930922 1.73629
1.5313354 -0.042194713 1.9582233
-0.50457609 -0.14109895 0.65300083
0.30966282 -0.10644364 1.0689383
0.21179229 0.04160545 0.34359789
0.0630458 -0.15810537 1.1021738
-0.77462029 -0.02599455 1.4073801
-0.69701397 -0.25237972 2.9530964
-0.82581794 -0.498851 3.0386
1.7423978 -0.067852944 2.3999491
-0.47149456 0.034693915 1.1598434
-0.048999548 0.05353047 0.45534182
-0.77954626 -0.031165037 1.413403
-0.47122812 -0.055731211 1.9039307
1.0702325 -0.019848235 1.5584121
-0.63689744 -0.0035993978 2.6798968
1.9868623 -0.098346725 2.3444891
2.6568251 -0.39241052 3.5447135
-0.83300948 -0.25312945 1.658721
-0.66971123 0.00098435208 2.6244297
-0.69724619 -0.3716476 4.1749043
-0.62002254 -0.1915898 3.5869765
0.077455223 0.054051492 0.35365152
0.22192037 0.048909944 0.42089462
0.33477867 -0.1336842 0.68958759
-0.83998394 -0.14735846 1.6424713
0.36417884 0.041737452 0.75952673
0.071964204 0.057834461 0.24688888
0.28567785 0.03240063 0.53795838
0.15869588 0.050630324 0.67894602
-0.36019027 0.054312076 0.69863987
0.32929921 0.038061351 0.51116109
-0.19350576 0.054223888 0.48361969
0.34773791 -0.06629312 0.87423944
0.1691063 0.049108051 0.63426733
0.17557019 0.017859722 0.63852692
1.1467352 -0.25964829 2.201334
-0.094142616 0.0485771 0.67292118
-0.71179652 -0.37895277 4.2588
-0.87826419 -0.32684165 1.8159261
-0.14945376 0.054288909 0.59696102
-0.88665879 -0.38085565 1.7576084
0.12992281 0.039741904 0.80601597
-0.81704473 0.035983611 0.99695826
0.30089122 -0.099523082 0.89580679
0.20156628 0.047512971 0.71743059
0.13594735 0.041417006 0.84673691
-0.049256682 0.051813968 0.60957861
0.3119548 0.033066448 0.53098822
-0.84047997 -0.46136692 3.918787
-0.47975814 -0.12664972 2.8517728
-0.71604598 -0.22682238 2.9544177
-0.69667673 -0.018494174 3.8123245
-0.56872952 0.021132026 2.5409989
-0.64925516 -0.27035815 3.9044991
-0.50080979 -0.38413823 3.8930221
1.5166152 -0.021297142 1.8470526
0.31794286 -0.051193137 0.95250177
1.6977158 -0.1598746 2.4492688
-0.19471812 0.04171313 0.64034081
0.13615894 0.041705366 0.86608744
0.18053883 0.023205766 0.69311666
-0.11759281 0.057585865 0.32135987
-0.88425481 -0.034426872 1.4936843
0.13275927 0.05610567 0.29709363
-1.0040725 -0.22334433 1.7251101
-0.37077886 0.056696117 0.6512022
-0.5910573 -0.05783673 2.3542004
1.1213745 -0.30248412 2.6272044
0.077951789 0.054353386 0.36111999
-0.058991343 0.055367313 0.36745763
-0.86698878 -0.54657596 4.6493506
-0.41600358 -0.15899912 3.1824274
-0.16568971 0.048265979 0.85967588
0.34379292 -0.071468726 0.94333363
-0.89399993 -0.17130139 1.2195683
-0.79073668 0.014399175 1.4052405
-0.85715723 -0.24173146 1.6847172
0.018736184 0.050759442 0.6005578
0.31115961 -0.10706818 1.0501952
0.33829987 0.038488708 0.53346038
0.76915252 0.030051336 0.99687576
-0.19646585 0.055440124 0.28377748
1.1079351 -0.069550231 1.7075558
-0.91759157 -0.32811332 1.6966109
-0.86464489 -0.3255367 1.788065
-0.90987492 -0.27027285 1.711616
0.077707529 0.053994209 0.36397791
-0.21202344 0.053394135 0.27178574
-0.79666412 0.016156964 1.4199648
0.17289281 0.051848605 0.66355038
-0.95397305 -0.18571775 1.6359262
0.21852773 0.051123522 0.76412535
0.31376094 -0.027733084 0.52799249
1.1439272 -0.23422039 2.614418
-0.82657778 -0.29262489 1.7679877
-1.1901655 -0.22621644 1.7170281
1.5236026 -0.025306448 1.7508559
-0.097086072 0.051008537 0.71553659
0.21801925 0.04994756 0.38817978
-0.20479417 0.052018814 0.34916592
1.1463028 -0.045021225 1.7059031
0.21418011 0.051895905 0.30366445
0.13582855 0.050401248 0.74154806
0.30295622 -0.1474255 0.66434383
-0.51799822 -0.40643725 4.1212897
-0.87795711 -0.25208253 1.8005619
0.38301456 -0.078331977 0.95067596
0.33521265 -0.047814596 1.0164633
-0.10724258 0.052519195 0.5869565
-0.91049922 -0.34928051 1.8663678
-0.15548408 0.045966119 0.90314913
-0.18425614 0.051559381 0.50536394
1.4289629 -0.039719496 1.7817926
0.22798675 0.045447685 0.5913558
-0.18390912 0.057147302 0.39605165
0.081577539 0.053692013 0.47434115
-0.80836225 -0.26436973 2.6126733
-1.0697762 -0.42659479 2.7762594
-0.041227698 0.048061751 0.53023219
-0.21986753 -0.369542 2.9709282
-0.92060328 -0.29638064 1.6832194
0.13025159 0.048371017 0.7001729
-0.15209103 0.055059806 0.62048388
1.0379974 -0.31028602 2.1584344
-0.94602728 -0.43638682 2.7780995
-0.76842916 -0.46295586 2.7840633
0.12579316 0.045748711 0.66512299
1.8485506 -0.021777671 2.3453045
-0.020843029 0.046814658 1.0181913
0.59673536 0.01867966 1.5136576
1.0443902 -0.26787776 2.2678003
0.307845 -0.072441623 0.97287178
-0.18310905 0.055033475 0.43288565
-0.67143703 -0.38619232 2.717526
-0.7190038 -0.37960455 3.157495
-0.9756161 -0.31081045 1.7031741
0.21574277 0.050063808 0.33662343
0.14972776 0.065872215 0.31422114
0.70794129 0.030969672 0.97872496
-0.056533545 0.05354514 0.35766172
0.2185567 0.048832707 0.41267824
0.22311819 0.04070764 0.35630059
0.27599335 0.038507223 0.65036631
0.20234847 0.04796749 0.27411509
-0.50004029 0.058464162 0.65026426
-0.50752711 -0.12843435 0.70092344
-0.15165448 0.028899247 0.52140784
-0.47855514 -0.1195403 0.64899111
0.31677902 -0.11243379 0.94476128
0.22413081 0.048713461 0.73348236
-0.89064395 -0.16047406 1.6773648
-0.19332635 0.054130405 0.30621648
-0.36335742 0.055673953 0.62384462
0.97392464 -0.081624821 1.7618628
1.3152552 -0.22944424 2.0660033
-0.97014523 -0.32502186 1.7242246
1.3849301 -0.28833261 1.8168321
-0.048946321 0.054296579 0.46695828
-0.71016514 -0.16019776 0.89877462
0.017836928 0.052324634 0.61907673
0.15978312 0.054705765 0.94333315
0.31633109 -0.033260603 0.51923108
1.1697135 -0.047341187 1.741365
1.6619848 -0.041761789 2.2521501
-1.1489755 -0.45526043 2.9870157
-0.74199212 -0.41053668 2.8701835
-0.022074938 0.044015452 0.92969179
0.36896288 -0.067586616 0.9269166
0.13595212 0.013148837 0.81406689
0.43439996 -0.13041565 0.61141491
1.4102776 -0.26335451 2.2487125
0.30950111 -0.088532969 1.0457263
-0.52591741 -0.090282589 3.274899
3.8925471 -0.12684974 4.9190021
-0.49976981 -0.13959551 0.64628792
-0.23926497 0.055211075 0.37653279
-0.06042251 0.056328833 0.37093067
-0.051888466 0.053136654 0.34552741
0.23068279 0.047815431 0.29250479
-0.048382103 0.050547767 0.57658434
-0.055406868 0.057684105 0.24464798
2.1615481 -0.16388664 2.573184
-0.11663616 0.057406079 0.31848454
-0.13541085 0.045670778 1.052917
1.1339034 0.0091457218 1.3946128
1.0633174 -0.21266054 2.2484035
1.495886 -0.33794603 2.0130758
-0.78750026 0.020270884 1.406117
-0.12879211 0.043812659 1.008913
-0.37593734 -0.039282102 2.7736936
1.4409198 -0.25510204 1.9932833
-0.40494257 -0.24023959 3.1094127
-0.95159495 -0.22132444 2.6563807
-0.64962864 -0.11208799 2.5640907
1.1615955 -0.082555488 1.6652431
-0.86248016 -0.29002219 1.5283175
-0.81613767 -0.17442794 1.6722898
0.092941999 0.052800417 0.62672567
-0.4909488 -0.12529349 0.68041706
0.16723567 -0.14828514 1.1004143
-0.9755193 -0.19421728 1.3214722
1.4660062 -0.024633758 1.9075933
0.13596302 0.012386784 0.80674553
0.22817957 0.04744583 0.2884295
0.72261834 0.035105132 0.8499465
0.13179797 0.012307949 0.77558231
0.26364523 0.029757407 0.48330379
-0.78649533 -0.081945017 1.4375124
-0.49658275 -0.13999632 0.68243694
0.22539949 0.041158877 0.36142302
0.14094228 0.056584839 0.24561262
0.45588964 -0.12111664 0.54863262
-0.50107622 0.059173536 0.65124702
0.10860479 0.045259643 0.92631912
-0.16362613 0.047706798 0.85583496
0.13320625 0.052729193 0.38643122
-0.80267763 -0.26904655 2.7376657
-0.77920532 -0.37042257 4.2719488
-0.30574644 -0.27052701 2.7263656
0.13928336 0.054888517 0.33357549
0.13882154 0.039103016 0.68728065
-0.054698527 0.052874953 0.45963645
-0.1864419 0.057192657 0.31985688
1.1209182 -0.011684284 1.335042
-0.71796894 0.019945119 1.2781687
-0.43528855 0.022655353 2.2649913
0.31318212 0.032718487 0.51087999
0.45996338 -0.12009533 0.55405426
0.11795288 0.049746007 0.95578241
-0.47351074 -0.35741469 3.6340737
-0.20905089 0.016377095 1.6788526
-0.80998087 -0.07967253 1.4062624
0.72129011 0.032683454 0.85890961
-0.19944495 0.051451206 0.39237952
0.075279951 0.052451976 0.33958673
0.081115901 0.053373203 0.46578479
0.20836592 0.052258756 0.42245197
0.30616111 0.03041359 0.53051353
0.21261752 0.053659797 0.40476465
-0.90482247 -0.29225394 1.5775514
-0.051078588 0.054969758 0.35601306
0.076432526 0.050522629 0.4281981
-0.4907946 -0.12487686 0.67879677
-0.116243 0.057304457 0.31801558
0.3089143 -0.034721244 0.5177989
0.3342942 0.031866893 0.53229451
0.22714657 0.045167178 0.58917284
0.70022285 -0.2037804 1.0556197
0.29522514 -0.051093105 1.052978
0.32496822 -0.1254485 0.53814054
0.35382247 -0.1525058 0.68391705
0.030088842 0.058354236 0.32696176
0.15129858 0.023601875 0.68023586
0.0040135384 0.057222828 0.39358187
0.31151211 0.01543702 0.5257082
-0.46284199 -0.052240241 1.4109082
-0.68415558 -0.29178602 4.1416006
1.1507108 -0.049142126 1.7037153
-0.91665566 -0.34939772 1.7778325
-0.18442786 0.057366494 0.39786315
0.09016639 0.051183917 0.59805632
0.21660632 0.052081496 0.25858688
0.30147457 -0.070394486 0.90646553
-0.19979 0.049335133 0.40799141
0.13148814 0.0189483 0.67139864
0.16285843 0.02255645 0.66155338
-0.38678235 0.057640247 0.61934185
0.16858226 0.056188963 0.24365997
-0.5054301 -0.11699842 0.67766762
0.81494844 -0.16680127 1.8567834
0.23068517 0.040583178 0.58554554
-0.036305249 0.047452942 0.95462322
0.34175956 -0.050295252 1.0518837
-0.97246218 -0.1828566 1.5497022
-1.031459 -0.18514192 2.6321082
-0.19238979 0.053109739 0.28083467
0.15080929 0.052441351 0.50526237
-0.052000731 0.055689655 0.36241198
0.42343801 -0.13007118 0.60236931
-0.54950362 0.064348161 0.72221899
1.7515222 -0.039337683 2.0053258
0.26323098 -0.022242561 0.85373831
0.22359061 0.047894657 0.2578938
-0.96353698 -0.31065544 1.7717199
0.16738862 -0.14392312 1.0824904
-0.97954273 -0.19495834 1.3262997
0.16961128 0.048619553 0.62582493
-0.48553264 -0.12329867 0.66952991
0.3033579 0.040351823 0.77691126
0.17156869 0.057303607 0.2735033
0.15493709 0.053534951 0.29718614
-0.70426357 -0.40873355 2.8932309
1.8856035 -0.051020879 2.4269009
-0.5574559 -0.053335216 3.6085229
0.13173366 0.051580116 0.38500667
-0.19391918 0.055233881 0.35379672
0.13186872 0.055685163 0.29479384
-1.0773267 -0.22390962 2.8278136
0.20177829 0.05257114 0.49574041
0.20730567 0.042520598 0.28408813
-1.5578057 0.026083242 3.4088817
-0.033995181 0.059988864 0.30805683
0.075283945 0.057537526 0.24693298
0.37681681 0.035790265 0.53658581
1.040688 -0.3159692 2.1604123
0.3368637 -0.072695702 0.52651811
2.050468 -0.31967303 2.6790581
0.34931564 -0.13436528 0.9430871
-0.10649896 0.052239165 0.57792282
-0.13728493 0.015029319 1.3763871
-0.71944082 -0.31865567 2.5102777
0.16144562 0.056325741 0.29002714
-1.2038931 -0.1186825 3.0404596
1.1704094 -0.085778981 1.6861482
0.19862533 0.048699696 0.40353346
0.28260916 0.066864856 0.34470248
0.33754396 -0.13693216 0.92129755
0.34535074 0.016930604 0.55866194
-0.12151635 0.033257261 1.0645785
0.20771831 0.051933974 0.47704411
-0.50146627 0.049425691 0.69482756
-1.025555 -0.1339874 2.7660823
-0.21692014 0.051751636 0.33035874
1.5360934 -0.04825798 1.8659863
0.74442649 0.029528476 0.96516895
1.1427311 -0.031815019 1.3994613
0.25027525 0.044496786 0.46754456
-0.049092829 0.055808209 0.48258591
-0.9945724 -0.13282065 2.6817293
-0.8659966 -0.22723943 1.6878977
0.071577728 0.057332471 0.24567151
-0.34811425 0.052999631 0.63920736
-0.11204344 0.055429593 0.78270626
0.4574005 -0.12095056 0.54934788
-0.50041109 -0.16336446 0.69942427
0.4416995 -0.14700386 0.64988184
-0.34736729 0.05256559 0.67283344
-0.20357728 0.051940404 0.34635735
0.15300512 0.050293408 0.59440327
0.22365206 0.047344938 0.50288463
0.21179879 0.043255165 0.29151654
0.16064155 0.0561301 0.29064369
0.45014042 0.041291952 0.54166412
-0.80185664 -0.02521947 1.4251423
0.19646066 0.05212307 0.55201912
-1.103278 -0.15957171 1.4317799
-0.19334275 0.059432849 0.33441472
0.066439271 -0.16201663 1.1532407
-0.064728022 0.058911987 0.2520268
-0.19293535 0.055225056 0.30527067
-0.18405402 0.056334183 0.43141222
-0.05353272 0.059240147 0.28919268
0.31743735 -0.1445061 0.64532948
0.3135826 0.00057889149 0.52797508
0.1413703 0.063223891 0.27129531
0.13332325 0.056242246 0.2990253
-0.20653123 0.052833237 0.46619725
-0.82829154 0.024422441 1.0020876
0.94462109 -0.24675262 1.2224474
-0.19268799 0.053466327 0.28110576
0.32429308 0.015122687 0.5258708
0.25935137 0.029489897 0.4739821
-0.58744299 0.043328647 2.4240527
0.31112206 0.032773674 0.52829361
0.40168655 0.027280379 0.91548347
-1.1220757 -0.055884887 1.7351108
0.27955645 -0.048718292 0.99569035
-0.89834321 -0.34180757 1.7417402
0.68428159 -0.1867061 1.5933828
0.30424565 -0.08521083 0.51459289
-0.50415236 0.049510777 0.70004129
0.29238772 -0.093663961 1.0208602
-0.50631487 -0.14147554 0.65554142
0.30992317 -0.087032929 0.52537775
-0.48096979 -0.14088184 0.65928268
0.20810097 0.051951397 0.24539614
0.26188838 0.037816681 0.40016127
0.074152589 0.057036985 0.24363708
0.16272533 0.056215875 0.31437039
-0.65422356 -0.22838497 2.8246093
0.23022145 0.047811672 0.2915864
-0.51562166 0.010968342 0.70307207
0.30477124 -0.14646678 0.66839409
1.4971851 -0.024688974 1.9520245
-0.46772957 -0.10799034 0.62186718
0.3553561 0.014290817 0.58004236
-0.44291061 -0.036377136 2.2441144
0.44478774 -0.12898457 1.0717473
-1.1855392 -0.17610696 2.9594345
-0.84556496 0.020912353 1.3658299
-0.21014935 0.047826424 0.39120841
0.084273398 0.055757549 0.49400353
0.47562385 0.031446509 1.0981727
-0.097620487 0.049789567 0.68541193
0.31529105 0.017143894 0.9811182
0.19284725 0.038220808 0.69479656
-0.19020128 0.053044371 0.3589921
0.27602756 -0.02126281 0.90346956
0.20412928 0.044430487 0.66468048
-0.064906836 -0.35600302 2.9018245
1.5335971 -0.26795998 2.0357752
-0.22694635 0.063030407 0.33744025
-0.79950559 0.019456618 1.4263139
-0.78014135 0.022385743 1.3919353
