# .PCD v0.7 - Point Cloud Data file format
VERSION 0.7
FIELDS x y z
SIZE 4 4 4
TYPE F F F
COUNT 1 1 1
WIDTH 463
HEIGHT 1
VIEWPOINT 0 0 0 1 0 0 0
POINTS 463
DATA ascii
2.0102589 -0.10639893 2.9103198
2.0425167 -0.10897595 2.6555233
-0.092440844 -0.20821282 3.1554017
-0.094510257 -0.20754462 3.1756907
-0.092036545 -0.2061803 3.1822329
-0.10950524 -0.3807033 3.332582
-0.16164035 -0.33266738 3.4847231
-0.098038673 -0.003640987 1.5144835
0.32045537 -0.17750248 1.09166
1.1824296 -0.26013723 2.6066275
-0.80731159 -0.012349479 2.2036653
0.652767 -0.056107245 1.8248
-0.61562568 0.020702908 1.0968771
1.0599997 -0.19221377 2.8859053
-0.74514788 -0.48437101 3.0990191
1.2677329 -0.25569782 3.1520185
-0.16102427 -0.38464627 3.2262735
1.2139633 -0.25440049 2.1557932
0.95066983 -0.029699951 2.2087989
-0.76141018 -0.082209915 1.7098083
-0.70138818 -0.45600376 3.1528015
0.68086308 -0.067202188 1.8773398
1.0368156 -0.30524889 2.4742513
-0.48468196 -0.15958381 0.90567255
0.97841179 -0.068833552 1.236177
-0.71750265 -0.42634758 3.304153
0.28338641 -0.18330684 0.91542482
-0.82544965 -0.091665246 1.847713
-0.79187769 -0.27952638 3.5582519
0.17991132 -0.16442907 0.87611389
0.174375 0.041490085 0.987782
0.2800414 -0.020945851 1.1939864
-0.91124564 -0.38498604 2.8649163
0.18245012 -0.14652103 0.86463261
-0.77818948 -0.015989687 1.6953087
0.25106168 -0.022091918 1.2379594
1.565002 -0.075918108 2.2457476
0.33326018 -0.13803005 1.2748666
1.8369248 -0.14489153 3.1158962
0.060616314 -0.34259808 2.6397681
1.5993791 -0.076106228 2.1317344
0.29441833 -0.18897516 1.1458535
1.5751562 -0.081746385 2.2552066
1.6764977 -0.082122423 2.2757974
0.17344034 0.013180805 1.0287104
0.22483927 0.040863991 0.62498379
0.32364839 -0.11055038 1.3709726
-0.39034504 -0.038500927 0.52660728
0.075832367 0.05882794 0.36792159
0.15290332 0.03514646 1.0512075
-0.79430765 -0.051968746 1.6048703
-0.87050074 -0.056301594 1.8334813
0.081587195 0.051463194 0.55268693
0.32698798 -0.04039041 0.83763981
1.9056129 -0.15289867 2.5011172
0.04015547 0.04261566 1.0396442
-0.042674959 0.047392949 0.75402355
0.18328053 -0.14396855 0.86507201
0.17180109 0.042416129 0.96490383
-0.43158823 -0.39101142 4.1354823
1.5053923 -0.064805083 2.0884256
0.17600667 0.042014465 0.99947405
0.37092602 -0.08096645 1.2779012
0.22383976 -0.18996203 0.95405436
0.74157029 0.026344322 1.0729733
-0.50967604 -0.089175306 2.6260176
0.093875289 0.046508044 0.76748586
0.168805 -0.16128752 0.84331632
0.20016402 -0.1622982 0.86527872
0.21586132 0.028892508 1.0508366
0.36584103 -0.076620318 1.2545877
-0.029644489 0.042378347 0.96547079
1.4714873 -0.070718475 1.9086032
0.65632415 0.026251476 0.9446516
0.73386681 0.026733221 1.0447564
0.74329442 0.017531484 1.3283944
0.17964 -0.16503018 0.85264564
1.0558279 -0.037803121 2.0761957
-0.0025221705 0.038306907 1.4799409
0.17855507 -0.16374439 0.84920168
-0.77549309 -0.086473279 1.7661014
-0.18588871 0.048961461 0.53792214
1.0423849 -0.048008934 2.1756139
0.98272961 -0.04244443 1.9352856
0.35296237 0.036383227 0.64074445
-0.803698 -0.49260491 3.1660647
-0.84580225 -0.41862482 3.0230064
0.5027743 -0.31704736 4.9297414
-0.76410586 -0.3752811 3.0386734
-0.72859663 -0.4602477 3.2211609
-1.3875463 -0.11729444 4.7450185
-0.88222176 -0.44154286 3.0617247
0.20349967 -0.18046314 0.89545584
0.093734443 -0.55794376 4.3815379
-0.38014364 -0.13898277 2.2404962
0.51451427 -0.32621339 5.0512042
-0.81528062 -0.43838307 3.0044322
0.35378295 -0.023761339 1.4122782
-0.87821072 -0.43578941 3.1719599
-1.0407822 -0.41777769 3.3349113
0.32021272 0.028347097 0.42447686
0.091929018 -0.55900592 4.424943
-0.49042732 -0.27194989 3.1635475
1.2228169 -0.04092104 2.0547667
-0.7331112 -0.20669702 1.9283204
-0.85495383 -0.36088604 3.0695047
0.75295806 0.023169037 1.181355
1.169888 -0.044207253 2.1302748
0.33975023 -0.12392222 1.2805767
-1.1647184 -0.10455602 3.7885504
0.17106575 0.051678292 0.46881127
0.043783337 -0.018080164 0.41728687
-0.58929002 -0.21492058 2.1481109
1.0620115 -0.035878152 2.0830841
-0.68285269 -0.42903903 3.1613402
0.20990366 0.054324321 0.30270219
-0.80677909 -0.28642219 3.6414227
0.092946768 0.046393339 0.74640298
-0.80937546 -0.30721658 3.3224568
0.10128307 -0.23019022 2.1603227
-0.82110018 -0.46160781 3.080389
-0.9179855 -0.42117283 3.0740452
-0.50267196 -0.19147724 0.91903639
0.21704888 0.049878296 0.29686522
0.16867441 0.051178053 0.46176243
-0.75681287 -0.085410468 1.7262468
0.22903097 -0.16703904 0.79757762
1.2286892 -0.10538196 2.0591464
0.073292851 0.05581731 0.35408974
0.33292812 -0.14019594 1.2843704
0.25923878 -0.10122519 1.4413075
0.27434349 0.017669316 1.4185486
-0.94136614 -0.40890887 3.1282992
0.61690837 0.019010361 1.5099039
-0.7373963 -0.39621621 1.9906297
0.31394327 -0.069167115 1.2832799
-0.76996011 -0.031397186 1.7350397
1.1317201 -0.086598493 2.0727754
-0.66121453 -0.26899943 3.413435
-0.80324215 -0.33221111 2.3126626
-0.74418491 -0.35133499 2.965414
-0.703888 -0.44991794 3.8127394
-0.35965544 0.049590886 0.98582077
0.34789485 -0.057259753 1.4058089
0.323349 0.036554094 0.40226007
-0.52646363 -0.18603954 0.9551487
0.3374365 -0.10982224 1.3878851
-0.052353203 0.051078096 0.47316861
-0.71671194 -0.3791962 1.9895158
-0.92563146 -0.23854014 3.0571494
0.22172898 0.039491959 0.61268568
-0.72183615 -0.39372894 2.0081635
-0.95915931 -0.39392114 3.0578766
0.32688498 -0.13826099 1.2555723
-0.69190031 -0.43109751 3.6925354
-0.18034947 0.053959981 0.55814552
0.37580687 -0.13565448 1.2829423
0.73406821 -0.14141938 1.175036
1.0861058 -0.086366408 2.0973887
0.16628134 0.05076842 0.45991182
0.31304479 0.03308174 0.40703702
-0.85068899 -0.41530481 3.0785255
0.22384286 0.042499132 0.61536193
-0.50422722 -0.17444459 0.95413351
-0.13742679 0.059435714 0.32637596
0.32859063 -0.12389302 0.75575662
0.36172289 0.008603476 1.1673856
0.30776477 0.018652942 0.83358288
0.3223151 0.010608617 0.4074173
0.35703814 -0.058554828 1.2632885
-0.72492355 -0.38785496 1.9463649
1.4255145 -0.043094091 2.1053939
-0.9307279 -0.23527202 3.079618
-0.098594159 0.056834545 0.31184006
0.14806765 -0.25275946 4.2434878
0.088042736 0.054122612 0.6132822
-1.0919871 -0.041527815 3.6043673
-1.0122063 -0.36209968 3.2738171
0.36730462 -0.018289424 1.4012923
-0.81525964 -0.051462039 1.7927809
0.29649699 0.038299322 0.45579123
-0.7995308 0.0032578409 1.7597585
1.4036586 -0.043002844 2.0688152
1.0155525 -0.049566768 2.118072
0.36759132 -0.022238903 1.3998823
-0.78444904 -0.27598864 3.021358
0.44276345 -0.17007759 0.9589572
-0.51177305 0.053975917 1.0117164
-0.59343034 -0.47714937 4.0013852
-0.54664987 -0.017128382 2.7892509
-0.39187008 -0.089296497 2.5020041
-0.51678365 -0.1832338 0.93095303
0.68956012 0.03015615 0.81714845
0.31495732 0.026174683 0.40956473
-0.84819549 -0.37656564 2.1747942
-1.0532296 -0.41362938 3.3690009
0.31762314 0.012383772 0.39788365
-0.73360497 -0.48509198 3.0758286
0.27297944 -0.32073256 4.0451431
0.35773337 0.036090903 0.65782642
-0.19185162 0.044585425 0.67238474
-0.7279529 -0.12042765 0.90412664
-0.78331453 0.0016448498 1.7198515
0.35875481 0.037711635 0.44114327
-0.79420036 -0.29909635 2.1519456
0.35812384 0.036481 0.65757442
1.4751165 -0.053766757 2.0737352
0.22120601 0.00020898879 0.7259779
0.15712512 0.012177931 1.0419383
0.33076161 0.016996602 0.88328171
-0.053081244 0.054369986 0.32919145
-0.6745798 -0.16842416 1.1508808
0.65517217 -0.026893273 1.4199247
-0.7026177 -0.16221154 0.90563393
0.39335448 -0.082835458 1.2506876
0.28717399 0.035916399 0.38317561
0.17437905 -0.19964355 1.4324527
0.11431634 0.037815705 1.0747075
0.29800713 0.010725899 0.39582682
0.19818968 -0.20132715 1.4672799
-0.45777243 -0.17275116 0.92032766
-0.80854863 -0.25579488 2.9159865
-0.056432962 0.05318534 0.48815894
1.0635159 -0.05027885 2.1176167
-0.63556045 -0.35339066 3.9080634
0.71982718 0.027065927 1.0167956
-0.36922532 0.055147924 0.58659291
0.078462601 0.051712338 0.45870638
-0.53366745 0.0092157871 1.1901827
-0.83550423 -0.36939803 2.146821
0.37070382 -0.13208672 1.2513056
-0.55160928 -0.14390945 0.93214464
0.073080182 0.055847399 0.35518503
-0.4634378 -0.20380959 0.94901514
-0.9325766 -0.24171934 3.0946631
-0.053927004 0.055948708 0.34762931
0.17405224 0.052941825 0.47932696
0.3626458 -0.081457458 1.2586088
0.22347891 0.048449691 0.40783954
0.21094608 0.054630481 0.30385447
0.39511752 -0.15803391 0.6803441
-0.91025227 -0.16485471 1.9805489
0.29165977 0.037378326 0.44688821
1.4975502 -0.063770644 2.0735617
-0.058067888 0.053687539 0.48178434
0.36831295 -0.061836623 1.2961807
1.492908 -0.065016948 2.074935
0.079666734 0.039852239 0.63136268
0.17692953 -0.19923916 1.4467587
0.19633317 -0.15436408 0.94173098
0.33377272 -0.060416877 1.6350732
0.22373646 -0.16314995 0.77806497
-0.73987657 -0.39864403 1.9987388
-0.80674738 -0.31868684 2.0518579
-0.7076363 -0.26394343 3.2145596
0.071040452 0.054152422 0.32781482
-0.78670996 -0.50182092 3.6318974
-0.66617662 -0.30354002 3.4120593
-0.77292246 -0.085777722 1.7460265
0.30275911 0.010961935 0.39469242
0.31560826 -0.047066711 0.40410042
-0.49985695 0.046195522 0.80337524
-0.14746749 0.062567249 0.36844373
0.21270657 0.043523949 0.45240188
0.30614954 0.032003295 0.39631867
-0.19266874 0.047900863 0.8713522
-0.36320066 0.054140694 0.57346869
-0.50999051 -0.17833579 0.90096569
0.35175395 0.038162891 0.43054008
-0.69327813 -0.16003501 0.89294672
-0.52128607 -0.20908964 0.92921734
-0.14349103 0.059302725 0.29729056
-0.54228401 -0.19609559 0.91494131
0.30075854 0.040088255 0.39894772
0.31240702 0.03631388 0.41130853
0.43359309 -0.13915369 0.8247776
-0.62155885 -0.15548903 0.7848413
0.14075744 0.056840956 0.29164958
0.22264826 -0.16489232 1.0708275
0.17956161 0.013346525 0.98649168
0.29688329 0.012166556 0.39201355
-0.10364142 0.055916522 0.55910444
0.42082697 -0.09302818 1.3416309
0.32281274 0.016631795 0.85615396
0.094895422 0.049320415 0.75060439
-0.77695912 -0.044829585 1.7540588
-0.64231807 -0.28085038 3.1918879
1.0518043 -0.26273301 2.0139413
0.73825097 0.022525534 1.1784868
-0.78691655 -0.27847394 2.9832988
-0.099482 0.053943813 0.5270381
0.17784566 -0.20156282 1.4575243
-0.13547337 0.040965877 0.89380503
-0.036058009 0.045210265 0.75937915
0.53373986 -0.041161001 1.7840753
-0.69591933 -0.55064404 4.74124
-0.057223856 0.059449919 0.29758406
-0.17992955 0.063296005 0.2674067
-0.22467053 0.053670295 0.31153464
0.2099393 0.054598041 0.30127287
-0.064257473 0.056069851 0.27344608
-0.10935631 0.058058124 0.3932755
-0.26694328 0.040656447 0.35621834
0.45361602 0.034046121 1.0112596
0.21435142 0.050072271 0.35977769
0.22089881 0.048309918 0.40211964
0.16580594 0.063012868 0.57349467
-0.097594857 0.05350367 0.43315387
0.69007969 0.017356582 0.7868228
0.10816473 0.040953957 0.99313164
0.33958656 0.013198659 1.1166344
-0.072668493 0.063875742 0.32582211
0.40899992 0.029745856 0.90350246
-0.052388251 0.054124892 0.33555794
0.43982995 -0.18889946 0.98562288
-0.98478836 -0.049948834 1.4881454
0.24103105 0.038906887 0.63103962
-0.19977194 0.040103942 0.69117904
0.47352123 -0.15214387 0.77372122
0.32608563 -0.10520146 0.86158919
0.21323425 0.047086887 0.34194827
0.40447062 -0.13091993 0.69852138
-0.10001609 0.05724401 0.31202316
-0.095748186 0.055574428 0.30142522
0.31171983 0.025849473 0.40384626
1.4411504 -0.06114199 1.9888415
-0.058366358 0.060575955 0.30531311
0.16954201 0.054221638 0.37799096
-0.38009882 0.0563774 0.61289454
0.21580148 0.045806721 0.43843055
0.33656216 0.020783246 0.43163943
0.37116086 0.030689416 0.72124767
-0.19446331 0.046683639 0.51735163
-0.19696444 0.044981696 0.58998418
0.37534988 0.037570141 0.69276452
0.095644951 0.049385689 0.75127053
-0.14222437 0.061008409 0.3599391
0.17090565 0.055819623 0.26632452
1.0582564 -0.080852509 2.0777349
-0.79373747 -0.051503114 1.7361121
0.36790162 -0.018435128 1.1629963
0.29979217 0.031587765 0.41677427
-0.044952303 0.048120875 0.52092648
-0.70280653 -0.035264686 1.59372
-0.10012335 0.04303658 1.0659056
0.6193257 -0.076853447 1.4709363
-0.8214708 -0.32704324 2.096344
1.059582 -0.063360326 2.0875134
0.16770345 -0.12802574 0.81319332
-0.043809503 0.04645076 0.68847156
1.1769578 -0.041296162 2.0426507
-0.1862331 0.056065708 0.59821939
0.35528553 -0.13498366 1.291358
-0.85580093 -0.15514234 1.9830837
0.15894818 0.010609295 1.0853066
0.37083673 -0.0952769 0.86309433
1.1951394 -0.13857445 2.26512
-0.65386003 -0.34017116 2.9644012
-0.62494081 -0.3837246 3.0085649
-0.18915373 -0.013385333 1.5059896
-0.45289093 -0.16979784 2.6583853
-0.48739201 -0.18168911 2.8617501
-0.35628194 -0.14936346 2.5536871
-0.70654696 -0.35557133 3.373764
-0.96549803 -0.023100279 1.3874197
-0.15563142 0.06054971 0.27145076
-0.12955946 0.058617812 0.24877167
0.32215941 -0.13232177 0.85125566
-0.21847802 0.04659817 0.52881455
0.079808116 0.054389209 0.48049784
0.21441615 0.052028045 0.26884294
0.15462452 0.041731633 0.58872104
0.68970084 -0.038380496 0.78903437
0.21855474 0.044219613 0.44022703
0.7976138 0.019957865 1.4288759
-0.53527647 0.025811527 0.7564981
-0.18239993 0.047966149 0.62040854
0.355084 -0.14872044 0.95366049
0.19275701 0.058446337 0.26678824
0.21537727 0.035487119 0.99440908
-0.14357597 0.058853716 0.26024222
-0.80955154 -0.14676344 1.858079
-0.2022534 0.040235084 0.70198512
0.89152211 -0.029399335 1.8673568
2.0807605 -0.018164597 3.1029434
0.13279867 0.052538991 0.33004951
-0.0527955 0.052962825 0.56754327
0.30766064 -0.079468273 0.39021802
-0.50074255 0.040102929 0.75001502
0.95962423 -0.027560599 1.2096262
-0.33222181 0.045201249 0.99092674
-0.55600709 -0.29557851 3.9010882
-0.16531104 0.047712296 0.69770908
-0.15357649 0.062251702 0.40989089
-0.63957971 -0.16706005 1.1117883
0.31209219 -0.16521096 0.80826092
0.17148155 0.055943746 0.2669313
0.22304767 0.047679983 0.33353543
-0.11688942 0.029506454 0.49040413
0.38851225 -0.10403917 0.46775222
0.063023865 0.056906715 0.26028252
0.0078190565 0.058199167 0.27858067
0.35025442 0.016946511 0.87379503
0.32437068 -0.08133959 1.3561845
-0.54529482 -0.070682056 3.3410754
-0.052304745 0.052632183 0.32370591
-0.21910751 0.052835986 0.30314279
1.0741813 -0.034996226 1.9336467
-0.74363631 -0.18881425 1.93718
0.6823588 0.0072309971 0.80156326
-0.14886063 0.040886521 1.2307472
-0.055639029 0.056590796 0.27602148
0.31476498 0.042499859 0.40383768
-0.39376277 -0.25831708 1.612061
-0.052314103 0.052778699 0.31541824
0.68703645 -0.031025931 1.4777184
0.20928663 -0.15639403 0.8071785
-0.83533818 -0.3140583 2.2650976
1.170588 -0.09016677 2.1511545
-0.75722104 -0.35641968 3.0119781
0.32169336 0.019318573 0.40757513
1.0494404 -0.059030987 2.0578766
-0.16898865 0.048928097 0.71513772
-0.50844198 0.051803812 0.62757468
0.18379068 0.054543287 0.3972888
-0.2174722 0.052418545 0.30060339
0.35458481 -0.05985821 1.2595453
0.21678019 0.052549344 0.27150798
0.10740733 0.050300986 0.90584421
0.31974208 -0.082366697 0.40821052
0.060387641 0.057274405 0.26758909
0.96089321 -0.036980443 2.1581197
-0.062404782 0.055903479 0.28458238
0.22057438 -0.16547045 0.85587001
0.074167788 0.05686713 0.36254001
-0.067050427 0.060026094 0.3136282
-0.19609064 0.053105313 0.3123281
1.0349786 -0.29055595 2.4536309
-0.80979365 -0.17176759 1.9833546
-0.23922271 0.050945748 0.59247208
0.91253072 0.00071234629 1.8790326
0.41448492 -0.013200857 1.6072659
0.35864133 -0.14904293 0.71190763
0.14518362 0.057235695 0.33509469
0.0075187385 0.05495115 0.25796223
1.1243024 -0.10758606 2.2835755
0.83830225 0.040236734 1.1950207
0.35951769 -0.079172023 0.62455559
0.31329125 0.035135046 0.43579626
0.3589524 -0.01945892 1.1960449
-0.48459393 0.053739581 0.8127563
-0.76504689 -0.086666889 1.7536006
0.17589206 0.041223742 0.99916029
-0.023123443 0.051209673 0.4541657
-0.50208139 -0.17537707 0.94753551
-0.13562661 0.055333257 0.2682054
-0.93288606 -0.2266188 1.7243352
0.91389149 -0.062812842 1.7544427
-0.78320044 -0.18259078 1.4333072
-0.73408312 -0.14722228 0.95046282
-0.85437042 -0.37818632 2.1955838
-0.55322927 -0.2959221 3.8766403
1.2697792 -0.32327786 2.4310813
