# .PCD v0.7 - Point Cloud Data file format
VERSION 0.7
FIELDS x y z
SIZE 4 4 4
TYPE F F F
COUNT 1 1 1
WIDTH 335
HEIGHT 1
VIEWPOINT 0 0 0 1 0 0 0
POINTS 335
DATA ascii
-0.13744812 0.048687551 0.37993354
0.97448504 -0.22777618 1.6015766
-0.87579775 -0.034179635 2.0146627
-0.72365749 -0.076152712 1.5850399
-0.17764312 0.046952486 0.72160369
-0.19174705 0.046715006 0.71758765
-0.61352772 0.0020636148 1.0704646
-0.57913017 -0.0087511316 1.0563712
0.16649143 -0.16144748 0.72243792
-0.15176302 0.051038541 0.27069193
-0.17061138 0.050696772 0.30691856
-0.61372149 0.016568631 1.0583861
-0.2116615 0.038579695 0.38161659
-0.18558399 0.037217461 0.40429538
0.30505201 -0.1941994 0.99274796
0.23372257 0.050715402 0.81620842
0.13395052 0.05962906 0.43289071
0.069063954 0.05838868 0.38564724
0.28562716 0.051997948 0.43121237
0.26246673 0.053017773 0.44220066
0.38409919 0.024841476 1.2426448
0.22001912 0.061543833 0.43404126
0.61346751 -0.016361918 0.78987569
0.921911 -0.12484552 1.5671437
0.14328164 0.068958372 0.32220727
-0.16901104 0.050987378 0.27202541
0.5888871 -0.013167255 0.75339371
0.61057794 -0.017174318 0.78564364
0.21154144 0.061891068 0.39197141
0.21408889 0.060539909 0.42156458
0.14424659 0.064633586 0.47568303
0.58562464 -0.012567993 0.74923402
0.14225706 0.063359112 0.40364832
0.39534396 0.042463668 0.712789
-0.12298477 0.049289107 0.35328734
-0.60717487 0.011184588 1.0926895
-0.63931686 0.01610842 1.1055694
0.14060374 0.063044682 0.4056648
0.070097677 0.058692519 0.39191145
-0.18438156 0.036342464 0.40208572
0.22472559 0.054261524 0.64198148
-0.073659964 0.053926744 0.34722275
0.20846972 0.060008742 0.53284276
0.12777276 0.057481479 0.38891786
-0.61335367 -0.0073686475 1.0642154
0.22788292 0.054112148 0.46299773
0.15169013 0.063540339 0.44923514
0.20929725 0.064250648 0.43610084
0.29957452 0.018532736 0.36159521
-0.85687274 -0.12165974 1.5198491
-0.18802178 -0.063777909 0.36798161
0.37983081 -0.1508911 0.72583801
-0.20916228 -0.048121125 0.37792444
-0.85537827 -0.10393102 1.5111179
-0.066607662 0.060323123 0.37674046
-0.83884245 -0.21166094 1.3826947
-0.58988661 0.013684084 1.0567882
-0.18571806 0.036257792 0.40426898
0.53265208 0.040600639 0.91604716
-0.097100072 0.051100694 0.43844628
-0.20835389 -0.047487725 0.37654805
0.22196291 0.058803055 0.52855653
0.30074272 0.022949073 0.3662138
0.29803488 0.051692285 0.45458937
0.2201283 0.062746853 0.5754447
-0.58313668 0.014453513 1.0429385
0.40362129 0.043812446 0.73257583
0.30764553 0.0070366901 0.3592099
0.13425452 0.06085021 0.38645369
-0.81008285 -0.18470646 1.3654962
0.76686031 -0.17529011 1.4987543
-0.1269002 0.050947789 0.36782229
-0.16929784 0.041831311 0.82288176
0.22878763 -0.27869716 1.6050711
-0.18750674 -0.085496962 0.75087494
-0.69008875 -0.21154842 1.3142667
0.36848214 0.017225347 1.3287733
-0.18199928 0.035231464 0.39325559
-0.21186346 0.038106043 0.38053632
-0.18229057 -0.087816894 0.77890927
-0.077123724 0.053426512 0.46986765
0.40213299 -0.10463683 0.89623946
0.073332109 0.061941795 0.33598644
0.28154376 -0.19036809 1.0315242
-0.61601049 0.014718527 1.0562255
0.39831832 -0.14686957 0.78849488
-0.21609756 0.018672165 0.8234008
-0.18319038 0.036704265 0.4014082
-0.13800204 -0.19491395 1.1368971
-0.78816336 -0.19983661 1.2955728
-0.66196615 -0.20244969 1.3234236
0.1112899 -0.2317626 1.1602917
0.29790998 -0.01153712 0.3519873
-0.77078903 -0.19673425 1.2712195
-0.78385156 -0.2228227 1.2857664
-0.85503304 -0.10627517 1.453723
3.117861 -0.60058272 4.2354083
0.5058558 -0.16360904 1.4683087
0.0041044895 -0.24129131 1.222666
0.21285258 -0.15712148 1.1270764
1.0055552 -0.27870092 1.6518285
0.56378472 -0.042469572 1.8228171
3.6265211 -0.67545056 4.9931569
-0.062398162 0.055812426 0.60249037
0.1125645 0.061207946 0.42059106
0.45606631 0.043985073 0.72106987
-0.22262712 0.040274106 0.40152735
-0.061731797 0.062784873 0.44989753
0.16396253 0.05781826 0.73705
0.29593268 -0.023030141 0.35241306
0.390306 0.019817259 1.6036234
0.20905849 0.059054796 0.41501606
2.9604919 -0.55966926 4.300271
-0.021139881 -0.24350242 1.1894851
-0.15204787 0.048250094 0.36727339
0.36035669 -0.17876689 0.99235696
0.035601173 0.062134825 0.46372187
-0.39063856 -0.20274483 1.1882787
0.29278672 -0.075396851 0.33734632
0.10025664 -0.21205209 1.2101521
-0.0086469967 0.061045785 0.3539421
-0.17575176 0.032153532 0.78137404
-0.029682556 -0.19413328 1.1536777
-0.89768499 -0.039051235 2.3311315
-0.38748971 -0.18689622 1.4142642
0.30743429 -0.0018467074 0.35883957
-0.13585718 0.052393712 0.49906349
0.49056104 0.041400459 0.82506019
0.076135866 -0.22504416 1.1946743
-0.22729369 0.048483476 0.64938539
-0.13567567 0.044406679 0.90684301
0.86066043 -0.12173466 1.5348785
0.10214461 -0.21799944 1.2447491
0.18039116 0.060391225 0.45880377
-0.43789616 0.055756561 0.73119956
-0.71808743 -0.015875649 0.88392121
-0.78351039 -0.05536684 2.1878104
-0.039268512 -0.16890328 1.0547047
-0.097223766 0.050501797 0.42748803
-0.58274686 -0.010340024 1.0536504
2.8530374 -0.64241862 4.3264914
0.074680097 -0.20754451 1.0777194
0.784729 -0.1967023 1.5522859
-0.17534545 0.051919471 0.26772064
0.30712128 0.0078074662 0.35803473
0.30863464 0.046913482 0.36003953
0.93800884 -0.17479424 1.6008511
0.070795506 0.061006188 0.32039398
0.3912774 -0.16665468 1.6495934
0.36641595 -0.18167996 1.0117474
0.11302194 -0.23749293 1.1911781
-0.012873078 0.055880908 0.45606726
-0.61915725 0.024571609 0.79252845
0.44678178 0.043729808 0.70398527
0.29851496 0.040540516 0.36652285
-0.51435721 0.066928923 0.64784044
0.38571438 0.019862387 1.5642571
-0.073650531 0.049286563 0.55842549
-0.22852901 0.048193816 0.65194339
0.14737383 0.070027679 0.3867802
0.09598466 -0.19996762 1.1361709
0.93821019 -0.12749675 1.6018004
-0.080642514 0.06270805 0.31421423
0.074630372 -0.22315887 1.1834309
-0.099887483 0.052013926 0.36653751
-0.21648398 0.038789812 0.38940847
0.1147768 -0.23435059 1.1784396
-0.20638336 -0.07663697 0.84189969
-0.20654841 -0.041176286 0.38261443
-0.073896118 0.057522133 0.33697456
-0.07814797 0.051090349 0.59153068
-0.21218343 0.018621311 0.79486269
-0.081112891 0.061954614 0.30511415
0.16982149 -0.22339927 1.1418242
0.39792442 0.043184198 0.71930748
0.29028314 -0.013704957 0.34390807
0.51920652 -0.021604532 2.0725586
-0.18802726 -0.024872303 0.39823353
-0.16257934 0.04652087 0.67001873
0.13864602 0.066541508 0.31428057
0.073996894 0.063515544 0.33329558
-0.043310653 -0.27069899 1.4632285
-0.36285308 -0.16687685 1.3267062
-0.073032036 0.057277244 0.3841567
-0.10386454 0.050808221 0.61126184
0.79750836 -0.15609068 1.533124
0.18430974 0.059602428 0.39685166
0.45850006 -0.12309252 2.1908507
0.11561786 0.013657194 0.80300993
-0.082672633 -0.22436117 1.1351616
0.064292565 0.054140847 0.35518694
0.079586819 0.056709789 0.66210145
-0.0024332742 0.06517826 0.42627805
-0.21036273 0.037956893 0.37962091
0.50371718 -0.0065904595 2.2292683
-0.43095535 0.055417452 0.66449136
-0.028722053 -0.1951731 1.1688814
-1.0635686 -0.13817511 2.7992702
0.92995441 -0.046285998 1.6791086
-0.054664277 0.053396717 0.84209579
-0.18883495 0.046802025 0.70506686
-0.64784145 -0.055817168 0.98109871
0.0024519765 -0.24253422 1.2003098
0.90692925 -0.12545133 1.6246781
2.8286521 -0.25506014 3.8951268
0.22701803 0.055425484 0.65290034
0.13554879 0.060257502 0.43689293
-0.077253349 0.059985477 0.35187262
0.21538055 0.056136798 0.41119546
0.31217003 -0.0020413809 0.36586148
-0.19288956 0.020698357 0.86750871
-0.20036006 -0.075303867 1.2637408
-0.26149353 0.049673136 0.69195217
0.87542057 -0.12502982 1.563354
-0.023433328 -0.28368217 1.4093726
0.0070452299 0.061850958 0.40288043
0.064029083 -0.24281286 1.2094386
0.22366703 0.054458834 0.64119726
0.125789 0.060520757 0.27701277
0.23689951 0.050759576 0.75032479
-0.95862204 -0.13593529 1.7096932
0.10379425 -0.25304994 1.1837356
0.1126085 0.053924192 0.26655155
-0.19298628 0.014641155 0.89669782
-0.76726729 -0.20649925 1.2747281
-0.83567619 -0.20655043 1.3746464
-0.10800729 0.046005744 0.41289937
-0.034179848 -0.22569039 1.1471722
-0.045029622 0.059965305 0.39391333
0.30223536 0.046229582 0.34994256
0.20947973 0.061459776 0.38388115
0.2246487 0.064198658 0.41209143
-0.10227985 0.052190877 0.37646949
0.86369509 -0.19638819 1.5700791
-0.18037575 0.017487982 0.80717498
-0.17407088 0.044661961 0.55163229
3.0003529 -0.55456573 4.2198815
0.1969112 0.060849763 0.45696867
-0.95716 -0.0844533 1.4279454
-0.23319958 0.0014933287 0.90580732
0.0056118313 -0.23492828 1.1950965
0.22022013 0.062977165 0.4001044
0.56493831 -0.18899731 1.6577437
0.89433479 -0.16510016 1.5578859
0.46192932 0.039552324 0.77320629
-0.19680174 0.047647182 0.74088913
-0.65608525 -0.22608104 0.9826861
-0.20594122 -0.016127026 0.39456457
0.21448053 0.063125707 0.40334445
0.31174222 0.047335137 0.36393082
0.39976603 0.043729182 0.72551364
-0.14866795 0.051275287 0.32581282
0.88819689 -0.16328 1.5409985
0.10341062 -0.23218034 1.2806246
-0.1840017 -0.023363704 0.38605976
-0.75441647 -0.21365866 1.2376051
-0.21563359 -0.077978298 0.89192861
-0.13545193 0.049864344 0.33748674
-0.010934326 0.062773816 0.37080187
0.87752116 -0.20217076 1.5992432
-0.089215793 0.050736751 0.34058666
-0.11628824 0.049938943 0.36281878
0.22943775 0.067385912 0.4348377
-0.87818223 -0.039479792 2.2751379
0.16418737 -0.21742456 1.1000779
0.67953616 -0.037154481 0.80152529
0.077684306 0.05434918 0.64628804
-0.95225596 -0.17889628 1.3621001
-0.19467819 -0.026252843 0.41684186
0.036821429 0.058702163 0.35946071
0.29394859 -0.01443167 0.34929132
-0.132347 0.051837176 0.26105779
-0.16636036 0.015431553 1.0535414
0.23955132 0.059555292 0.43087363
-0.90541887 -0.035197742 2.3695548
-0.16428886 0.053065687 0.28118181
0.2759878 -0.26513088 1.9497125
-0.25420466 0.049226638 0.6716767
0.11197749 0.061103657 0.4159658
-0.10040088 0.050178759 0.34128934
-0.21135944 0.017555125 0.80543834
0.30315125 0.018462427 0.36753303
-0.036830273 -0.23882128 1.2198002
-0.62404811 0.024592381 0.79835814
-0.073801152 0.056898024 0.3658033
-0.071625404 0.060720917 0.28175145
-0.13912453 0.05108894 0.28532112
0.90535301 -0.17482351 1.5811439
0.96878695 -0.30267408 1.5209854
0.54811829 0.044409849 0.82809466
-0.19806571 -0.11775872 0.79039544
0.027920688 -0.22764225 1.0205183
0.54754978 0.046167612 0.93518525
0.49826676 0.039722867 0.77208775
-0.15244268 0.03093804 0.88002807
0.28854275 -0.20894442 1.0156465
-0.19629358 0.01737354 0.89637488
-0.027415114 0.056982826 0.26866484
-0.98189759 -0.079220414 1.5345948
2.2110546 -0.33111984 3.1579664
0.18729463 0.060440715 0.40475863
-0.97338176 -0.1431088 2.439925
-0.93045861 -0.17441967 1.3322651
0.3070623 0.047604311 0.38011712
-0.11951918 0.050478421 0.48110318
-0.88491881 -0.039205492 2.2924547
0.29933226 0.049847271 0.36589259
-0.18110245 0.025872748 1.172718
0.29873285 -0.011502249 0.35251027
0.30038777 -0.031461876 0.35202587
0.20235416 0.062420655 0.46883219
0.31099847 0.052157212 0.38193882
-0.066906355 0.060501561 0.38402838
0.4209044 -0.1294008 1.9689927
-0.066256009 0.058183178 0.6160112
0.3422724 -0.11152665 0.76487952
0.2501654 0.051322792 0.39343315
-0.066166185 0.059607927 0.37943071
0.4869132 -0.16314012 0.8152737
0.32671541 -0.1624323 0.89005321
0.29344639 -0.067729846 0.34887314
0.13395186 0.061343547 0.39303088
0.22273296 0.053335495 0.45197874
-0.035860725 -0.23485866 1.185853
-0.068959162 0.061220475 0.4404723
0.36672094 0.051123571 0.4966054
-0.057879254 -0.20395617 1.14485
0.97235703 -0.17890038 1.6110053
0.083317764 -0.22441921 1.1724446
0.88888258 -0.20323564 1.6174982
-0.58844548 -0.012221899 1.0654187
-0.087263711 0.053260468 0.37143975
-0.61944008 0.015722398 1.066757
0.52636147 0.043642841 0.79945129
-0.17063893 0.042878773 0.83283418
