# .PCD v0.7 - Point Cloud Data file format
VERSION 0.7
FIELDS x y z
SIZE 4 4 4
TYPE F F F
COUNT 1 1 1
WIDTH 562
HEIGHT 1
VIEWPOINT 0 0 0 1 0 0 0
POINTS 562
DATA ascii
0.39602265 -0.12900931 1.3503336
0.60579902 -0.0081439167 1.4392494
0.21683155 0.04968185 0.36955392
0.72916442 -0.050634906 1.0392212
0.74760407 -0.04770337 1.1013256
-0.54456359 0.046592057 0.69194305
-0.54605955 0.046937864 0.6930114
2.6241984 -0.1396189 4.0150342
-0.23542914 -0.33271247 1.9560214
-0.32569468 -0.20326573 1.4848455
-0.45694727 -0.0065775216 1.6669458
-0.54774648 0.0003879983 1.0591906
0.64441103 0.020331459 1.1098505
0.41710165 -0.16934864 1.4021524
0.36678821 -0.14058761 4.186645
-0.27408755 -0.22095372 1.5088848
-0.19664878 -0.32098281 2.0253682
-0.20520777 -0.31710386 1.9458405
0.42896587 -0.22034423 4.1302447
-0.21108505 -0.35763729 2.1346216
-0.52440494 -0.060716659 1.0400187
0.30699071 -0.03951513 2.875288
-0.53949565 -0.038452566 1.0590657
0.64554793 -0.0067894123 0.86770952
-0.28411415 -0.19916064 1.4569095
-0.54759872 -0.00085877068 1.0588263
0.23167384 -0.024246655 1.8912197
-0.5578565 0.02819881 1.0722889
-0.55842245 0.027761674 1.0757054
-0.36456132 0.052758258 0.89108598
0.59380454 -0.1066401 3.5079513
0.49234718 -0.17141144 2.0976882
-0.27424991 -0.2608338 1.4715363
-0.30046812 -0.26000947 1.4450475
0.45286685 -0.22952838 4.4216638
-0.20500815 -0.25010884 1.7550489
0.45693213 -0.42894644 4.9382143
-0.23684388 -0.3403523 1.9857515
-0.56587631 0.018098723 1.0032481
-0.19307752 -0.25154442 2.2836742
-0.48973376 -0.15128092 1.6322557
0.33139622 -0.16507137 1.2775768
-0.64913547 -0.1400985 0.92524636
-0.4514423 -0.18773849 1.2085394
-0.39348799 -0.16836599 2.5117712
0.47481006 -0.24009581 4.6592751
-0.46411854 0.010101129 1.5878044
-0.33451462 -0.24443348 1.320887
0.51025492 -0.26361293 3.7712922
-0.16168267 0.041330412 1.05611
-0.65094703 -0.14024304 0.92800629
-0.38610706 0.027871994 1.9253253
-0.28775799 -0.23682041 1.9772249
-0.46206635 0.017820967 1.5776955
-0.65083796 -0.13947263 0.92715466
-0.23796329 -0.23567314 1.6439575
-0.628703 -0.17960484 0.93221533
-0.55227554 0.045949534 0.70116127
-0.2989803 -0.24616413 1.4672686
0.34646213 0.021920541 0.6382643
-0.61678547 -0.16259658 0.92464936
0.42085776 0.0011794027 2.2293353
-0.60613424 0.048230309 0.95138347
-0.67595106 -0.167224 0.93027079
-0.58833474 -0.16485454 0.92618859
-0.55434448 0.057775095 0.72903335
-0.47449327 0.006666977 1.593552
-0.61970884 -0.16288659 0.92888033
-0.43985063 -0.18540619 1.1811084
0.72882336 -0.039753243 0.93310416
-0.90673989 -0.17218067 1.2022382
-0.72600979 -0.18932818 0.94763076
0.046789307 0.045952238 0.95475233
0.53103316 -0.21589382 3.0900354
-0.27287972 -0.38670254 2.0896559
-0.26394844 -0.28097063 1.7427469
-0.17253581 -0.13100509 1.3071035
0.31419995 0.042969029 0.41511738
-0.68420511 -0.19876088 0.94775164
0.22190809 0.054965887 0.56222546
-0.38772279 0.057178386 0.77232873
-0.65475768 -0.14071006 0.94687331
0.072752744 0.058614768 0.35342634
-0.3636176 0.052355647 1.0273837
-0.43225607 -0.19185573 1.3223683
0.52723604 -0.17441913 1.7492911
-0.36692685 0.052668989 1.0338985
0.42574638 -0.17592233 1.4438351
-0.56166416 -0.036516536 0.68616879
0.37808511 -0.21814395 1.2767378
0.32489514 -0.16166876 1.2420105
-0.51145393 -0.12623215 1.651672
-0.41432887 0.029598061 1.6264268
-0.51119268 -0.12599921 1.6540812
-0.33250582 0.022652861 1.7945398
-0.27910125 -0.23160569 1.8979696
-0.37387961 -0.089917071 2.1669302
-0.24974164 0.052973632 0.41433513
-0.38656157 0.056525685 0.77557147
0.30687201 0.0052777398 0.59471357
-0.65250415 -0.14433368 0.94529903
-0.51009232 -0.19755955 1.1301047
-0.50704128 -0.12354757 1.6382936
0.15060616 0.054583337 0.53084052
-0.5289945 0.021120194 1.0354253
0.96372408 -0.081124552 2.2007699
-0.45909446 -0.18968634 1.2276722
-0.3297677 -0.20196342 1.4967107
-0.72685903 -0.095978349 2.3195624
-0.50247973 -0.093726777 1.85421
0.060117099 0.04606194 1.0761391
-0.22708935 -0.37029934 2.3650184
-0.61834186 -0.16289678 0.92985547
-0.91980213 -0.17283104 1.1495053
-0.62137669 -0.17918667 0.92371762
1.5289547 -0.14606306 1.9331199
0.69829869 0.025952853 1.2579495
0.28755063 0.048336074 0.40037215
0.32040179 0.0060861595 0.63961399
-0.72857922 -0.17155197 0.95288408
-0.19065487 0.053281333 0.48748291
0.13657087 0.055155493 0.56629884
-0.56080002 -0.06530609 2.4413257
0.27079147 -0.23461016 1.3970269
-0.28762168 -0.16140634 2.385972
-0.41400537 -0.040725835 2.6950135
-0.55789453 0.021299781 1.0455977
0.44486615 0.020396953 1.4031388
0.20326091 0.057014756 0.444049
-0.44587824 -0.12504545 1.6118735
-0.749098 -0.10245965 2.2073069
-0.47959316 -0.18065532 0.93941653
-0.72913623 -0.097347513 2.3237123
-0.50203514 0.038816556 1.0654989
-0.1629236 0.043380279 1.1093379
0.27618235 -0.2472399 1.4586252
0.23086792 -0.21301132 2.2337446
-0.07182008 0.058770161 0.35505378
0.275859 0.046419479 0.37016642
-0.51387686 0.0016141105 1.4621395
-0.37703139 0.028140787 1.8602785
-0.42410988 -0.10314006 3.2372193
-0.32690603 -0.19128561 1.4498442
-0.72944897 -0.19109434 0.95227253
0.44331962 0.021522451 1.3981761
-0.52421528 0.011881864 1.3808016
-0.55554968 -0.0036776122 1.274948
0.22818401 0.054646753 0.60344827
0.69001836 -0.0013421029 1.1456741
-0.50533962 0.041561659 1.0099384
0.043110419 0.04680723 0.91671622
-0.36383694 0.052483454 0.88659441
0.14217415 0.055432059 0.50899017
-0.43548912 -0.17685117 1.4989065
-0.55031639 0.0070711225 1.2439328
0.43698999 -0.14176106 1.3239676
-0.10925144 0.028120892 0.50301826
0.46228594 0.010871343 1.457749
0.30258086 -0.20191643 1.067928
0.4171845 -0.16848862 1.3994614
-0.45796055 0.0086680017 1.5718704
-0.58098984 -0.19488421 3.2879715
-0.41996366 -0.036702905 1.8792945
-0.060048249 0.05557961 0.41499984
-0.22072306 -0.3005532 1.3846041
-0.34429252 -0.20243855 1.5466963
-0.53185505 -0.061915353 1.0601584
-0.28366393 -0.22980098 1.5697318
-0.48005486 0.019522842 1.3331584
-0.50742525 -0.2165581 1.4569618
0.68549961 -0.00078802183 1.135743
0.34721315 0.039712332 0.63522279
0.3704347 -0.27870786 2.011569
-0.18270066 0.055469856 0.25709176
-0.30503058 -0.2510286 1.4807938
0.44729325 -0.17274024 1.2520486
-0.60057104 -0.18580849 0.89558947
-0.42389989 -0.17331445 1.5164429
-0.73733705 -0.089953884 2.0930734
-0.38212985 0.05626737 0.76449478
0.66784555 0.026164018 1.1934863
1.650859 -0.14138357 2.0788159
0.08888945 0.053696662 0.63177073
-0.54721195 -0.0020990614 1.0604588
0.25789368 0.046476573 0.96996796
0.16658917 -0.021688148 2.0298038
0.44767344 -0.16937968 2.0344481
-0.23699084 -0.23598225 2.2969613
-0.74070597 -0.20855004 0.9455601
-0.55170923 0.0083001461 1.2550408
-0.55088538 0.002311619 1.0658847
0.50166941 0.033354856 0.74533427
0.074126631 0.059107143 0.3501085
0.35055387 0.023416076 0.65998828
-0.38888305 0.057347178 0.65324414
-0.061652634 0.058298375 0.3395499
-0.2042762 0.054821156 0.34844124
-0.19828011 0.052897457 0.44601357
0.57303196 0.037034161 0.69876659
-0.56716472 0.027624488 1.0987076
-0.20302024 0.053663962 0.34541762
0.3121233 0.049966693 0.37944686
-0.55991852 0.04480204 0.9727248
0.21467049 0.055569351 0.38201559
-0.53254896 0.018293988 1.2536677
-0.064119995 0.058222443 0.33233178
0.075923041 0.056760855 0.44323051
0.2142864 0.053809091 0.37997139
-0.57594854 -0.12984817 0.94743145
-0.52035195 -0.11064363 1.0417281
-0.54213065 -0.23562865 1.6001793
-0.43909711 -0.19977763 1.165933
-0.44885916 -0.0021091923 1.5848721
-0.06076562 0.055408485 0.5948385
-0.68419939 -0.16577193 0.98685157
-0.058004577 0.054428644 0.59505618
-0.27404737 -0.25715554 1.4641105
0.4226937 0.0013726354 1.446493
-0.25201637 -0.30647856 2.1804705
-0.19106773 0.052092329 1.301119
-0.27798828 -0.22314209 1.5136968
-0.19407791 -0.2990098 2.0375748
-0.58810061 0.016911495 1.0129799
0.2383734 -0.037584532 3.0723991
0.26693311 0.048558436 0.41987646
0.4578644 0.040839963 0.75507987
0.26699659 0.048733611 0.41257918
-0.41637197 -0.16521275 1.4801704
-0.58163679 -0.13076001 0.95645845
0.32149467 -0.26566905 1.7671005
-0.26131105 -0.31671017 1.9611615
-0.19123995 0.057124529 0.27185512
0.20827867 0.058240905 0.45436227
-0.50632221 0.01442696 0.99758708
0.15644406 0.054831699 0.56806695
0.21783817 -0.13634694 1.3393615
-0.55828315 -0.0033115484 1.2844476
0.64516407 -0.0058690794 0.86702192
-0.24670663 0.067860089 0.40981114
-0.36282641 0.052953403 0.88152802
0.60373133 -0.10870519 0.86718094
-0.51342863 -0.20292602 1.0577689
0.60845143 -0.10834594 0.87512863
-0.16264379 0.044892013 1.1236981
-0.68358856 -0.2126696 0.91470611
-0.2005823 -0.27433813 2.4323416
-0.18964788 0.052699491 0.48371184
0.34661707 0.039027102 0.63064539
-0.071018264 0.05778072 0.33924663
-0.30389437 -0.24540664 1.37191
-0.25509557 -0.28690755 1.5540835
0.39321667 0.036439043 0.67069709
-0.19461104 0.046363093 0.67839062
-0.56012404 0.00070849247 1.8934506
0.31734371 0.050105873 0.37768567
0.36770076 0.003173288 2.1539373
0.43575147 0.037900086 0.55120957
-0.2651372 -0.34689605 1.5576249
0.37026718 0.01784505 1.5305661
0.14484873 0.053722769 0.56492412
0.084356844 0.052330617 0.5720135
0.091623828 0.052812763 0.67297399
-0.071374819 0.058603879 0.36043751
-0.52378541 0.059607737 0.69071043
-0.558366 -0.15814023 0.94404805
0.34752417 -0.130595 0.68255055
0.33770913 -0.15562253 1.3354582
-0.42905527 -0.22442611 1.132954
0.14481024 0.053480409 0.56807339
-0.2894035 -0.27040339 1.5031389
0.60454422 -0.1208013 3.1989112
1.2247435 -0.062582046 3.4798565
-0.28940558 -0.41617835 2.2138257
-0.56666988 -0.12795302 0.93147218
0.072767973 0.058487248 0.33857572
-0.18885136 0.052292533 0.47720563
0.33259583 0.033327959 0.68522179
-0.20242795 0.055789739 0.45609105
-0.16962127 0.06003185 0.29308176
-0.2020109 0.048543543 0.60491717
-0.47345793 0.0094914455 1.5082806
0.078633592 0.059107639 0.47324669
-0.18645024 0.05916388 0.43360174
-0.19735119 0.054336816 0.33361328
-0.5112443 0.053306565 0.95577943
0.20225458 0.054769382 0.41810143
-0.41373822 0.0059829969 1.9814619
0.38120046 -0.17738859 1.5252155
-0.56211215 0.044576652 0.9596523
0.56427991 -0.10629065 0.80324805
-0.37741673 -0.22861789 1.4084815
-0.24577332 -0.29499668 2.0962982
1.6020335 -0.29583991 4.3849297
-0.50525868 0.05203101 0.96988714
0.35277432 0.046428241 0.42316806
-0.032070596 0.059231009 0.29142976
0.089308038 0.059384551 0.31152475
0.21214376 0.051060662 0.3698281
0.42746702 -0.12999253 1.4693357
-0.56961721 -0.0019122269 1.2850877
0.34735262 0.017500319 0.65009034
-0.58227271 0.054664567 0.94372284
0.36994785 -0.14034747 0.73200738
-0.50182825 -0.12436672 1.615636
-0.42779148 0.031407818 1.6910256
0.30170271 0.049500361 0.40915334
0.16500288 0.049806826 0.69186914
0.6687234 0.0090707773 1.1646451
0.49927449 -0.17189465 2.12218
0.22003819 0.063049287 0.34388697
0.21418935 0.030041598 1.2467963
-0.18804397 0.051840089 0.63135922
-0.12471995 0.0592824 0.28706586
0.3490414 -0.25502688 2.2625341
-0.21840113 0.063413352 0.44632375
0.45160413 0.0066975784 1.4537667
-0.19752227 0.050804708 0.32460678
0.53983706 0.037805855 0.69555938
-0.49194115 0.0022459999 1.6760701
-0.18984526 0.051049531 0.73025358
-0.19315371 0.053639524 0.3077457
-0.40440273 -0.18457347 1.1651186
0.417124 0.035503428 1.0706915
0.3576166 0.04333023 0.49228036
-0.55330348 -0.092906535 2.1480093
-0.00040462241 0.06085138 0.30372512
0.54911709 0.035571292 0.82208622
-0.26239285 -0.33676034 1.5081154
-0.60089493 0.058147278 0.92546999
0.50031227 0.018913604 0.8696264
-0.75690651 -0.090910353 2.1257648
0.49306008 -0.091511786 2.2233834
-0.54795504 0.02762688 1.0519804
0.14053845 0.060323447 0.28602266
0.45821169 0.040588975 0.80162871
-0.39876959 0.060245756 0.53790295
0.87467819 -0.13378312 1.410334
-0.80858761 -0.17758715 1.5461615
0.13353741 0.054453783 0.55131018
-0.033991221 0.061576314 0.27090204
0.5506438 0.041040495 0.6435405
0.21945658 0.053721011 0.57793844
0.29121321 0.050803155 0.39671123
0.20751169 0.060115416 0.32294524
0.12642305 0.054988906 0.33190739
-0.73865741 -0.18996798 0.95870578
-0.62800503 0.051140174 0.97948062
-0.8233549 0.049246274 1.1458515
0.50323653 0.034491748 0.75163805
0.38690904 0.044329539 0.56206739
-0.54966861 0.062528327 0.68201149
-0.24464059 -0.2762382 1.4870855
0.20269617 0.058621652 0.3776294
0.27518579 0.048117664 0.48372281
-0.65360469 0.0529809 1.0282975
-0.52449864 -0.14437258 1.6789793
-0.46845073 -0.077870063 1.6650447
-0.56111139 -0.19530508 1.0148481
-0.53152782 -0.11279006 1.0674371
-0.74498016 -0.15620908 1.0919896
-0.45241451 -0.20560965 1.1936301
-0.041937899 0.04956574 0.62620461
-0.60703528 0.03196235 1.0065035
-0.17403895 0.051236413 1.0094634
-0.67382878 -0.1933039 0.96105397
-0.44811094 -0.17506206 1.5879303
0.6320048 -0.0027089361 0.74734557
-0.43815807 -0.20014556 1.1519371
0.13245349 0.057332627 0.35776412
-0.3936879 0.05842676 0.70020354
-0.063110337 0.052543953 0.23312283
-0.19100398 0.045180775 0.79927194
0.61953467 -0.12121797 0.73766363
0.68907148 -0.0017198958 1.1432709
-0.12812883 0.060464602 0.26638734
0.36124358 0.047843486 0.43820751
-0.17201442 0.06105271 0.29912102
0.39036673 0.049961403 0.53543723
0.37582245 -0.2054117 1.3004519
0.30668455 0.05020231 0.41775811
0.38316566 0.043839324 0.55770767
-0.089822263 0.051575623 0.95481622
-0.73161793 0.057794582 1.0769962
-0.50762314 0.042972881 1.0165306
0.45191363 0.023659144 1.4265286
0.0024725683 0.060070615 0.25544751
-0.47907883 -0.20189092 1.1695265
0.21520452 0.057378873 0.41378748
0.21561866 0.057686057 0.44148672
-0.3683185 -0.21133801 1.0891925
0.34814054 0.041958902 0.43207824
0.46517795 0.038600925 0.76348126
-0.18612221 0.058562577 0.43171799
-0.44406688 -0.20513034 1.5373353
-0.32184586 -0.37563521 2.0149026
-0.5464747 0.0080346428 1.236698
0.57117158 -0.19759062 2.4392524
0.33122885 0.020587455 0.66011417
-0.38704276 -0.22107609 1.5192293
0.4070217 0.035051838 0.65350544
0.4574824 -0.16975871 1.3778304
-0.45328969 -0.20579924 1.2003642
0.38560405 0.033241682 0.96093595
-0.48803383 -0.00021017529 1.6567727
-0.073518991 0.061647039 0.29491484
-0.44495222 -0.22174154 1.1253074
-0.23598218 -0.32601255 1.4914519
-0.85287672 0.037512653 1.1686527
-0.091153264 0.051651426 0.97939432
-0.039571475 0.052716497 0.88908613
-0.19369672 0.054211676 0.42266262
-0.00037274882 0.057136081 0.2738713
0.16338563 0.039213315 0.86376822
-0.51594877 0.13761275 0.92141902
-0.48621517 0.039216373 0.8873173
0.062706709 0.048437394 1.1104294
0.42231268 0.0054639559 1.470946
-0.42825121 -0.19232784 1.1859449
-0.1463359 -0.17660052 1.6718923
-0.5474233 -0.12329562 0.89443648
0.52155578 0.036797255 0.69788492
0.13798922 0.059216499 0.28024936
-0.46753472 -0.17603044 0.96731079
0.51332134 0.041648902 0.614272
-0.68083262 -0.19683056 0.94350922
-0.32341048 -0.17520539 1.7849876
-0.057412785 0.05449469 0.4202534
-0.21931309 0.067732148 0.30562282
0.32994169 0.021171937 0.66042364
0.073107406 0.058779597 0.34826219
0.6451388 -0.007156346 0.74211347
0.483679 -0.034965403 0.68332589
-0.03818075 0.053774681 0.95607865
-0.28296083 -0.19922294 1.445156
0.56066781 -0.11527131 1.5519158
0.38535839 0.018841865 1.6094421
0.71350515 -0.070369929 0.91654932
-0.17335139 -0.17623788 1.9226331
1.0130863 -0.083902352 3.1697726
0.36885881 -0.26975286 4.0876813
-0.30454403 -0.18950467 3.1795917
0.23701817 -0.34870368 3.7509241
0.36321551 -0.14699182 0.75190818
-0.41722828 -0.17439947 0.80976951
-0.074764788 0.064459525 0.29611099
-0.56806237 0.065334179 0.75666726
-0.075121045 0.061027464 0.36144435
0.30069205 0.049206406 0.40664518
0.16898204 0.057282038 0.34690344
-0.43293431 -0.1526124 0.85008109
-0.12410909 0.059816144 0.28866339
0.44989341 0.034342676 0.76531446
0.63100356 -0.1822153 0.87934577
-0.57671362 0.040649559 0.72816765
0.43419915 0.033872068 0.73450458
0.20731193 0.049925197 0.35982764
0.29484278 0.047358271 0.57736075
0.32076007 0.05083508 0.42065585
-0.19764972 0.055410549 0.29379427
-0.91660601 -0.093147077 1.449303
0.64254558 -0.0056344699 0.86417592
-0.065831706 0.064245045 0.34426486
0.32911992 0.0319224 0.66445887
-0.12156397 0.058362428 0.28053606
0.33018082 0.03288801 0.65094006
0.30611452 0.016322572 0.56480587
-0.12238134 0.0691448 0.33080518
0.31629014 0.050403751 0.41360056
0.68427706 -0.1775647 0.83916223
0.3064608 0.050267227 0.41622865
0.31401372 -0.13411389 0.73251903
-0.14735161 0.060551941 0.26907754
0.21665302 0.057593543 0.44296992
0.2019487 0.05880205 0.3756057
0.20842198 0.05598652 0.43104947
0.2287305 0.053451464 0.55680263
0.097610012 0.059909701 0.33062947
-0.061510373 0.05651889 0.31802905
-0.38577116 0.058597021 0.48679078
-0.23020017 0.0530238 0.41446936
-0.054788526 0.051492527 0.29301083
0.033554558 0.061798096 0.30725169
-0.20686874 0.053977422 0.36114395
0.017637271 0.05878903 0.30786455
0.34941697 0.030854162 0.67832315
0.3492893 0.042007305 0.43324029
-0.23689634 0.054633275 0.3895942
0.42676705 -0.17557496 0.79640973
0.75442374 -0.044827133 0.97736037
0.24975581 0.062059991 0.64397943
0.53707498 -0.15381208 0.7443558
0.63097727 -0.19661768 0.90320599
0.20570941 0.060219146 0.38732803
0.051279578 0.059880249 0.33755767
0.29042101 0.049142323 0.37237298
-0.45413065 0.045946464 1.0138685
0.67188078 -0.0038597528 1.0326117
-0.82012147 0.035428133 1.1242868
0.023636613 0.061194669 0.29225552
0.52619296 0.037776276 0.70514286
-0.60928029 0.05666735 0.99434507
-0.18874995 0.052526146 0.48019707
0.21323684 -0.16201405 0.75882852
0.030530725 0.059118465 0.46687996
0.24617897 0.047862273 0.56275499
1.2837194 -0.058848821 1.9534787
0.21526943 0.051456451 0.3766557
0.36212516 0.042720228 0.81142271
-0.42208064 -0.18576837 1.1673869
0.35330218 0.041782588 0.78855789
0.50500286 0.041295588 0.5988065
0.07095176 0.052944768 0.41227686
-0.19303608 0.045460191 0.67592132
0.39892823 -0.14565861 1.1765722
-0.18831322 0.053518597 0.35071766
0.18274152 0.044851337 0.98214018
-0.57395667 0.064905211 0.72665823
0.41801006 -0.16981532 1.4045914
0.14684875 0.052991286 0.57694232
-0.57637489 0.0522618 0.93600547
0.69603413 -0.063476808 2.0646334
-0.19042709 0.048891127 0.52529132
0.45308435 0.021496093 1.516224
0.21988769 0.051772311 0.70486391
0.27204782 -0.21794711 1.3010756
0.15120853 0.05715546 0.35355961
0.34235254 -0.22668602 1.3753418
-0.18630633 0.048126269 0.5101999
0.3344726 0.029519942 0.67058671
-0.47339702 0.021100478 1.314555
0.34330028 -0.15792485 1.3350953
0.22027263 0.052135233 0.40862811
-0.060163293 0.056467567 0.61306727
1.634905 -0.28253698 3.8324995
0.36616915 0.042263787 0.52240908
0.020202953 0.056820739 0.56916368
-0.024666514 0.049988456 0.93465602
0.25598034 -0.27207381 1.3273627
0.52994555 -0.15629485 1.9784757
-0.59065008 0.054008275 0.96441209
0.32294235 0.017102636 0.67608178
0.020100985 0.053328671 0.52725732
-0.044207092 0.052219957 0.67332733
1.2995269 -0.37255543 3.5068231
-0.36459127 0.026009401 1.9636956
0.55008996 -0.12627131 2.1426339
0.97159046 -0.078251474 3.0175948
-0.75549299 0.16665711 1.0873715
-0.64323205 -0.058353201 2.8359771
-0.2530736 -0.32096684 2.0783739
1.9287797 -0.57915127 3.0221062
1.8273014 -0.43195879 4.9076958
2.0509763 -0.20511533 2.3693719
0.15654697 0.037395004 0.83957231
1.5593461 -0.13505523 1.8643063
1.5295352 -0.33617693 3.8719797
-0.098311663 0.06207766 0.32880652
-0.45522881 -0.073542744 1.6064841
-0.093600437 0.025815187 1.5330716
-0.0023127161 0.039580077 0.98985112
-0.48826474 -0.04197707 2.8410916
11.083141 -0.54830748 17.056873
