# .PCD v0.7 - Point Cloud Data file format
VERSION 0.7
FIELDS x y z
SIZE 4 4 4
TYPE F F F
COUNT 1 1 1
WIDTH 682
HEIGHT 1
VIEWPOINT 0 0 0 1 0 0 0
POINTS 682
DATA ascii
-0.18210402 0.056325607 0.4942131
0.22747698 0.041671429 0.30396628
0.35430798 -0.080664113 0.65713739
0.11808309 0.047913577 0.45841694
-0.11625233 0.057550684 0.47314024
0.079651266 0.054316878 0.41958427
0.28811762 -0.093191855 0.70094204
0.12194291 0.021359967 0.42639208
-0.62637591 -0.053299345 0.86178923
-0.18028924 0.046883203 0.69750118
0.2424536 0.04271486 0.33615541
0.62044311 -0.01342516 1.221046
0.23973539 0.046418607 0.32093334
0.31201443 -0.10052759 0.72298193
-0.20143357 0.10031424 0.69187403
1.1242734 -0.39808258 1.9855571
1.1944875 -0.083004169 2.1421695
0.31050882 -0.082368977 0.74380589
0.72862267 0.012178395 1.0972538
-0.48019901 0.048116662 0.93179607
0.78368843 0.012811795 1.1350889
-0.77218032 -0.08023829 1.4102178
1.1081911 -0.073477499 1.5809474
1.2249916 -0.27895647 1.889451
0.15448794 0.054937907 0.402493
-0.95921242 -0.29564345 1.8727374
0.29999921 -0.11347988 0.66128206
-0.365437 0.05674402 0.5646677
0.12108061 0.028736833 0.55962563
0.30624923 -0.11575449 0.67763758
0.12763795 0.032528341 0.4458518
-0.89432144 -0.23153585 1.6939363
1.4286147 -0.34136575 1.7394419
0.15410104 -0.15083176 0.88399458
0.022383541 0.052009281 0.44437313
-1.2620788 -0.42477608 2.7321897
0.56800914 -0.14578488 2.2142453
-1.3213176 -0.4549574 2.833704
0.30292335 -0.048227571 0.70320129
-1.2290817 -0.2616007 2.6299014
1.7696711 -0.37175754 2.4199381
1.2757618 -0.28162277 1.986845
1.5315844 -0.26343998 1.9688444
-1.2207487 -0.27451015 2.5531368
-0.85562932 -0.15471664 2.5051465
0.63475323 -0.43774199 2.2733688
-0.87293231 -0.36536503 2.4986954
0.52990842 -0.38145018 2.375484
-0.099377722 0.043549728 1.1904812
-0.037190348 0.052704267 0.81356859
1.6522208 -0.050487481 1.9745364
-0.69166648 -0.11935251 3.427002
0.58399093 -0.35384214 3.6920762
1.5440618 -0.10018704 2.379796
-0.18861422 -0.1868279 2.5540662
-0.25583205 -0.37286565 2.856298
-0.18260273 -0.18397459 2.5179219
-0.23607364 -0.39164868 3.1516519
-0.17477503 0.00016911328 1.675714
1.0799952 -0.22564599 1.9657068
1.008158 -0.34793061 2.6018586
-0.16164449 -0.32847443 4.0030098
0.75999117 -0.012262799 1.4779282
-0.099738032 -0.14945269 3.7701116
-0.29983172 -0.40991098 2.8266463
-0.85727251 -0.47596219 2.5839572
1.8836002 -0.089001916 2.5940442
0.10727343 -0.072780721 2.1504192
0.92845964 -0.027049698 1.6402459
1.0997933 -0.35820875 1.976737
1.1193396 -0.23435652 1.8449974
1.1234348 -0.28325298 1.9893012
-0.80675685 -0.40177548 2.6503949
-0.88321292 -0.07704886 1.2571187
-0.85415721 -0.24762288 2.748847
1.5041486 -0.30990228 2.5198584
-0.035637528 -0.44183469 3.1350141
0.27056196 -0.095878087 0.69610643
0.14354524 0.026006687 0.4325285
0.64699006 -0.025912262 2.1345434
-0.97902203 -0.34527728 2.5471058
2.8955524 -0.15984479 4.5761051
1.113453 -0.024618171 1.5010381
-0.59192181 -0.38702706 3.7895098
0.14942637 0.054671459 0.42876244
1.066247 -0.023670815 1.4908466
0.33026937 -0.062416241 0.6861558
1.0890146 -0.069381498 1.4911408
0.98942697 -0.020136651 1.5170236
-0.83138394 -0.072616644 1.1769166
2.1765177 -0.73576164 3.9684172
-0.93920505 -0.40407577 2.4321237
0.3488079 -0.29277602 4.3518333
-0.8611871 -0.35989904 2.4608102
1.0660113 -0.023395456 1.4959249
-1.0026522 -0.43743497 2.5579166
-0.13308969 -0.5234279 4.0446267
1.2982173 -0.31847069 1.9352283
-0.04019466 -0.52916646 3.7564692
1.071089 -0.024122283 1.495615
0.35568199 -0.29935682 4.4438066
-0.91342235 -0.27888355 2.4850607
-1.1471578 -0.40282559 2.7452912
-0.042436033 -0.53063315 3.8007221
-0.86265469 -0.37042814 4.2794633
1.1482741 -0.02470585 1.4849367
-0.95816052 -0.3495712 2.5073891
1.0605004 -0.022712044 1.4776053
-0.11466733 -0.4991633 3.7709079
-0.78579891 -0.41439644 2.596796
-0.86731899 -0.25384587 2.8205662
-0.8706758 -0.27294207 2.5508537
-1.0436234 -0.42082524 2.5881796
-1.0343376 -0.39105737 2.5175948
-0.38186809 -0.40367728 2.8847752
-0.83663464 -0.020737201 1.1879373
-0.76241088 -0.24653685 2.8094549
-0.73933506 -0.26321545 2.53725
-0.77588534 -0.39323545 2.9584522
0.2297149 0.084238894 0.53362513
-1.0325332 -0.22419453 2.5011506
-1.1126354 -0.40373969 2.6520243
-0.80369139 -0.40520835 3.0813799
-0.52430511 -0.068929516 1.6844702
0.28491029 -0.053058714 2.3659201
-1.0286641 -0.21828499 2.4901843
0.016077012 -0.24406597 3.9439354
-0.85778379 -0.036657535 1.1662111
-0.84898186 0.021534633 1.153708
1.1351511 -0.083054014 1.4338584
2.1032231 -0.17425421 6.25877
-0.53815949 0.0399464 1.3176746
0.42547354 -0.097786911 1.0202494
-0.47302791 -0.073673449 1.9509068
0.97095764 -0.060421519 1.5315151
0.35935315 -0.084450312 0.66958904
-1.164497 -0.40248489 2.7945008
-0.85849094 -0.48384097 2.6022201
0.14807937 -0.29619792 3.4374666
-0.84052527 0.018119648 1.138279
0.15342352 0.025755331 0.4218812
0.35722265 -0.068836845 0.67860413
-0.80094528 -0.35183159 3.5660892
0.33502999 -0.11794633 0.68085289
0.3260726 -0.067141846 0.68434429
-0.97381222 -0.1504235 1.387722
0.32185164 -0.046353638 0.6801548
0.14119402 0.02596879 0.42764187
-0.80972874 -0.24669808 2.6428685
-0.81309211 -0.43582094 2.6762457
-0.80731201 -0.29261085 2.9838929
0.15404263 0.025944702 0.4218111
0.3293083 0.028160738 0.66591978
1.1256711 -0.26636624 1.7488728
-0.89900708 -0.26682526 2.4653225
-0.17026302 0.056303132 0.38851166
0.47868893 -0.025498368 1.2123914
-0.89605141 -0.56229156 4.479969
-0.95941949 -0.43530938 2.5541878
0.36923513 -0.0040538497 0.7431407
-0.81867015 -0.023220956 1.1505909
-0.91045904 -0.32091802 1.5687928
0.98615634 -0.045205966 1.5119405
-0.79898918 -0.38987568 2.5765357
-0.7960192 0.011049941 1.240871
-0.65590465 -0.041402943 3.7239723
-0.73079813 -0.20956203 3.1447263
-0.71738362 -0.22342491 3.8242579
-0.96316648 -0.36243245 2.5971184
1.0899713 -0.070223644 1.4946165
-0.87887502 -0.25559136 1.4448452
-0.16149375 0.059379458 0.35854673
-1.3971106 -0.075455524 3.7282786
1.0652528 -0.020736761 1.4857512
-0.84759653 -0.18387452 1.4575772
0.94472229 -0.057068162 1.3915462
-0.17896488 0.052873544 0.61108398
1.3222656 -0.21708491 2.1093473
-0.85650074 -0.27511138 1.5412173
-0.8952949 -0.35638586 2.6006312
0.99679327 -0.043155089 1.5283632
1.2111945 -0.30881679 1.9223242
-0.86651039 -0.38252673 4.1510577
-0.86201477 -0.15608004 2.5109038
0.15061507 -0.16352901 0.84658575
0.30344698 -0.042285167 0.72092915
-1.2699953 -0.48043773 2.9205232
-0.74977803 -0.26786295 3.3511896
-0.72499073 -0.57194304 4.4594622
-0.84756279 -0.39476156 4.3290939
-0.71588016 0.027486484 2.1352296
-0.92596245 -0.46235541 2.5932279
-1.2721186 -0.4365797 2.7556124
-0.90461075 -0.39100751 2.4909096
0.08017388 0.054518655 0.35593796
0.58579934 0.031994842 0.8796792
0.69762039 -0.14651313 1.2241068
-0.28907761 -0.22840449 2.6554766
-0.28229466 0.055321623 0.8702507
0.44119403 -0.0089589506 1.1313047
-0.85115945 -0.074544482 1.1573358
0.1627973 0.053301618 0.39609623
-0.80682611 -0.024544396 1.1707807
0.16230884 0.053203359 0.39665222
-0.97086108 -0.33868283 1.4986243
0.29285219 -0.10069639 0.81750011
-0.80188203 0.017000422 2.3533292
-0.77365458 -0.26337409 2.8442469
-0.49256042 0.039452303 0.91612482
-0.52606189 -0.054873861 1.7774348
-0.87854958 -0.25453505 1.4439445
-0.68050468 -0.19187868 3.3742599
-0.86769867 -0.1428293 1.3888955
0.14817175 0.054011546 0.42771339
0.16120014 0.053280555 0.39566565
-0.10883871 0.054863684 0.46497965
-0.81092405 -0.39455226 4.2173491
-0.88982809 -0.23819274 1.4487686
0.12102148 0.043163799 0.58319807
0.13947186 0.054700978 0.42727184
0.12260899 0.043279033 0.58705378
-0.056662053 0.055137128 0.33842659
-0.82906532 -0.24370041 3.0022001
-0.85004854 -0.017753072 4.0962973
-0.56086802 -0.38112703 3.6403952
0.30074367 -0.047741599 0.69630384
1.5785815 -0.15458557 2.0887904
0.16586778 0.025814785 0.42162466
0.16634777 0.026841076 0.42345953
-0.88793552 -0.021761931 1.1954441
-0.97023368 -0.56469637 4.5744038
-0.48179582 -0.16183403 3.0652442
0.32694122 -0.067834541 0.68903542
1.0925956 -0.07012184 1.4919291
-0.55035388 0.040866468 1.7767773
-0.82211244 0.024143796 1.1687908
1.3233523 -0.3045353 1.9850087
-0.10925677 0.055848237 0.47872496
1.8669926 -0.025445096 2.2088814
1.1280497 -0.04535719 1.4841866
-0.55491889 -0.38482192 3.6601734
0.3576909 -0.0694471 0.68012619
-0.11674419 0.057439305 0.3428936
-0.92902148 -0.3399865 1.5833559
-1.2318976 -0.46841297 2.8266087
-0.27028349 -0.37502009 2.7952933
0.12020227 0.051810719 0.4537096
-1.0013798 -0.43841183 2.5588965
-0.82770634 -0.46861133 2.5916743
-0.034696609 0.049522042 0.7382865
0.29946259 -0.047688149 0.69306087
-0.84685028 0.013039913 2.4968686
-0.99837065 -0.30460712 1.4355717
0.2139053 0.051954262 0.49005365
-0.9080317 -0.15405563 1.4010682
-0.98570049 -0.31504995 1.4426603
0.28409937 -0.058692671 0.6840806
0.0087112486 0.055163182 0.35039234
1.1362935 -0.046532653 1.4947586
1.6363991 -0.043259554 2.0374584
0.53471291 -0.29877996 2.4829593
-1.2326339 -0.46702066 2.8274465
-0.79111171 -0.41163304 2.6373663
-0.035773546 0.047729857 0.67511606
0.35014185 -0.064553492 0.66488552
0.12453768 0.016542993 0.56955004
1.3735989 -0.26423129 2.0152054
-0.65202904 -0.097913988 3.5421906
-0.057773203 0.055668324 0.34080315
1.4406092 -0.33163559 1.7466016
-0.80977213 0.025363628 1.1489887
-0.14858636 0.049744688 0.80430365
-0.46703538 -0.044587277 2.8998122
1.411988 -0.25660986 1.7666235
-0.47047547 -0.24754915 3.0098453
-0.84450114 -0.17062879 1.4198098
0.078712374 0.053773589 0.33463287
0.14966694 -0.14262515 0.83898401
-0.78441942 -0.24766353 1.4055638
-0.76016891 -0.34081298 2.6358848
0.28769776 0.043439724 0.52604628
0.093533665 0.050127584 0.68576384
-0.84884381 -0.2656199 2.4951911
1.3095452 -0.34061736 1.9084969
0.12930569 0.043215863 0.44509315
-0.77051055 0.025172025 1.0867229
0.10306099 0.051724181 0.68987274
-0.5483079 -0.36717042 3.5280094
-0.83351088 -0.074949287 1.1510406
-0.48785439 -0.0523201 1.1750832
-0.19791868 0.058288127 0.27554154
0.080035239 0.054401301 0.3397007
0.12231216 0.022623235 0.43074989
0.15424475 0.025982495 0.41926765
0.30236879 -0.043521889 0.71885347
0.26502553 -0.022174634 0.69119787
0.1542168 -0.14415416 0.86793375
0.16485175 0.053794436 0.40119791
-0.32661411 -0.43210307 2.8946943
-0.73982024 -0.40064895 2.6007195
-1.1481344 -0.2235525 2.6452208
2.1597774 -0.33498085 2.6775227
0.33213827 -0.13040382 0.689569
-0.11741439 0.057639576 0.34250546
-0.10842487 0.056815751 0.33310318
-0.91191876 -0.22788212 1.4703875
0.047502011 -0.15438068 0.87140799
0.33787253 -0.10899515 0.67853451
-1.0214615 -0.2772446 1.5231295
-0.74843681 -0.060282372 3.3540034
0.35433552 0.028565884 0.71750498
-1.2675397 -0.17499372 2.793673
0.48288187 0.03665781 0.91608381
1.53135 -0.27453256 1.8627992
0.15579638 0.055041268 0.40524435
0.15012899 0.054555215 0.44178295
1.1547159 -0.33941141 1.9220991
-0.91155839 -0.2885578 1.4429479
-0.10607955 0.054574452 0.46560955
-0.12539563 0.055124059 0.45722198
-0.82190549 -0.037694208 1.1457715
0.66010523 -0.38038164 4.4036837
0.043841094 -0.18824157 0.90930557
-0.58338428 -0.0076208673 2.7857103
0.36104044 -0.07476119 0.67976141
0.22849455 0.04704345 0.36815548
-1.0205402 -0.21539733 1.5445113
1.1095115 -0.024080209 1.4957657
-0.74502945 -0.061280593 3.3272605
0.33523771 -0.11748912 0.67996836
-0.54471111 -0.38055414 3.6134267
0.33590785 -0.064524263 0.67515707
0.29174444 -0.073673062 0.71406412
-0.75620234 -0.069058068 1.123548
0.14236674 0.027879661 0.43433475
0.19013473 0.05199974 0.44531155
0.17404929 0.022325717 0.42880869
-0.94160163 -0.3437365 1.5144277
-1.0053008 -0.30925563 1.4667807
1.1807312 -0.30185193 1.869173
0.28839675 0.040211976 0.36410379
0.34476152 0.030928215 0.70366859
0.16467372 0.024817353 0.41230488
-1.0397803 -0.19080043 1.4453235
-1.2044411 -0.4420512 2.6774645
0.014958769 0.055893246 0.348526
-0.75044513 -0.40462506 2.6513839
-0.16824695 0.050555278 0.64441967
-0.97333467 -0.15550289 1.6276727
-0.86823285 -0.30287385 1.4822764
0.14825287 0.020571109 0.42828989
1.1568571 -0.34053361 1.9290676
-0.18369439 0.059224773 0.30534387
-0.19205943 0.057346195 0.2638278
-0.81958151 -0.017957129 1.1390824
0.080922753 0.055012826 0.34117413
0.27824482 -0.13897279 2.731112
-0.74527955 -0.19968498 3.0783
0.86920953 -0.013689566 1.3348541
1.7096969 -0.25380915 2.0773373
1.5083563 -0.30506811 1.7965069
0.23872373 0.046813041 0.38535929
-0.35902253 0.054094762 0.82313871
0.21694675 0.050832741 0.30278635
-1.0607556 -0.26265687 1.8450499
0.1518614 0.026380869 0.41019487
-1.0552096 -0.24371341 1.4485879
0.15157244 -0.16496465 0.86477327
0.58725047 -0.4019224 2.3534837
0.12677482 0.054174833 0.49923992
0.61292899 -0.42259106 2.3328452
-0.060379058 0.057611562 0.35516119
1.2415164 -0.27915999 1.9269142
1.3817873 -0.33555645 2.2202387
0.1270918 0.043392383 0.60608959
0.1286867 0.027615106 0.4259243
0.2178311 0.051518593 0.30441785
1.9386621 -0.3117291 2.3523545
0.54608607 -0.17880565 2.3431425
-0.60827088 -0.17267454 3.838273
-0.35958579 0.055291288 0.64773655
0.55264592 -0.1839655 2.3768148
0.010138124 0.052919589 0.45218563
-0.5109899 -0.083361901 2.12853
0.32297823 -0.055714302 0.68057585
1.888561 -0.054956794 2.3489327
-0.060083896 0.057265691 0.34492111
0.051014096 -0.19172332 0.92742205
-0.84745717 -0.18333149 1.4592118
-0.98850501 -0.015340991 1.528152
1.5812441 -0.28288537 1.9335899
-1.053216 -0.31132001 2.5768137
0.75506544 0.018084444 1.2770681
0.28792593 0.040408038 0.3628974
0.18298504 0.056467727 0.2670927
0.71086276 -0.46498731 2.2490783
0.12404445 0.053189047 0.48216105
-1.2909342 -0.44770914 2.7743788
0.23824051 0.046872094 0.38526583
-1.0379964 -0.23872915 1.4200082
-0.83605182 -0.029698126 1.0962892
1.4337301 -0.3563796 2.149086
0.22763315 0.044895399 0.50585747
-0.90765738 -0.48352835 2.6001158
1.1614389 -0.38351047 1.8857851
0.13544211 0.056159858 0.28390503
0.5752846 0.031169053 0.85693884
1.8124512 -0.033515655 2.1959014
-0.31311813 -0.1585995 2.4966941
0.32624963 -0.13019222 0.69336414
-0.17057583 0.053410675 0.42479372
0.21826604 0.049018964 0.44566441
-0.78419745 0.0028172918 1.1306257
0.18763563 0.055521324 0.30606771
-0.87490189 -0.27309847 1.4608631
0.18195519 0.04530485 0.44584513
-0.20551053 0.053651847 0.30070543
0.39696226 0.028902091 0.63199759
0.0072819293 0.055872601 0.34414673
0.6935842 0.018377509 1.2310638
0.31213978 0.046641611 0.57275867
-0.33323839 0.049598746 0.87474966
0.31988665 -0.046661049 0.76155329
-0.11764511 0.057640418 0.34085226
-0.12108424 0.053250842 0.44154406
1.394209 -0.41130933 1.9421425
-1.0667168 -0.19683948 1.4853411
0.20073017 0.055556551 0.23776627
-0.19311264 0.054102026 0.33704615
1.3778616 -0.17452499 2.3436046
1.1308258 -0.26070759 1.8259282
0.40608487 -0.031342305 0.83731461
0.044903427 -0.15178624 0.84369707
-0.82713628 -0.036065638 1.1509848
0.34959063 0.029270072 0.71352863
0.30573127 -0.12370156 0.6469326
-0.97187507 -0.27751595 1.4371414
1.1405587 -0.02630619 2.063355
0.34675184 -0.066284351 0.66316175
-0.12881783 0.05598744 0.4721384
-0.38973984 -0.057266615 2.6323986
-0.50050104 -0.17007852 3.3095059
-0.2694582 -0.33981207 3.0569835
-0.46313956 0.049946107 1.0473752
0.34851941 -0.0018172637 0.70941448
0.75358522 -0.4495565 2.5607715
0.34381273 -0.10854074 0.67258835
0.58041918 -0.32357052 2.2873449
1.3367312 -0.31878421 1.9979162
0.19250414 0.056951903 0.31335402
-0.83509421 -0.015047714 1.1654644
-0.22327092 0.048976213 0.42136478
-0.14449349 0.043816738 0.49534559
-0.051683396 0.05691082 0.3397131
1.1134704 -0.025571711 1.5006566
-0.81972742 -0.34129888 2.5505028
0.35076156 -0.062675454 0.66916895
0.12231585 0.022913612 0.43021488
-0.30903342 0.063323155 1.0520873
1.7023808 -0.048655599 1.9996057
-0.19802502 0.063334569 0.5846262
0.24651423 0.047330964 0.33002424
0.32647279 -0.12832177 0.67640972
-1.073445 -0.1986101 1.427249
0.022174746 0.053222515 0.46031141
-0.12360147 0.056306634 0.44870424
1.1475406 -0.23549804 1.8991351
0.016214877 0.057017863 0.35274124
-0.19558194 0.048546739 0.39989328
1.1396799 -0.39095876 1.911449
-1.0432885 -0.25340778 2.4777431
1.1991976 -0.35791022 1.9079695
0.24837127 0.035305515 0.33272791
0.47498938 0.037552267 0.9047637
-0.17712358 0.056827329 0.49712467
0.081343263 0.055868369 0.35928488
-0.35006973 -0.38839269 2.7710629
-0.12036589 0.05544275 0.43519163
0.35853681 -0.071008794 0.68165922
0.32624987 -0.063423656 0.69280052
-0.00097510219 0.057695016 0.26722193
0.015169114 0.054456163 0.33494186
-0.16427782 0.050202914 0.62647438
-0.1169872 0.057232872 0.47381687
-0.85462666 0.037466154 1.1878266
-1.084491 -0.2189275 1.4617214
-1.0005984 -0.30637476 1.4900517
-0.84820509 -0.075496927 1.1515007
-1.0108798 -0.21381021 1.527451
0.95755255 -0.038934909 1.5226579
-0.74842763 -0.29235944 3.9399567
0.12425253 0.021820074 0.43635798
-0.75577998 -0.35665303 2.7878976
-1.0012722 -0.28616598 1.5273008
0.94667161 -0.079857953 1.52387
-0.93972647 -0.46509728 2.6451888
-0.015742749 0.057484075 0.35192919
1.4085728 -0.42800814 1.9403248
0.10069612 0.050733306 0.66009617
-0.15375701 0.050024956 0.81032228
1.2919863 -0.23239323 1.9666343
-0.17185268 0.061723754 0.30256963
1.1018355 -0.071071886 1.5099878
-0.60557055 -0.3823894 2.9664354
-1.0448254 -0.22947982 1.4247394
0.32983682 -0.13202319 0.70343447
0.66198134 0.019552942 1.2223873
0.43279526 0.03326124 0.80959368
1.1462001 -0.39528322 1.920042
0.95706654 -0.081199646 1.5424366
0.0095357001 0.053268608 0.4551239
0.3186312 -0.055480272 0.67173815
-1.2523056 -0.1740739 2.7449245
0.077821404 -0.1772972 0.94712687
-0.86467803 -0.15729204 2.5520234
-0.88827109 -0.25702223 1.4607811
0.87473035 0.012190066 1.157546
1.1272404 -0.40215135 1.8580127
0.13820526 0.053885587 0.33205175
1.1605145 -0.35090172 1.8653927
-0.12477192 0.060207225 0.3062036
0.4582065 0.035386637 0.78359079
0.12814972 0.043546461 0.44124794
0.14047435 0.026526811 0.42909384
0.0069426596 0.054088518 0.32748985
0.024596721 0.054538742 0.46555281
0.14681539 0.054067865 0.3371129
-2.8309305 0.068608463 3.6357183
-0.046876758 0.054620448 0.81342936
0.29917666 -0.047175609 0.69359207
1.68262 -0.16930351 2.3146539
-0.17284194 0.044007923 1.0870776
0.17612925 0.02228863 0.43517828
1.0979491 -0.36441347 1.7740107
-0.15743336 -0.049020909 0.99938107
-0.81769943 -0.20326227 1.3375955
0.7591964 0.011998642 1.1477947
-0.87489808 -0.14834556 1.3416004
1.2484773 -0.28263521 1.9274893
0.3151885 -0.08517433 0.69707918
-0.1596714 0.048357885 0.57766151
0.16552189 0.053644486 0.40057993
0.56956935 0.038316499 0.8775959
-0.02605173 0.057586409 0.32591629
0.21542606 0.056012645 0.35574579
0.094255298 0.051544756 0.70640087
1.0044591 -0.041646667 1.537487
0.14156625 0.054975718 0.34240675
0.73232114 -0.4948062 2.3549614
1.1613853 -0.046842486 1.5098438
-0.49193218 0.039305832 0.91550159
0.73630762 -0.13012138 1.1006317
-0.93098772 -0.33592066 1.5976629
-0.10719088 0.055550575 0.47812653
0.22165397 0.036757786 0.40276814
-0.9493072 -0.16433954 1.3977365
0.32681224 -0.048095338 0.68812847
0.15117589 -0.16481102 0.86371851
1.2015792 -0.36226866 1.9352369
-0.63973403 -0.10741938 3.1532841
0.4920108 -0.08974468 1.7252064
0.36203805 0.039426364 0.56519985
-0.20112446 0.052444264 0.29281378
-1.2967958 -0.39670643 2.9130888
1.4641247 -0.41816536 1.8360147
1.1647586 -0.34517825 1.855093
0.8688935 0.011882655 1.1452665
0.16715315 0.024386695 0.42396879
1.494753 -0.37217107 1.8450356
1.1507729 -0.2198281 1.801105
1.1848212 -0.26710519 1.9709897
0.98936915 -0.081130348 1.4914274
0.3721709 -0.042159118 0.83023357
0.31047621 0.031082684 0.64889812
-0.25405726 -0.3807148 2.8350949
-0.24050698 -0.27247387 2.7068548
0.21843144 0.050649002 0.28860426
1.6006116 -0.26212934 2.3985906
1.0888439 -0.32989964 1.8840623
-0.10944787 0.057011858 0.33772755
1.3381262 -0.25528976 2.0955853
-0.93454587 -0.46463814 2.6290183
0.2341046 0.046122946 0.3761797
0.57068038 -0.19422397 2.4657607
0.14932886 0.055052958 0.34172678
-0.1990988 0.052209165 0.28943682
0.35597154 -0.085215516 0.68460226
-0.96852946 -0.28951439 1.4365783
0.49982497 -0.23707274 2.5710406
0.33745238 -0.066557504 0.68000698
0.13342944 0.055237364 0.24127674
1.0617914 -0.069949478 1.5120177
1.5260307 -0.45592079 2.192657
0.1566985 0.052120134 0.41458941
-0.35816959 0.057427071 0.43340921
0.14811406 0.02054096 0.42554569
0.14346686 0.045650814 0.8703475
0.33017412 -0.064434804 0.66429996
0.21906731 0.052246369 0.26766133
0.23071858 0.042119 0.40647984
0.13212469 0.056135897 0.27819657
1.3157243 -0.29505524 1.9441948
0.1430144 0.014893103 0.41117716
-1.0234473 -0.28889936 1.4645791
1.1802025 -0.21364474 1.8533196
1.0466111 -0.41618583 1.9760256
0.11921993 0.017102895 0.45480537
0.17278823 0.022062631 0.42455292
1.1558679 -0.35347041 1.9499006
0.13331071 0.020124968 0.36938095
0.32528809 -0.052083306 0.68060923
-0.10618624 0.055924755 0.32656765
0.34108993 -0.08463452 0.68177032
-0.29106858 0.044433765 0.65492725
0.56764901 0.040025543 0.89115953
1.5987717 -0.2644054 2.3961873
-0.1193054 0.058350291 0.346982
-1.018491 -0.2676509 1.4437675
1.0969732 -0.41461703 1.9038115
0.96524715 -0.044673637 1.6518254
-0.19034371 0.060610872 0.2679193
1.344715 -0.30806282 2.0176706
-0.2116352 0.047123909 0.55032873
-0.15920988 0.041932724 1.0501733
-1.0068964 -0.16908312 1.3758631
-1.0543061 -0.24482816 1.4455609
-0.83318079 -0.26226804 1.4851375
1.5229897 -0.32399964 1.8333549
-0.1856921 0.059815533 0.31078911
0.87672639 -0.028774247 1.1042089
0.2788299 -0.079910457 0.76755476
1.5077313 -0.30593535 1.800498
2.7223194 -0.079558797 3.2565393
0.21451804 0.052817784 0.29933596
-0.88117421 -0.053175889 1.2580566
0.90177822 -0.040015399 1.5415535
1.1376896 -0.067276321 1.4963207
-1.0330728 -0.17243823 1.416851
-0.14234754 0.045050498 1.1647897
-0.50086081 -0.057841174 1.2205081
-0.60284305 -0.17210561 3.2883568
1.5123799 -0.38295013 1.8699331
1.0191377 -0.0090978779 1.3568926
1.4330844 -0.42602286 2.0515056
0.15962783 0.007786531 0.40045738
1.90853 -0.056203105 2.260313
0.34480926 0.029132778 0.70250607
0.12498108 0.041881323 0.5889535
0.070815116 0.04833854 0.29232645
-0.84555578 -0.28586447 1.4947367
0.16218099 0.054951359 0.39387512
-0.093036443 0.06081944 0.27883029
-0.060060829 0.056971766 0.3398819
0.38294813 0.042012032 0.45173836
-0.080726355 0.058421638 0.34214115
-0.1807349 0.059878111 0.28932762
0.11403212 0.03065904 0.54725647
-0.52758741 0.032641374 0.90081263
-0.52584362 0.031508841 0.89694166
0.69858563 0.015763927 1.0468168
-1.0177313 -0.24453723 1.4105973
0.38401636 0.042180583 0.60215235
-0.19022223 0.052439529 0.36101437
0.22608224 0.041960031 0.30223846
0.30183342 -0.11614177 0.66618443
-0.14321092 0.047077149 0.74737978
0.1236966 0.017862761 0.47379351
0.015299231 0.053786531 0.3256526
0.3436189 -0.053415142 0.68120337
0.21247408 0.047843672 0.43267393
0.11481443 0.047303088 0.44492579
0.051072747 -0.15625238 0.8503418
-0.18453327 0.051598292 0.32078886
-0.49476436 0.039039653 0.92071676
0.76298785 0.01062325 0.89383841
0.24015161 0.038159113 0.39396286
1.0646735 -0.33070284 1.8170815
0.16294095 0.052098125 0.30403686
0.34282365 -0.10983994 0.68924904
0.1267527 0.054597139 0.24808908
-0.15923551 0.04999049 0.69866037
-0.33531156 0.050549917 0.8851428
