# .PCD v0.7 - Point Cloud Data file format
VERSION 0.7
FIELDS x y z
SIZE 4 4 4
TYPE F F F
COUNT 1 1 1
WIDTH 655
HEIGHT 1
VIEWPOINT 0 0 0 1 0 0 0
POINTS 655
DATA ascii
0.35391563 -0.076754883 0.44735551
-0.19533288 0.051161028 0.45641637
0.28634828 -0.089614153 0.45534158
-0.49550778 0.051994026 0.67430043
-1.524498 -0.4428488 2.6327875
0.11262578 0.035092443 0.33251595
0.5407998 -0.14252676 2.0545967
-1.3940933 -0.45778304 2.6070235
0.68905026 -0.4804067 2.0883987
-1.4348381 -0.30235055 2.6313684
-0.90992051 -0.15233092 2.2637703
0.56955212 -0.41534415 1.9512541
-0.92092484 -0.36179253 2.2415364
-0.12314552 0.047099382 0.92673707
-0.18469942 0.036059912 1.0074227
-0.53486651 -0.037730437 2.2071965
-0.18022066 0.05652095 0.48388791
0.00914222 0.058345973 0.28474164
0.3142904 -0.034467246 0.45987344
0.3148104 -0.034618828 0.45697904
0.28797281 -0.10322964 0.45735145
0.33305311 -0.047030877 0.44797254
0.091926873 0.057609223 0.48646808
0.11986637 0.033069674 0.18378711
0.099441767 0.050342012 0.61820626
-0.40213066 0.061437987 0.71918273
1.3105149 -0.32340068 1.7835348
0.45486826 -0.40248299 2.207372
0.074788272 0.049653344 0.62760091
-0.78338307 -0.14089428 3.0353916
-0.33456421 -0.23087502 2.4149024
0.31319588 -0.061614934 0.45240092
-0.84157938 -0.22010857 1.2116125
0.111624 0.019158456 0.27745175
-1.1607957 -0.40689284 2.3917158
-0.1891982 0.058200914 0.40791202
-0.52084643 -0.053267937 0.95783782
-1.065552 -0.21188372 2.244549
-0.54682475 -0.047972556 1.4638054
0.6876784 -0.42084074 2.0919697
0.59483856 -0.29787731 2.1056287
0.52658874 -0.36181867 2.3652389
-0.97300655 -0.55563164 4.2351809
0.49160129 -0.41416556 2.3281238
0.64246088 -0.42366669 2.0987971
-0.6368739 -0.37412217 2.7161582
-0.32640725 -0.36007765 2.2334859
-0.31314933 -0.28057325 2.6411197
0.11388326 0.041515943 0.33107924
0.11318672 0.023105061 0.22498727
0.13322341 0.024839478 0.4214437
0.12018442 0.030183697 0.18658376
0.29737449 -0.086144865 0.45481133
-0.52856332 0.05274136 0.97269559
0.96649116 -0.033245448 1.30287
-0.87411672 -0.25176722 1.2548749
-0.97862679 -0.23181692 1.3028724
0.0087964535 0.057560176 0.27369618
0.086279631 0.05416115 0.42996907
-0.19323927 0.054892629 0.28069568
-0.91010743 -0.21335417 1.2154996
0.34634089 -0.055871915 0.44563031
-0.90870541 -0.21334878 1.2123029
-0.64879483 0.05547858 1.2248619
-0.32194984 -0.23400766 2.5550025
0.48977667 -0.41651988 2.3285458
-0.29796034 -0.36400837 2.8682067
0.32804227 -0.060972679 0.45158839
0.11252666 0.041122001 0.32619643
-0.1939525 0.053011075 0.36897874
-0.18189663 0.049026303 0.4950583
0.12959141 0.031875506 0.18157649
0.29089451 -0.10875437 0.57003856
0.078306496 0.038911719 0.77633739
-0.064753115 0.059005298 0.30673242
0.59651154 -0.30781326 2.0309627
-0.16726339 0.054196849 0.55140615
-0.1966942 0.051152498 0.45921826
0.31043315 -0.041139487 0.44624352
1.0961723 -0.054968696 1.2908137
-0.86872083 -0.34581637 2.6641219
0.10912973 0.040797461 0.22080445
-0.15914845 0.050325338 0.54646754
-0.082312107 0.059876408 0.25212884
0.34252822 -0.06170116 0.44840169
0.30555212 -0.037830058 0.45191026
-0.9672274 -0.45393473 2.3129408
-0.55618256 -0.051504832 1.494313
-0.18584543 0.05739399 0.37460542
0.11252618 0.033633344 0.19495893
-0.10615283 0.059525255 0.29945397
0.51900452 -0.18842244 2.0642579
-0.20879143 0.064339764 0.4330771
0.48050147 -0.089570254 1.7300832
-0.76507145 -0.31548005 2.3824089
-0.85633045 -0.15551466 1.219434
-0.86202723 -0.2665236 2.2277153
0.25464809 -0.093565464 0.49126983
-0.93745166 -0.3624725 2.3292749
-0.87667233 -0.34524682 3.286288
-0.22414964 -0.1480453 2.1482174
-0.22605008 -0.17631391 2.1803687
0.39884013 -0.35331258 2.3942244
0.1229353 0.033508092 0.18673491
0.28940874 -0.10362381 0.4600513
0.3170433 -0.043489035 0.45158124
-0.46432215 0.054541245 0.65498996
0.1100896 0.050328001 0.31329942
1.0533099 -0.062639207 1.3195708
0.11531913 0.036902368 0.19140172
0.43995327 -0.11994998 1.359885
-0.97886902 -0.19995387 1.1918228
0.12047392 0.045907319 0.37026811
0.13895577 0.020675519 0.18546033
0.15853149 0.032472409 0.18476892
0.30391842 -0.029496375 0.45103765
-0.10161561 0.058147699 0.4233973
-1.2623146 -0.44736627 2.5462239
0.14848393 0.032504722 0.18438649
0.33526534 -0.10345955 0.44591212
0.13816464 0.025731985 0.18222594
0.27401865 -0.0767463 0.55974603
-0.058988094 0.056339689 0.52056527
0.1315884 0.030075116 0.18582845
0.28747553 -0.089097157 0.45678401
0.11435288 0.026194146 0.18907285
-1.3497593 -0.41023806 2.3864343
-0.1845414 0.057327934 0.47029757
0.29969287 -0.042512182 0.4802382
-0.032387078 0.039445505 0.41711736
0.44329053 -0.095117196 1.1582797
0.44353181 -0.34346217 2.4158423
0.3596428 -0.032762837 0.65248275
-1.2965581 -0.23446116 2.4134104
-0.92130333 -0.35913154 3.4445398
0.66800374 -0.37492654 2.1357324
-0.90697259 -0.21345234 1.2052629
-0.34671563 0.05412925 0.52536893
0.11064148 0.027454777 0.1846416
0.11324793 0.022892475 0.3089211
-0.19436878 0.050682336 0.42321277
0.1133126 0.032205161 0.19264627
-0.19934469 0.054961868 0.29558492
0.10874701 0.049127318 0.21628594
0.2913835 -0.041213091 0.45881772
-0.11937642 0.055578392 0.4212544
0.10995591 0.031741083 0.17033792
0.11231887 0.031712983 0.19020534
-0.56146508 -0.050640132 0.97200036
-0.52121514 -0.053103905 0.95766568
-0.1881094 0.057442252 0.39054227
0.10921299 0.041809551 0.22088599
0.11395913 0.056370981 0.32041287
0.10793895 0.040674791 0.21775508
0.10988742 0.044029616 0.22666812
-0.10626388 0.034567781 0.32394528
0.13050914 0.030660246 0.18204427
0.12666589 0.036637373 0.21639609
-0.52507454 0.054466039 0.96552205
-0.84937984 -0.21523285 1.2183893
-0.06556654 0.073797069 0.38245988
0.58107525 -0.30299628 1.9691122
-0.045605421 0.05741401 0.53178382
0.59960037 -0.34324327 2.0038865
-0.84602493 -0.39125475 2.257478
-0.8590439 -0.25768077 2.1487868
-0.94731873 -0.19526169 1.4603369
-0.49745661 0.052678958 0.67630458
-1.2761335 -0.46027547 2.5386293
-1.6192746 -0.4856196 2.8368499
0.34947318 -0.06712833 0.44392657
0.49575514 -0.44286001 3.0609267
-0.89106339 -0.1474389 2.1931422
0.65581113 -0.40090758 1.9920619
-0.33249789 -0.38777435 2.4555266
0.055951655 -0.19061407 1.9444897
0.11433834 0.020386208 0.19767022
-0.92574185 -0.23662558 1.1846087
0.48016554 -0.13503404 1.503917
0.12000394 0.029833661 0.18534732
-0.33292496 0.061287597 0.41148353
-1.5819008 -0.46164626 2.7405269
-0.099912167 0.05760581 0.41789794
0.10994947 0.04101865 0.22339368
0.12046105 0.032890651 0.18623328
0.11893028 0.02558713 0.19444108
0.0093364716 0.058418795 0.28668237
1.2799973 -0.29867271 1.7575262
1.3171539 -0.12809427 1.603874
-0.86230797 -0.27104855 1.231365
-0.21178764 0.051899999 0.31195378
0.31475019 -0.035172205 0.45550036
0.090071499 0.05673597 0.46931195
-0.86936229 -0.2760312 1.2402751
0.12473363 0.010124173 0.20359206
-1.3464949 -0.43354246 2.537842
-0.18474942 0.057382427 0.39581227
-0.20294458 0.052645721 0.31020522
-0.31127363 -0.14800844 2.4978869
0.13798946 0.025452755 0.18225503
-0.91575259 -0.21802315 1.2030447
0.12664938 0.017814064 0.19080377
-0.54061383 0.046571702 1.4399393
0.11308187 0.023134861 0.22506356
0.28809124 -0.08905293 0.45753694
-0.12951243 0.06036504 0.28266978
0.56215233 -0.27817267 2.0700696
0.66652578 -0.23606405 1.8417466
0.5555405 0.047177516 0.6482017
0.34757274 -0.24495292 2.6387885
-0.15267068 -0.5078302 3.5114357
-0.22482181 -0.1935593 2.2590644
0.53396446 -0.039074864 1.0819223
0.15459251 0.045876972 0.78743958
0.12547392 0.010232586 0.20516944
-1.0314248 -0.24553728 1.6120641
0.5998221 -0.23294565 2.068691
0.32960343 -0.055121455 0.44947505
-0.9271279 -0.21812457 1.2236431
-0.34772784 -0.41689676 2.5670383
0.28858048 -0.041479062 0.46366048
0.29972285 -0.078293711 0.45395064
0.52584273 -0.14054409 1.9889157
0.084465623 0.058220867 0.50324368
0.10722101 0.041655883 0.21602368
0.34096771 -0.08133924 0.46738696
-0.065072298 0.0596743 0.31197143
0.095122874 0.036474235 0.26879239
0.11044443 0.022739789 0.21898293
-0.85454851 -0.38374668 2.3924916
-0.88724118 -0.24929601 1.27297
0.32638055 -0.078142881 0.44482875
0.12636238 0.021622071 0.18892837
0.07455492 0.05045129 0.63852334
-0.051259816 0.0586458 0.38630271
-0.37473291 0.058845676 0.60699105
0.13270128 0.053918891 0.48255134
0.34358484 -0.078819647 0.44761682
-0.87917811 -0.38527209 3.9186275
0.55480963 -0.18861389 2.0634277
-0.10726517 0.060131103 0.3026731
0.11637139 0.026276436 0.19199443
-0.56471068 0.04712851 0.7397759
-0.55552071 -0.22336051 3.0259292
-0.216057 -0.18789482 2.1808159
-0.90133649 -0.48701805 2.3372576
-0.98051256 -0.45579624 2.3576262
0.15674239 -0.16727138 2.2994778
-0.84520656 -0.33253759 2.4336054
0.14882898 0.032690175 0.18460917
0.36431319 -0.044123922 0.66550231
-0.23020786 0.052041296 0.35968947
0.11292368 0.023149678 0.22413039
0.44274551 -0.33929011 2.3968966
1.1827013 -0.054862235 1.5449955
0.47442538 -0.13188526 1.4825833
0.52195472 -0.13724554 1.9737976
-0.91013807 -0.2161321 1.2547133
0.31261933 -0.034089644 0.45363545
0.1390304 0.02595105 0.1839397
0.30864412 -0.048043329 0.44454741
-0.91121083 -0.14246544 1.1491187
-0.18030965 0.058257867 0.60029054
0.57149369 -0.39686978 2.1924522
-0.52766222 0.048066568 0.84859967
0.1649245 0.028430792 0.18878484
0.15957016 0.032882378 0.18597436
0.11443359 0.048558421 0.23156571
-0.13188201 0.061767712 0.29144692
2.2365334 -0.21626592 2.7776549
-0.017180562 0.058454096 0.31960273
-0.16037792 0.050547648 0.4303267
-0.47798318 0.043548957 0.77201343
0.11788934 0.058143441 0.31868768
0.573075 0.036476221 0.65390277
-0.013369977 0.048731901 0.62124515
0.082885742 0.056035399 0.36807847
-0.36751682 0.057687793 0.54848838
-0.20640951 0.052541856 0.27222896
0.14885253 0.029982081 0.18542457
-0.21074063 0.055529021 0.26670098
-0.90466088 -0.33490062 2.2467396
0.11294287 0.050777432 0.32323909
0.4333213 -0.067263484 1.3900268
0.097219706 0.019412203 0.2550633
0.27192008 0.0048275255 0.55529237
-0.20126498 0.060936872 0.40003371
0.53783816 -0.19150656 1.9789674
-1.0189285 -0.40192848 2.3139889
0.13709641 0.029908724 0.16819024
0.31793803 -0.037317377 0.46011806
-0.050631404 0.058102034 0.29146886
0.35672754 -0.072508141 1.6224678
0.18136394 -0.1617495 0.97651887
0.30436361 -0.044043597 0.46205783
0.28940618 -0.090252399 0.46081281
-1.0812013 -0.011592831 1.5107005
0.11896706 0.029780259 0.18465161
0.20306087 0.041088779 0.45998311
-0.067352951 0.060429387 0.2726624
0.14097255 0.029912341 0.18392158
0.48144823 -0.087264821 1.7354395
-0.80617422 -0.018322982 1.1636541
0.11905789 0.012783654 0.26550269
0.32514036 -0.06013773 0.44831014
-0.78859574 -0.20860559 1.1548975
0.1389451 0.020800622 0.18545604
0.31761521 -0.064313173 0.46073794
1.0082262 -0.072106242 1.2392113
0.11456728 0.037366703 0.1897738
-1.1091292 -0.45078 2.4105251
0.3411606 -0.10295925 0.45445418
1.185164 -0.057438117 1.5427773
-0.54814845 0.043646075 0.8493669
0.11449164 0.042181473 0.33232284
0.14150065 0.022901593 0.34072232
0.31333506 -0.061481502 0.45132804
-0.44156104 0.049171917 1.1497352
0.34664971 -0.062327217 0.44972682
-0.059729934 0.057965644 0.54387784
-0.071629882 0.059592806 0.28402781
0.27630383 -0.12453982 0.567837
-0.063224316 0.071057141 0.41067958
0.05301857 0.059048288 0.2531507
-0.80898875 -0.20367196 1.1589816
-0.13796371 0.040049139 0.19998288
0.31424737 -0.086393684 0.45144105
0.1124841 0.049132187 0.32035756
-0.51591033 0.043328457 0.72538114
1.2045553 -0.062994927 1.5697463
0.37873191 -0.062967107 0.74816918
0.32953084 -0.10385329 0.45208859
-0.77268702 -0.3810187 2.2706578
0.27481598 -0.071428552 0.45130515
-0.69652325 -0.23456603 2.1168325
0.097882688 0.066175118 0.43397021
0.29275179 -0.10867918 0.56729627
0.14925975 0.051023267 0.61691833
-0.79629678 -0.19152026 4.2422419
0.11239684 0.030588165 0.31101203
0.43784958 -0.060221706 1.4033959
0.11066771 0.02216064 0.19331193
0.93360621 0.0028939657 1.30423
0.57408839 -0.45927328 2.4924023
-0.81705338 -0.3371878 1.7710283
0.11966521 0.017745828 0.27982068
0.10952473 0.021095995 0.24673629
-0.10855335 0.034093745 0.21825576
-0.89765471 -0.13676566 1.1369517
0.11044598 0.01979042 0.19101214
-0.20466632 0.061987404 0.45773673
-0.18978155 0.05517729 0.30469108
0.092795312 0.056118429 0.25378203
-0.52089173 0.048773371 0.84139323
-0.49402457 0.043588225 0.68939853
0.11583924 0.011225644 0.25410104
0.1195938 0.032676149 0.1841948
0.11093903 0.020452481 0.27274299
0.11195147 0.041756839 0.22734952
0.13351315 0.03044109 0.18848443
-0.1927765 0.053450283 0.33236527
0.6055885 -0.027219441 1.0214021
0.35710198 -0.07671082 0.45114684
-0.032302916 0.036239199 0.234308
-0.52444345 0.044375282 0.68303514
0.17179441 0.052943632 0.63398862
0.12134957 0.048240632 0.5922277
0.41403919 -0.097486883 0.57966638
0.12072098 0.02962851 0.19581437
0.10935783 0.047106333 0.21806169
-0.19758832 0.051778272 0.46236253
0.11333513 0.032265231 0.19248366
0.077670515 0.061799213 0.2718184
0.11599368 0.011173468 0.25446343
0.12924832 0.031630419 0.18220592
0.11333638 0.05034076 0.60571456
-0.23129088 0.050783984 0.70976996
0.33178425 -0.062146541 0.4558413
0.16523033 0.015912255 0.19812608
0.33437729 -0.047602642 0.45039535
-0.18231243 0.057501331 0.42931008
0.11371893 0.039347306 0.18779922
-0.51248378 0.043246087 0.66755939
-0.18436986 0.057597466 0.49637008
-0.3520003 0.05473385 0.64191699
0.11706483 0.0229594 0.26937652
-0.70619851 0.074743927 1.0489733
0.11016572 0.031101873 0.18484902
-0.39320523 0.06185168 0.59772754
0.14055711 0.030562472 0.18363357
0.15593898 0.024029102 0.57447362
0.2838217 -0.037354793 0.45056367
0.11191511 0.028617252 0.19028354
1.0926311 -0.068114087 1.4592497
-0.82848579 -0.076695815 1.1981046
-0.12666398 0.11586204 0.61489892
-0.18000561 0.056889508 0.43715215
0.037379205 0.055873178 0.50001311
-0.13255298 0.041652281 0.45249724
1.1342008 -0.022619713 1.8289053
0.15287721 0.054725323 0.66834235
0.093556702 0.058765899 0.50089192
0.064630747 0.049360462 0.27229142
0.34434402 -0.065500572 0.44585109
0.50354618 -0.29209605 2.3194125
0.51575452 -0.073610812 1.8659184
0.46285743 -0.082005173 1.6677582
0.18608779 0.047527656 0.81301188
-0.47837096 0.055144623 0.82272458
0.11425835 0.020328717 0.1978519
-0.18971771 0.050646532 0.84649491
0.71572453 -0.27097329 1.9989364
-1.3579783 -0.28371897 2.3292792
0.50062829 -0.34314075 2.0335925
-1.0364385 -0.12141646 2.2481182
0.12304783 0.050533853 0.61426234
0.091259062 0.050882082 0.63419509
-0.16495252 0.051429145 0.56279635
-1.0183229 -0.39949423 2.3115609
-0.19313461 0.21224891 0.98762965
-0.36887586 0.056780636 0.61660695
-1.6810305 -0.3747564 2.8194897
0.41062564 -0.069960788 1.4699113
0.12859207 -0.1403697 0.60577321
0.082997382 0.0027850755 0.19432235
-0.80603057 -0.039197888 1.182822
0.95841533 -0.27701324 1.7416255
-0.46480519 -0.24372476 2.5113695
0.034146965 -0.15438008 0.67908216
0.03873533 0.052284814 0.68047547
-0.95778793 0.021529794 1.1847184
1.9541342 0.4072172 2.3092005
-0.23466879 -0.17904907 2.2720792
-0.31219697 -0.3678337 2.6258476
-0.32040232 -0.4099856 3.1837409
0.5880999 -0.012933653 1.6013353
0.98087317 -0.30461234 2.0412695
-0.88297921 0.008435294 1.2708209
0.56897861 -0.032637145 1.0058906
-0.24143976 -0.32317549 3.8235238
-0.17208117 -0.14134887 3.5142896
-0.35657614 -0.40592709 2.602668
0.91660661 -0.16183203 2.0656745
1.8061609 -0.099908158 2.3148043
1.1037216 -0.21766847 2.3193572
0.85732418 -0.002582483 1.4661677
0.94474989 -0.27542147 2.1219709
-0.8628903 -0.44143733 2.3702228
-0.859649 -0.3983233 2.4018376
-1.16225 -0.40915161 2.3895996
0.84988171 -0.0032250509 1.425493
1.0830274 -0.014642444 1.2770216
-0.62744528 -0.35774848 3.2752144
0.96222013 -0.011146057 1.2986395
2.2301936 -0.77054101 4.1101618
-1.0104492 -0.41136888 2.2601054
0.26484734 -0.28367978 4.1290236
-0.91262513 -0.35739112 2.2166693
-0.20564586 -0.50665361 3.7168229
-0.11271769 -0.52207249 3.5239041
0.2685619 -0.28787085 4.1851912
-0.94668001 -0.2682572 2.1840031
-0.11651772 -0.52747512 3.6036551
-0.98769909 -0.37960413 4.2423925
-1.0077283 -0.34606075 2.2518928
-0.18765563 -0.4912312 3.5278747
-0.83757049 -0.41057962 2.347297
-0.94261843 -0.25486103 2.6430585
-0.91448742 -0.26654455 2.2717531
-0.98901945 -0.45273817 2.3160894
0.93865222 -0.074655071 1.3348014
-1.0907905 -0.39104179 2.280349
1.0370941 -0.060727458 1.2974751
-0.79175931 -0.25905201 2.2940795
-0.91719943 -0.34312308 2.249068
-0.83803326 -0.38531184 2.7127802
-0.82812244 0.02197203 1.8891051
-1.1611543 -0.40097356 2.3841512
-0.56398422 -0.065081388 1.4599383
-0.059725225 -0.23297641 3.6503456
1.4982359 -0.63712758 4.2781897
-1.2164526 -0.39786559 2.5246284
-0.90380245 -0.47767174 2.3291352
0.081514895 -0.28788531 3.1983573
0.97318023 -0.21805075 1.2602484
0.34465063 -0.062505916 0.44432044
-0.90182632 -0.35804516 3.4644163
0.31381053 -0.061077449 0.45116305
-0.89030999 -0.22817978 1.2787211
-1.1171157 0.012039643 1.6510689
-0.89701432 -0.25120118 2.5191805
-0.85038763 -0.42394426 2.3712275
-1.00494 -0.42971992 2.2837255
0.96628851 -0.055680726 1.3051631
0.96182019 -0.036085691 1.2994049
-0.85446411 -0.38833597 2.3424604
-0.81270522 -0.39131778 2.3885691
-0.56248564 0.047402281 1.5231192
-0.7983703 -0.20616013 2.9197986
-0.90196425 -0.060907092 3.4934237
-0.87830693 -0.18119453 1.2045338
1.2888813 -0.20737886 1.9078834
1.031311 -0.060432632 1.2864692
-0.94038516 -0.35006988 2.3227971
0.94894415 -0.27040672 1.7499125
1.0828965 -0.015184984 1.2757638
-0.96329457 -0.38293919 3.9752824
-0.9094823 -0.15117058 2.2473938
-0.82488519 -0.26544511 3.1415637
-0.95165926 -0.3990477 4.1810513
-0.98689526 -0.27441031 1.4562361
-0.81907517 0.051765081 2.1491029
-0.34750068 -0.22719115 2.4757049
-0.81584805 -0.16296485 2.4450266
0.25873983 -0.071905121 0.47503972
-0.94821352 -0.21293023 1.4365222
-0.92707461 -0.19825229 2.2085001
-0.85106736 0.021115571 2.1050069
-0.81747729 -0.43286097 2.141875
-0.51201612 0.043305922 0.66717839
-0.54548508 -0.048051726 1.464114
-0.73442262 0.0035416931 2.2108157
-1.2583501 -0.42623332 2.5588639
-0.91025645 -0.2528137 1.1922977
-0.89585561 -0.14031918 1.1324136
-0.89824659 -0.39056832 3.9894249
-0.60029167 -0.35191721 3.1702425
0.28755319 -0.041632082 0.45984674
-0.62718922 -0.04514892 1.6888297
-1.0652211 -0.56275827 4.3491793
-0.58719617 -0.16832945 3.1194284
-0.88994986 -0.41454124 2.3144796
2.8306961 -0.38414869 3.5814354
0.34444904 -0.063054517 0.44346404
-0.17853254 0.054363124 0.39299703
-0.93500477 -0.26906958 2.2274277
-1.2894001 -0.46674603 2.5696757
-0.3235442 -0.36877716 2.5487297
-1.055125 -0.43699753 2.311991
-0.87873453 -0.46481812 2.3389366
-0.76265413 -0.33722547 2.3864119
0.91841167 -0.071872234 1.3018873
0.49182183 -0.29330122 2.2807615
-1.2914798 -0.46518767 2.573487
-0.98766989 -0.44471112 2.3007457
1.3467062 -0.2531352 1.8226969
-0.79980987 -0.10468909 3.710469
-0.56043285 -0.045047816 2.8781488
-0.62594658 -0.27672267 3.3795688
-0.87243301 -0.16807318 1.1621039
-0.85102576 -0.25153938 1.2298424
0.43221623 -0.026221272 0.70566773
0.32102412 -0.064669162 0.69475245
-0.88787133 -0.25853282 2.2054446
-0.18504477 0.0051010624 0.92224097
-1.0492699 -0.42453712 2.3434083
0.089961708 0.057220202 0.45122933
-0.59055096 -0.34078398 3.0911868
-1.2976162 -0.10964949 2.4978201
0.1469236 0.03148558 0.18346334
-0.95205408 -0.21364325 1.4424441
0.85877246 -0.1816206 1.6645749
-0.066452146 0.058741264 0.51568294
-0.79636258 -0.39904192 2.370857
-0.80789477 -0.058938202 3.8026297
0.99954599 -0.32775527 1.7998416
-0.17948514 0.023045912 0.87948728
-1.3223939 -0.11303097 2.5573752
0.0325495 -0.15536484 0.67881894
0.267093 -0.086265892 0.56022143
-0.80499417 -0.23821288 2.5474079
-0.68958694 -0.23653489 3.4113128
-0.9581793 -0.065513059 3.7382915
0.98048574 -0.32334515 1.7480595
0.72165745 -0.46761394 5.4370985
0.34783167 -0.06815058 0.44288182
-0.87886637 -0.061610039 3.3839848
0.94609207 -0.27054664 1.7450922
0.32498866 -0.057470467 0.44420123
0.13179839 0.032226726 0.18727422
-0.063445807 0.057729077 0.5151875
-1.2866688 -0.45054433 2.4853003
-0.31380892 0.017651774 0.54879785
-0.78889781 -0.39371118 2.3478892
-2.3516026 0.0093751661 2.9368403
0.13885486 0.025766956 0.18418956
0.68827194 -0.41982195 2.0929005
1.2730546 -0.31426507 1.7414701
-0.83023113 -0.19996196 2.9287384
0.88491791 -0.0067183077 1.1939089
0.11241853 0.056155123 0.31851745
-0.37535411 0.058534004 0.57398343
0.53840941 -0.38613173 2.0935323
0.56933504 -0.41388103 2.1051161
0.11585373 0.04769982 0.36691689
-0.70998865 -0.17401995 3.756058
-0.5355764 -0.07489863 1.8010495
0.31047362 -0.049212251 0.4463141
-0.95661825 0.033056788 1.3571255
-0.88534361 -0.1822139 1.2196901
-1.352915 -0.44792113 2.5279167
0.2771225 -0.096344233 0.54378438
-0.96977133 -0.25359777 1.4561508
-0.95634514 -0.47845328 2.3378856
-0.3785215 -0.16365656 2.3942883
-0.92047387 -0.076311529 3.9616144
0.54753178 -0.38563573 2.1110761
-0.8998763 -0.26918843 1.1970809
-0.36054742 0.055310041 0.65578294
-0.89857417 -0.25428954 1.2898138
0.34123093 -0.061592769 0.44572902
-0.42577523 0.047812063 1.2398541
0.52555174 -0.017892994 2.6649387
0.54158825 -0.31768793 2.0786793
1.0862288 -0.015964836 1.2822955
-0.87131494 -0.33877245 2.3023679
0.33725333 -0.057079967 0.43126464
-1.3111162 -0.26735562 2.4276364
-0.4250828 -0.40191334 2.6820138
0.34395713 -0.064565107 0.44365287
0.11918575 0.025398204 0.19528651
-0.16587472 0.051889434 0.34433961
0.93636936 -0.30367884 1.7116649
0.11418819 0.027058305 0.18940043
-0.77362972 -0.3352879 2.4017541
0.089022577 0.056177571 0.43323588
-0.17028743 0.055460058 0.57030654
-0.36724848 0.057110038 0.60348296
-0.9045282 -0.36834523 2.2492821
1.0024552 -0.22252184 1.8060639
-0.059328854 0.056198183 0.50434518
0.28628218 -0.041379947 0.45838523
-0.20824671 0.053354792 0.93796563
0.29962879 -0.078463659 0.45465875
0.96768552 -0.032018628 1.3029878
0.31316745 -0.041718032 0.45163751
0.59186691 -0.44028407 2.1013625
0.43866473 -0.078463554 1.4085357
0.93396622 -0.069997683 1.222635
-0.31346297 -0.37869638 2.6331193
-0.30792314 -0.28076977 2.62272
-0.97913665 -0.45733875 2.3517835
0.55093998 -0.19345066 2.3765929
0.45844728 -0.23316184 2.3945162
0.3271448 -0.060917255 0.45031428
0.1390546 0.025847208 0.18396068
0.32579887 -0.078211203 0.44165158
-1.0754998 -0.30361274 2.2550976
0.84898859 -0.026866455 1.2722228
1.0508559 -0.00050295517 1.2182457
0.43280917 -0.28402051 2.1653426
0.11591393 0.04518114 0.35805774
0.10633147 0.03442847 0.31238818
-0.17206192 0.055729009 0.5717957
-0.36165881 0.055678263 0.66041255
