# .PCD v0.7 - Point Cloud Data file format
VERSION 0.7
FIELDS x y z
SIZE 4 4 4
TYPE F F F
COUNT 1 1 1
WIDTH 679
HEIGHT 1
VIEWPOINT 0 0 0 1 0 0 0
POINTS 679
DATA ascii
0.37573278 0.023483092 0.65948844
-0.12200481 0.059801072 0.27340674
0.11538124 0.025120176 0.23956847
-0.19349158 0.050189972 0.51229692
0.28825098 -0.091504857 0.50490689
0.28408945 -0.073908418 0.51823354
-0.93263948 -0.22233264 1.3502996
0.80084729 0.017805556 1.013489
0.1081326 0.031720418 0.35067725
0.5513643 -0.14681022 2.1098158
-1.403515 -0.46624464 2.7089951
0.72214484 -0.50357807 2.2260287
-1.2840748 -0.26499829 2.4552667
-0.89733553 -0.15349945 2.3115623
-0.91867006 -0.36640695 2.3194745
-0.11848557 0.044799123 0.97594285
-0.51149213 0.021396723 2.2612679
-0.78135526 -0.12403727 3.4060318
-0.17796159 0.055475682 0.53901982
0.011100948 0.057442166 0.34055829
0.46006513 0.04037907 0.65544009
0.31336516 -0.036590386 0.50367141
0.0010794401 0.057391711 0.26517272
1.3796719 -0.36021695 1.6465867
0.31925666 -0.036901582 0.51217246
0.11106235 0.033213295 0.36815286
0.28975278 -0.10485153 0.50653291
-0.17150122 0.04628779 0.51890111
0.33429134 -0.049012553 0.49633002
-0.89337516 -0.1520237 1.1849606
-0.17820024 0.058916084 0.30221772
0.09508574 0.056083024 0.54137254
1.6314442 -0.27130991 2.3477967
0.12173229 0.03173884 0.23685479
0.15932268 0.030888839 0.23492694
-0.1816265 -0.22836818 1.7591665
-0.038398147 0.04908859 0.58848166
2.2511554 -0.49307615 3.0790222
0.43004549 -0.37782672 2.0766618
0.078190863 0.047879424 0.68077159
-0.33683825 -0.24277319 2.5816305
0.14850485 0.029048041 0.23342967
0.3140344 -0.063222393 0.49967599
-0.18261117 0.059447244 0.29716754
0.16905743 0.03556262 0.23693633
0.1280154 0.040305242 0.40248513
0.12758213 0.04736004 0.23963189
0.010356545 0.056565255 0.31884408
0.10218745 0.016666584 0.28624892
-0.048134446 0.056022216 0.33683324
-1.1636387 -0.41270867 2.4773924
-0.18729746 0.057216831 0.46186519
1.2970674 -0.37480032 1.7433074
-0.51916003 -0.054702055 1.0182269
0.01086241 0.059584968 0.34264016
-0.85910594 -0.26041505 1.2842476
-1.0507358 -0.21279727 2.2884681
-0.039663076 0.048918061 0.58453155
0.58761978 -0.3021155 2.0068181
-0.55246222 -0.050077576 1.556289
0.71105552 -0.43432769 2.1908677
0.60535431 -0.30270714 2.1601365
-0.13030922 0.031243341 0.72012258
0.53427112 -0.36625257 2.4058545
0.49730396 -0.4178564 2.3611295
0.35008568 -0.083635718 0.49068093
-0.30816597 -0.35127574 2.2000554
-0.30131632 -0.28374037 2.6910837
0.11628962 0.040199406 0.38382983
0.11425912 0.02161476 0.27500939
0.16856885 0.03548637 0.23638749
-0.18838108 0.055732451 0.27754855
-0.18854851 0.060124051 0.26599956
0.1657787 0.026726034 0.23863387
-0.20991099 0.059107348 0.42298341
0.11009216 0.051567167 0.2665627
-0.37763202 0.060018525 0.46681666
0.94331372 -0.033946995 1.3618653
0.13889331 0.023839111 0.48374295
0.12146753 0.028631439 0.23767877
0.29842734 -0.087604076 0.50252223
-0.52066505 0.051699392 1.0202253
0.96967399 -0.037351262 1.3458493
-0.93846095 -0.22446974 1.3058598
1.2939301 -0.33591089 1.7871206
0.010565817 0.055649057 0.32027316
0.98027849 -0.013632633 1.3651559
0.089392185 0.052926697 0.48693585
-0.19851756 0.054087639 0.35159326
0.49613976 -0.18068105 2.1249859
-0.89846468 -0.21279837 1.2608902
-0.90149701 -0.21369164 1.2631772
-0.30406642 -0.2289391 2.5173237
0.50086248 -0.422607 2.3866537
-0.28288758 -0.36522767 2.8932974
-0.37455249 0.059028588 0.48244309
0.32037759 -0.10762659 0.51540589
0.32913262 -0.062794879 0.49966931
0.11395741 0.03934953 0.37514567
-0.19037133 0.051638104 0.41819978
0.21032435 0.052784912 0.25768065
0.27750808 0.04727846 0.34248376
-0.18648976 0.050074674 0.57755685
0.21864629 0.04712243 0.29104972
-0.34259355 0.053148538 0.56282306
-0.50346577 0.05710052 0.79735112
0.071553171 0.056169003 0.24730468
0.20969391 0.052472398 0.25666642
0.12031716 0.036237851 0.25267529
-1.038862 -0.215578 1.328243
0.088297307 0.039400436 0.8957541
1.0695436 -0.065418199 1.3246496
-0.093613505 -0.52312487 3.5098803
-0.062664211 0.057292819 0.28248572
0.58769453 -0.30236596 2.0116451
-0.16521817 0.0531726 0.60831761
0.017767131 0.057506688 0.26357198
-1.0114294 -0.37861639 2.3367712
-0.19262433 0.049513742 0.50721002
-1.053223 -0.21167757 1.316479
0.31175381 -0.043020684 0.49502015
0.45039988 0.041615229 0.63053632
1.0984614 -0.058795515 1.332371
0.28109598 0.048415147 0.34406352
-0.17666727 0.053484559 0.59474397
0.32253766 -0.045937393 0.50807309
0.073098898 0.057400305 0.25635743
0.11065751 0.039367795 0.27230096
0.11860961 0.046943992 0.24435592
-0.16231668 0.051155642 0.62909484
-0.55075467 -0.10426569 1.5183022
0.71325338 0.018941585 1.0278909
0.18170834 0.056565478 0.25670362
0.2407282 0.048908167 0.27465987
-0.080814362 0.059013404 0.30626655
0.11814994 0.02509461 0.24548221
-0.20342267 0.053950697 0.25353694
0.34539187 -0.063812673 0.49955821
-0.18661761 0.05384814 0.39505744
-0.95960891 -0.45680904 2.3746202
-0.54909015 -0.054023299 1.5476687
0.35824072 -0.063811436 0.69668078
-0.18187892 0.055876717 0.42294335
0.11372948 0.031893179 0.24501777
-0.10341549 0.057884172 0.34855628
-0.039740682 0.045242243 0.22091651
-0.21359122 0.065146603 0.50825381
0.59636009 -0.34287724 2.053869
0.49367607 -0.094929054 1.80358
-0.75475848 -0.31817132 2.4368804
-0.84326994 -0.1551805 1.2621882
-0.84088433 -0.26441559 2.249665
0.24410588 -0.090352997 0.51052928
-0.91143978 -0.35792583 2.3398764
0.39489067 -0.041911926 0.72671103
1.0930744 -0.067848101 1.3624485
0.31001699 -0.05981807 0.50451636
1.3959994 -0.4051024 1.8794839
0.18247116 0.05668094 0.2607615
-0.31999826 -0.37473723 2.6634104
-0.21403688 -0.15067644 2.1947773
-0.21711308 -0.18019009 2.2432215
0.37181115 -0.3241246 2.1860259
0.12434632 0.032132488 0.23826385
-0.12275743 0.060596548 0.27770734
0.30356693 -0.10868007 0.53159738
-0.19796634 0.056812137 0.24256349
0.31909293 -0.045567106 0.50134587
-0.18128836 0.05932232 0.29499459
-0.41749972 0.044348106 1.2611105
0.1112811 0.048580877 0.36190867
-0.2026003 0.053837169 0.25266814
0.44974446 0.042517588 0.63187099
0.32590216 0.040505648 0.37716603
0.98626912 -0.016280137 1.3690059
1.1148431 -0.070667773 1.4425619
0.18034625 0.055914771 0.2553494
-0.11587065 0.05948469 0.29105783
0.11395615 0.051468015 0.37200379
0.4246279 -0.11762485 1.3344376
0.035851061 -0.15025735 0.70139146
0.11483341 0.051035643 0.37589717
-0.97107375 -0.1997961 1.2444341
-0.21031392 0.051331855 0.37652802
0.14082021 0.019246174 0.238096
0.15989816 0.030992439 0.23602748
0.30749536 -0.031745542 0.50444436
-0.09670645 0.0555287 0.46271348
-0.90635312 -0.2165684 1.2556832
-1.2601053 -0.45358497 2.6237957
0.0011567473 0.057045907 0.26319194
0.14969993 0.031022785 0.23537993
0.33627874 -0.10532519 0.49407268
0.13900369 0.024219936 0.23231196
0.27527857 -0.078494027 0.60660243
-0.054784179 0.053578723 0.55624127
0.13291281 0.028477356 0.236902
1.0897037 -0.070098624 1.3339202
0.11647594 0.024984187 0.24269128
0.11713225 0.027961101 0.25174642
0.15578359 -0.13662775 0.79636121
0.31686515 -0.087539032 0.59890771
-1.2817117 -0.39406413 2.3309166
1.3521605 -0.35232148 1.7192929
0.57353342 0.034563079 0.68597054
0.11244798 0.031443164 0.24216151
-0.18236953 0.056189276 0.52485824
0.56789315 0.034975231 0.68117309
0.33618975 -0.047603 0.59584022
1.5274349 -0.22907282 1.988508
-0.028346121 0.035724781 0.43534017
0.44925272 -0.094006732 1.2051294
-0.82035971 -0.35995683 2.4175522
0.53893292 -0.23539491 2.4083197
0.44646549 -0.34216043 2.4177549
0.328982 -0.034704786 0.63094544
-0.91593313 -0.3662903 3.5401113
-1.0396004 -0.24724855 1.4650576
0.10810417 0.037837557 0.28215194
0.34150887 -0.08111985 0.50240397
0.11251783 0.026361307 0.23754811
-0.19496787 0.050339453 0.48487401
0.086920857 0.059357017 0.37418675
0.11374027 0.030567139 0.24155927
-0.19441187 0.053199988 0.34058833
0.32501513 0.040957931 0.37568593
0.15552211 0.058210872 0.24699664
0.013024032 0.059837461 0.26927924
0.0005839467 0.05820575 0.26712346
-0.19532359 0.054824166 0.25037694
0.17146444 0.050145857 0.25343585
0.13861912 0.057103641 0.24322772
0.64812636 0.019933162 0.89732766
-0.22918117 0.051380388 0.47806716
0.11210394 0.048550256 0.27315497
0.59954262 0.033862837 0.71057296
0.12425727 0.034542147 0.25982976
0.29252589 -0.043022696 0.50695109
0.26007688 -0.059853371 0.56503797
0.15356511 0.057274401 0.24283195
-0.12363148 0.057452932 0.50330758
0.11338526 0.030191191 0.2406671
-0.60528803 -0.055481393 1.1215198
-0.51537156 -0.054015454 1.009136
0.10926116 0.03973927 0.26773095
0.087709427 0.059702419 0.38085437
0.10921061 0.039026625 0.26818967
0.2793892 0.046224996 0.35454583
-0.10200578 0.032889344 0.36547589
0.12068069 0.033034466 0.25092959
0.12645549 0.027983647 0.22193694
-1.0542458 -0.19642086 1.3667653
-0.83197188 -0.2162172 1.2560399
0.1331023 0.029723097 0.23530316
-0.40726173 0.062319979 0.69148803
-0.13150972 0.060771573 0.3343246
0.58675051 -0.30797151 2.0074117
-0.041858315 0.054989591 0.57184386
0.60339797 -0.34447902 2.0348613
1.0259956 0.027328495 1.315201
-0.49756968 0.054634921 0.88763642
-0.84838605 -0.259305 2.2002981
0.6674943 -0.26993659 2.1317375
0.51924968 -0.25466615 2.263129
-1.2495055 -0.45643175 2.5590441
-1.6233805 -0.49111539 2.9255383
-0.12250245 0.035721932 0.82903457
0.49817646 -0.43868756 3.0378525
0.65783989 -0.40188104 2.0178077
-0.31541854 -0.38369441 2.4524477
0.061812162 -0.18724421 1.9252284
-0.31927884 -0.38599607 2.6676424
-0.0021682382 0.057045802 0.26732945
0.48765218 -0.13909046 1.557224
0.41354024 0.038946316 0.57639861
0.12147254 0.028416099 0.23667598
-1.4940106 -0.44029805 2.6568167
-0.11291242 0.057074845 0.44949555
0.11264944 0.029275944 0.21359897
0.29466528 -0.028523598 0.33827996
0.071445346 0.055209517 0.27092099
-0.094975233 0.054939605 0.4572556
-0.067931235 0.073799193 0.31650805
0.10965544 0.039029069 0.26952195
0.31882346 -0.047947299 0.5035007
-0.20259392 0.06122227 0.4575913
0.11887765 0.030754015 0.23087811
0.11940855 0.023936255 0.24353766
0.01133585 0.057611085 0.34227586
0.30871046 -0.032220099 0.52190757
-0.97484267 -0.16328889 2.4988415
-0.54799426 0.034404483 0.75626588
-0.87768102 -0.27902371 1.3224685
0.15060818 0.021487826 0.4399488
0.31312287 -0.036760379 0.49901843
0.084530711 0.049799114 0.46784806
-0.82979369 -0.26572222 1.2421257
0.12512964 0.0085444339 0.25226712
1.333045 -0.32702848 1.7532594
-0.48649728 0.051440455 1.0520008
-1.3372226 -0.43632585 2.599097
-0.17950016 0.055562623 0.44089437
0.10976255 0.051775895 0.26551461
-0.20290875 0.052154399 0.36734843
0.20981407 0.052759036 0.25725389
0.66196001 -0.41219142 2.143327
-0.29821187 -0.14987431 2.5290716
0.13999885 0.023619343 0.2357285
0.13103813 0.016821288 0.24835467
-0.52576172 0.044404283 1.4714181
-0.026092589 0.030421061 0.14440846
0.12680578 0.056277812 0.24136662
-0.90727401 -0.13456711 1.1812437
-0.37078959 0.058946319 0.45105004
0.071063995 0.054694191 0.27072835
0.11493087 0.021712804 0.27721667
-0.12348032 0.057168193 0.31598115
-0.92549551 -0.10805441 2.2849591
-0.046303749 0.054597579 0.3978374
-0.12254113 0.056932099 0.3187573
0.13452536 0.0091325678 0.27491832
-0.90234232 -0.29163736 1.2998846
0.17675942 0.14009637 0.59727502
0.56336033 -0.27864599 2.0884721
-0.31857944 0.074088261 0.45603776
0.64487863 -0.22773229 1.7967875
0.67364907 -0.2478594 1.8969743
0.57445467 0.04554851 0.72050738
-0.29351139 -0.17735696 2.4035566
0.35360968 -0.24760471 2.6605771
-0.1365577 -0.50914788 3.5343416
-0.21882319 -0.20040059 2.3623207
0.15022767 0.030957855 0.23699069
0.1628812 0.044886678 0.86466861
-0.19702315 0.04627132 0.76741672
0.27724564 0.047564875 0.3445785
0.13024056 0.0090119578 0.2644093
-0.98682415 -0.23846866 1.6009152
-0.12249607 0.058215871 0.29406381
0.060655713 0.045584299 0.2487061
-0.2182368 0.052647781 0.28524375
0.61431932 -0.23985516 2.1380408
-0.10990345 0.057982497 0.26747584
0.3323918 -0.057331946 0.50071263
-0.2147212 0.050563905 0.28220248
-0.33487988 -0.41791907 2.6034138
0.287862 -0.04298697 0.50830913
-0.21984243 0.050863728 0.29146028
0.30182236 -0.080304548 0.50414491
0.13325185 0.009000998 0.27176976
0.088153303 0.056978121 0.56174636
0.72143841 0.022134535 1.0275624
0.10729247 0.03961625 0.26313329
1.0759262 -0.026960623 1.6107552
0.56611991 0.034014367 0.67755294
0.34161258 -0.082185403 0.51311946
0.38048923 -0.020651352 0.71919322
0.11072856 0.021019783 0.26707721
-0.049196184 0.055514429 0.25539708
-0.12034053 0.055847865 0.31137681
-0.3506453 0.056604438 0.44896388
-0.1089502 0.12341025 0.89324117
-0.83592594 -0.3837384 2.4222205
-0.20888698 0.050907448 0.3720777
-0.85925114 -0.24382345 1.2928855
0.10917407 0.049856316 0.26499009
-0.19299388 0.058028493 0.2516706
0.088405728 0.063759066 0.28180099
-0.90370071 0.045300268 2.1209538
0.99640572 0.004492078 1.3019588
0.12830508 0.020390986 0.24142289
0.078640938 0.049175486 0.69821572
-0.3731789 0.058146898 0.66412234
0.13326287 0.051365331 0.52440476
0.34446943 -0.080798015 0.49575877
-0.83859169 -0.37867329 3.8616974
-0.30321598 -0.21245722 2.5617192
-0.12661296 0.060445286 0.30688357
-0.29381502 -0.1809905 2.4604318
0.57649648 -0.19730796 2.1634376
-0.10617298 0.059667744 0.35878158
-0.75687611 -0.37884647 2.2985489
-0.90906036 -0.29399055 1.2785709
-0.11512059 0.059393931 0.29032683
0.10888439 0.052738562 0.27609468
0.29113925 -0.10105005 0.50216365
-0.31139058 0.063933127 0.71501231
-0.1252867 0.05825036 0.33007741
-0.57858789 0.047339078 0.82301116
-0.057715774 0.061827004 0.37541509
-0.54906428 -0.22867142 3.124635
-0.20464414 -0.18887015 2.2087147
-0.2098636 -0.16601972 2.2986438
-0.89082086 -0.48931253 2.3915184
-0.970819 -0.45873821 2.4153931
0.14835548 -0.14980294 2.030813
-0.84184265 -0.33780509 2.5130126
-0.22334719 0.050221737 0.40332866
0.16803008 0.026903763 0.24157548
0.93695188 -0.076222479 1.3275669
0.09857744 0.059662342 0.28901076
0.11181813 0.021193422 0.26810718
0.48850739 0.040476128 0.60764337
0.45228338 -0.34217992 2.4374316
1.1929942 -0.060334463 1.5965936
0.47410107 -0.13504812 1.5102336
-0.17675269 0.058511019 0.67209697
0.54796445 -0.14526021 2.0878656
-0.88778245 -0.21278976 1.2846658
1.4172999 -0.29918525 1.6353042
0.31812543 -0.037242685 0.51103473
-0.85556471 -0.33343452 2.4105589
0.34897149 -0.05669478 0.49534392
0.13900638 0.024202032 0.23209596
-0.2451365 0.02412379 0.5691278
0.54075074 -0.28660086 2.2112882
-0.82567501 -0.44254965 2.2302787
1.1476808 -0.06325829 1.3920324
0.31358039 -0.051416028 0.50115895
-0.87696397 -0.13895829 1.1645348
0.16456282 0.034560438 0.23017335
0.2840001 -0.0071661361 0.64572644
0.14764595 0.029126456 0.21583867
-0.22601157 -0.18278776 2.3414032
-0.29954588 -0.37011558 2.6667945
-0.30503035 -0.41180533 3.2151434
0.75148761 -0.018200386 1.5753858
1.011122 -0.31798437 2.1928933
7.5864167 -0.44154021 15.782207
-0.22396708 -0.32718337 3.8651121
-0.34382856 -0.40800399 2.643738
0.61587679 -0.050988708 2.5847833
0.92527616 -0.16645806 2.1110952
0.70352435 -0.013736699 1.3054545
1.8233029 -0.10533489 2.3724649
0.90822935 -0.022010241 1.4813044
0.95553958 -0.28202531 2.1780822
-0.85171449 -0.44304371 2.4214609
-0.84749913 -0.39976257 2.4499476
-0.92468488 -0.25294322 2.6637394
-1.1572692 -0.41206726 2.4609482
0.60634673 -0.010707434 1.9321945
1.0390117 -0.082485482 2.2606575
0.8659507 -0.0071888827 1.5065377
1.0887767 -0.019013878 1.3238122
-0.62307823 -0.36746904 3.3992255
0.32041407 -0.061732907 0.50582862
1.0428263 -0.018045921 1.314997
2.3650908 -0.12842293 3.3751509
1.069692 -0.064390585 1.3251216
0.28269434 -0.28915241 4.1739197
-0.90227342 -0.35888571 2.2696459
1.0384517 -0.017498035 1.3104222
-1.0452455 -0.4367083 2.3634627
4.060492 -0.17274971 5.8026323
-0.18918097 -0.51074374 3.7633498
-0.098067164 -0.52828342 3.5896776
0.28672493 -0.29360202 4.2324057
-1.0355777 -0.42031485 2.4296086
1.2196352 -0.019634474 1.5406425
-0.10033798 -0.52863276 3.6251433
-0.95469105 -0.37922481 4.2189808
-0.17256701 -0.49625313 3.5853727
0.97249794 -0.014687598 1.3505571
-0.82708013 -0.41253477 2.4010317
-0.92777646 -0.25632977 2.6868441
-0.90702426 -0.26894435 2.336477
-0.97697556 -0.45279241 2.3635457
-1.0808637 -0.39225417 2.3352587
-0.43537337 -0.40606269 2.7534187
1.0427508 -0.064775303 1.3441193
-0.89932287 -0.34190184 2.276304
-0.83283603 -0.39269012 2.7995489
-1.1582452 -0.40550312 2.4612052
-0.84215105 -0.39809728 2.8394167
-0.043749452 -0.23829962 3.7124264
1.5497826 -0.65084559 4.4354
2.7826829 -0.52141595 3.906348
-0.89679134 -0.48108381 2.3952029
-0.50735581 0.042396404 0.71791244
0.34708381 -0.064719751 0.49520755
-0.87951243 -0.35873023 3.484194
0.31604403 -0.063104153 0.5012548
0.31251317 -0.042267758 0.49941659
0.13401961 0.029778721 0.23785853
2.7051792 -0.59522706 3.5606058
-0.84394586 -0.42832047 2.4390099
-0.88199675 -0.29759872 2.9008005
2.6620121 -0.58590174 3.4931805
-0.97954309 -0.56898069 4.3599148
0.97168493 -0.059659008 1.3514321
0.82052433 -0.04955807 1.2528584
0.96654785 -0.040450115 1.3444483
1.0965694 -0.018017333 1.3318365
-0.84420562 -0.39033523 2.3970463
-0.55423868 0.045603763 1.5729992
-0.78388047 -0.20843296 2.9674213
-0.80707836 -0.23370506 3.8094957
1.074252 -0.065425709 1.3339999
-0.87274563 -0.18203247 1.2598975
-0.19086802 0.05691088 0.42867064
1.0355538 -0.064604267 1.3304613
0.97343576 -0.038451005 1.3533571
0.93276608 -0.074343905 1.339987
0.96064317 -0.27609846 1.8081625
1.0891222 -0.019544367 1.3234832
-0.94463575 -0.38584885 4.0234642
-0.89924109 -0.15302628 2.3025606
-1.2943925 -0.47159916 2.6604993
-0.79275358 -0.56984663 4.2599554
-0.93482447 -0.40264782 4.2423763
0.1724987 0.047466353 0.24821782
-0.87739372 -0.27193359 1.3125083
-0.96340644 -0.45888436 2.3814504
-0.96980035 -0.2734614 1.4891598
-1.3353217 -0.4412894 2.5966594
-0.92180181 -0.25000134 2.2293961
-0.82407796 0.04875423 2.2549074
-0.80700183 -0.16568425 2.5086162
-0.91502786 -0.19962554 2.2574494
-0.84113944 0.019329026 2.1600206
-0.78477776 -0.24875529 2.5074923
-0.50837994 0.042477168 0.72108245
-0.53930414 -0.050185818 1.5206249
-0.71363962 0.0017405264 2.222389
-1.2465676 -0.42767251 2.6136153
-0.89005888 -0.14096239 1.1870062
-0.88264215 -0.39490527 4.0536633
0.11395401 0.046701923 0.40394378
-0.8846308 -0.24608408 2.8381112
-0.58895671 -0.35808742 3.2440965
0.29004353 -0.043637689 0.51073718
0.15909714 0.030025929 0.23485827
-1.045096 -0.56553507 4.3969059
-0.55352652 -0.16686627 3.0437596
1.0731928 -0.065237701 1.3241899
1.2975801 -0.29986775 1.8227975
1.1069951 -0.040836629 1.3139913
-0.92698801 -0.2714428 2.288451
-0.3137843 -0.3731539 2.6129239
-1.0434458 -0.43783396 2.3626478
-0.047225535 0.053618133 0.5624702
-0.85419095 0.016304262 2.1850264
-0.76090693 -0.34424147 2.477452
0.28990883 -0.10468042 0.50711226
-0.92103302 -0.14991575 1.1804588
-0.95303023 -0.2178856 1.5158169
-1.2810502 -0.46717799 2.631881
-0.049746633 0.053614151 0.55256486
-0.77712107 -0.10290487 3.7408698
-0.50949299 -0.24865521 2.7896502
2.4114931 -0.36972421 2.9003332
-0.55747831 -0.049636398 3.0095351
-0.58010995 -0.26866487 3.2356541
-1.0536487 -0.22032453 2.2614815
-0.84535086 -0.25240234 1.2848017
-0.79047024 -0.33453405 2.3977664
0.085777164 0.052809753 0.51151919
0.1465562 0.060353551 0.64809632
0.43169951 -0.029561404 0.74522805
0.33579302 -0.067793548 0.79087758
-0.88096428 -0.2612215 2.2705667
1.2819246 -0.33024138 1.737447
-0.18249708 0.0031212084 0.99185634
-0.5504818 0.029674433 2.0650294
-0.57829821 -0.34612453 3.1558893
0.1479122 0.029872175 0.23353362
-0.36751252 -0.42658168 2.6770713
-0.78553689 -0.40067866 2.4224961
-1.175558 -0.21985762 2.4041951
-0.17641962 0.021601167 0.94279361
-1.3165894 -0.11510003 2.6283548
-0.18850565 0.045590475 0.93234897
0.035194516 -0.15539595 0.71750617
0.3637706 0.030824244 0.45095038
0.71819365 -0.45798194 5.2641811
1.0859401 -0.018726353 1.3216641
-0.84626937 -0.062830582 3.3541095
0.94784391 -0.27312067 1.7783525
0.32652497 -0.059252847 0.49270558
0.13368982 0.03090265 0.24053359
0.16709858 0.026139522 0.24089932
-0.28992307 0.018202415 0.53406978
-0.060020685 0.055684656 0.55754066
-1.2761539 -0.4521381 2.5423701
-0.77987826 -0.39626569 2.4064052
0.13988906 0.024230424 0.23451734
0.69595003 -0.42381117 2.1374528
0.27110505 -0.16380018 3.0177686
-0.82586038 -0.20519553 3.0198381
0.88358855 -0.0095008127 1.2285841
1.6166199 -0.35584858 2.2772391
0.17364573 0.050219517 0.25677609
-0.36879778 0.056973465 0.6195662
0.5775162 -0.4172796 2.1500347
0.11797345 0.046175793 0.41853166
0.12157404 0.031459235 0.23660684
-0.50661945 0.042938571 0.71763015
0.5615592 -0.1929341 2.4285443
-0.67616451 -0.17259906 3.6978753
-1.3429223 -0.44944906 2.5866368
-0.90086281 -0.2384644 1.3902891
-0.94720483 -0.48108649 2.3963835
-0.3678928 -0.16646023 2.4479706
-0.88798666 -0.077409923 3.9476426
0.17095733 0.0018960275 0.3016479
0.55543339 -0.38979223 2.1567476
-0.35857046 0.054336462 0.71350121
0.34366667 -0.063742161 0.49644446
-0.4197191 0.04637748 1.2935202
0.97474229 -0.019253377 1.3508174
-0.35567296 -0.37920523 3.3085716
0.3368572 0.0032134019 0.52236915
0.64001322 -0.39828876 2.0697653
0.33651638 -0.10567741 0.49528861
1.0896699 -0.020387698 1.3259447
-0.19172978 0.062500715 0.33145785
-1.282825 -0.26493019 2.4464762
-0.18197495 0.059164256 0.29458499
1.1224731 -0.014123917 1.6197245
-0.40935761 -0.40090737 2.7020738
0.34889877 -0.067088366 0.49884772
0.31443024 -0.058611441 0.50395846
0.12052482 0.023850948 0.24652886
0.95133412 -0.31083435 1.7767022
0.11566597 0.025501434 0.24103761
-0.77061355 -0.34140837 2.4839647
-1.0077393 -0.2792584 1.2948906
0.093086481 0.05561753 0.4993856
-0.16680491 0.0538591 0.62102389
0.55098152 0.042210259 0.689996
-0.3662824 0.056362621 0.66283345
-0.89451158 -0.3709287 2.3066089
-0.89287019 -0.15318528 2.3153989
0.11889368 0.046764959 0.24474502
0.016903162 0.057102639 0.26436877
-0.05714047 0.055302076 0.566396
0.28991276 -0.043599326 0.51239991
-0.20694911 0.052073076 1.0105193
0.16791642 0.026303548 0.24343467
0.76063335 0.017107256 1.00265
-0.92321384 -0.15030746 1.1855681
0.30133802 -0.080404744 0.50382686
-0.98361838 -0.16421302 1.2128932
0.31306851 -0.04328936 0.49367404
-0.71732152 -0.1084282 3.1059687
0.4455018 -0.081835836 1.459945
0.93192518 -0.073614389 1.2586668
0.32955897 -0.032548558 0.55957294
-0.29959112 -0.37962031 2.6626933
-0.29247242 -0.27955887 2.6296155
-0.96939623 -0.45934045 2.4079716
0.5592171 -0.19763315 2.4171908
0.35542965 -0.083863571 0.52504897
0.47602034 -0.24121247 2.4887183
0.33041435 -0.063127562 0.502877
0.45781672 0.040453363 0.65000701
0.14008218 0.02420349 0.23451209
0.13186508 0.050177127 0.69757533
-0.36373675 0.056465533 0.60215545
0.5203476 0.04279916 0.65220666
-0.17502654 0.044778131 0.85193086
0.27537036 -0.078215092 0.60785508
-1.0634254 -0.30392924 2.3056123
-0.51452923 -0.054358888 1.0089276
-0.61065388 -0.1651314 2.8498771
1.4761251 -0.37558377 1.6919281
1.1214061 -0.039212663 1.3099282
0.47224915 -0.3074272 2.4042456
0.11850315 0.044568039 0.41340947
0.10573542 0.032538667 0.35247636
-0.55549395 0.036375366 0.7256639
-0.1698032 0.054605618 0.62888455
0.3326028 -0.049133848 0.49478364
0.21290576 0.053546853 0.26277518
0.10956967 0.051408138 0.26550269
0.039478362 -0.15975125 0.70422721
0.32939333 -0.10517175 0.49855685
-0.35894853 0.054753527 0.71596694
