# .PCD v0.7 - Point Cloud Data file format
VERSION 0.7
FIELDS x y z
SIZE 4 4 4
TYPE F F F
COUNT 1 1 1
WIDTH 446
HEIGHT 1
VIEWPOINT 0 0 0 1 0 0 0
POINTS 446
DATA ascii
1.0378844 -0.076298751 1.9543309
-0.072277099 -0.21155131 3.2890344
-0.12660965 -0.3974171 3.5487485
-0.070487589 -0.21081296 3.3056064
0.73958397 -0.059180267 0.91993761
-0.085775107 -0.38363904 3.4196162
-0.10121998 -0.01907203 2.5209622
-0.087853223 -0.0065961778 1.631876
0.076420397 -0.077740721 2.0012307
1.1666943 -0.38309366 3.4078369
0.011197239 -0.35671222 4.6763749
0.06321159 -0.18092102 4.6389794
-0.16752234 -0.42744824 3.4448948
-0.18080619 -0.45127368 3.6803594
0.80655062 -0.036673926 2.1601796
-0.72058785 -0.48823541 3.1982327
0.21084824 -0.095156081 2.8807073
1.3320011 -0.271653 3.40135
-0.13394818 -0.38170472 3.251442
-0.69490027 -0.44205582 3.4625688
-0.80254292 -0.41530275 3.0019779
1.2233983 -0.25315389 2.2356329
0.97354531 -0.029885106 2.341217
0.60598755 -0.028098658 1.9900179
1.0788471 -0.33556747 2.9580874
-0.67788887 -0.4607513 3.2591753
0.37275252 -0.12779108 1.1339655
0.37000796 -0.12858114 1.2312026
1.022686 -0.29585138 2.452723
1.1963012 -0.29705721 2.5621614
0.91618657 -0.19910035 1.095643
-0.75360513 -0.14255494 1.0454583
0.27243128 -0.048731834 1.4355106
-0.69527245 -0.43153808 3.4206462
-0.52341282 -0.053078793 1.3056717
0.29108867 -0.18515718 1.021605
-0.81481874 -0.096513681 1.970263
1.36973 -0.14034107 2.165771
-0.75289249 -0.27908573 3.5884891
0.18710074 -0.16651911 0.98293638
0.18239906 0.039401609 1.0994663
0.30127069 -0.026139848 1.379499
-0.8434031 -0.36856723 2.783906
-0.76754069 -0.018312249 1.8134198
0.27705798 -0.028392658 1.4876032
0.34349206 -0.14027417 1.3833737
0.18806389 -0.15666687 0.96803331
1.841931 -0.14223143 3.1760449
1.5567575 -0.48850602 2.5850253
0.31946269 -0.11343745 1.3941088
0.29220709 -0.18317395 1.1683097
0.18245617 0.011059053 1.1478457
0.23104396 0.038951166 0.73618984
0.33610585 -0.11292017 1.4901538
0.35327515 -0.0086315796 0.92323446
0.42946926 -0.22755125 1.5140138
0.20780948 -0.1792025 0.98262262
-0.84203875 -0.060595013 1.8989582
0.98397934 -0.030966975 2.3626933
0.38776913 -0.087580644 1.3238778
0.34065613 -0.043494366 0.97630548
0.38104019 -0.075167097 1.3815002
0.048221081 0.040049065 1.147974
-0.036749691 0.045197602 0.86828661
0.34765837 0.018405754 1.0350142
0.7567476 -0.031941012 0.87096047
0.17994049 0.040674869 1.0795603
-0.3814809 -0.37707448 4.0032153
0.32072255 -0.045593202 0.51139379
1.5254138 -0.065115117 2.1964698
0.18617496 0.040387072 1.13272
0.38247952 -0.083362512 1.3930497
0.20957705 -0.18651876 0.93452168
0.099358231 0.044139877 0.86279273
1.1671828 -0.043054357 2.1913209
0.21680912 -0.1750769 0.98026705
0.40327457 0.033575036 0.70487738
0.36036149 -0.023762047 1.1235466
0.396552 -0.13698137 1.3289151
0.30169252 -0.21520042 1.9081182
0.3762202 -0.078691781 1.3644619
-0.021885365 0.039571326 1.0618553
1.0249686 -0.097492658 2.1551638
-0.86625171 -0.22889271 2.822279
0.25175026 -0.17253125 0.85740829
0.75501883 0.015968915 1.4364204
0.18634591 -0.16650829 0.95576167
1.0741565 -0.039052323 2.1864781
-0.80579948 -0.15170076 1.0847077
0.18623075 -0.16623634 0.96030426
-0.76224065 -0.091019668 1.8771811
0.33532521 0.016890295 0.98589134
-0.74808335 -0.47704875 3.1208148
-0.79936731 -0.41124362 3.0251713
0.31148037 -0.036598094 1.0333319
0.87141907 -0.037729844 1.7932467
0.53780973 -0.3212778 5.0505724
0.74596047 -0.062078714 0.88783598
-0.72840416 -0.37345016 3.0806713
-0.64343178 -0.42198327 2.9708934
0.72658443 -0.042965934 0.90598798
0.37217882 0.020087099 0.98621225
-1.389016 -0.12915671 4.9999037
0.33250633 -0.10046218 1.4799681
-0.84533572 -0.069945 1.1829195
-0.85512424 -0.44396544 3.1510873
0.40099922 -0.13906968 1.3413868
0.31986913 0.031051189 0.51988959
0.4262999 -0.12798196 0.94629788
-0.17869505 0.052189171 0.70213056
-0.820292 -0.13552892 1.097096
0.38959005 -0.15793261 1.4189782
0.41837707 -0.088814236 1.4850788
0.20855114 -0.18034831 0.98640728
0.1237562 -0.56034189 4.4706874
1.1646467 -0.042216234 2.1790814
0.54776597 -0.32926789 5.1412258
0.35742328 -0.024869867 1.4778857
-0.77539146 -0.29576823 3.0955448
-1.0138043 -0.42296141 3.4355531
0.31898043 0.026594218 0.51618028
0.12229577 -0.56092119 4.507987
-0.17307696 0.041209102 0.88921499
-0.43012741 -0.25583476 2.9599833
1.2449641 -0.041628525 2.1706586
-0.69843721 -0.20569101 1.9725432
0.21975812 -0.1319969 0.94553518
1.1614145 -0.042890549 2.1795449
0.21316859 -0.1518662 0.94344044
0.35023728 -0.12616843 1.3901381
0.73685646 -0.089862518 0.90077114
0.74573803 -0.090158977 0.91899943
0.17590895 0.049987074 0.57861972
0.24561617 -0.16766387 1.0179496
1.0846455 -0.037459053 2.2036905
-0.65446818 -0.42991319 3.2369447
0.2134451 0.052613944 0.41089416
-0.095950097 0.05433495 0.41960192
-0.76001072 -0.28404137 3.6328011
1.0438405 -0.048970871 2.2432532
0.10054871 0.044905312 0.87269974
-0.74549735 -0.27315676 3.0195627
-0.79787731 -0.46631342 3.1867929
1.0467415 -0.10122079 2.2095079
-0.88810217 -0.42764404 3.1607037
-0.17818317 0.046489622 0.63576221
-0.062270492 0.056344822 0.34816265
-0.21962675 0.044805467 0.6570735
-0.49082837 -0.19333664 1.0186906
0.37286261 0.020163534 0.99297285
0.17298183 0.049469326 0.56936526
-0.74227381 -0.089592464 1.8327031
-0.61957049 -0.16392216 1.0528102
0.23923805 -0.17180651 0.92178774
-0.46320209 -0.23166537 1.0617294
0.077761143 0.054590493 0.47017288
0.28111175 -0.28786391 2.3201709
0.34449652 -0.14298952 1.4006243
0.24309793 0.017940244 1.266264
-0.52835715 -0.21652481 1.2204332
-0.91822886 -0.41361907 3.2365546
-0.20454618 0.053283125 0.27703834
-0.096451551 0.054922748 0.42609358
0.21275118 0.052266486 0.271626
-0.71975803 -0.39929959 2.0932751
0.074849576 0.056016568 0.35607052
0.21886173 0.049966 0.32328105
-0.5726136 -0.14829972 1.0103941
0.23409817 0.040761232 0.74482822
0.17272404 0.058215257 0.24758077
-0.061912388 0.056095988 0.34941554
0.43686119 -0.1419878 0.91861796
0.32099316 0.030745048 0.52338266
1.1468081 -0.087204792 2.1748781
-0.20562801 0.053931735 0.27820516
-0.6125679 -0.26654011 3.3677106
-0.76913571 -0.32054004 2.3442497
0.91333807 -0.20379061 1.0959349
0.20308748 -0.16190076 0.94889164
0.85506713 -0.16837934 1.0807714
0.74976969 -0.064942725 0.89121795
-0.70090711 -0.34574383 2.9635935
-0.64196014 -0.43495098 3.7075372
-0.52009439 -0.2232435 1.1770873
0.23080334 0.050419051 0.26917124
0.34826961 -0.05687765 1.4450421
0.71461868 -0.16327429 0.97268391
-0.051500887 0.053458221 0.44451642
-0.61072731 -0.0042324364 2.5144544
0.32363155 0.034595959 0.49980211
-0.18603858 0.056583606 0.27854991
0.72081125 -0.041938774 0.9002378
0.23669717 0.047143273 0.35227013
0.34507528 -0.1104879 1.4776454
-0.49560723 -0.23706546 1.0440931
-0.18251225 0.056565609 0.26221704
-0.053083658 0.052858535 0.67688203
-0.6900456 -0.37589827 2.0587659
0.47902265 -0.1541037 1.0248241
0.74255502 -0.053291567 0.89224434
-0.8977325 -0.24204013 3.1440306
-0.79891372 -0.48330075 3.271472
0.22597423 0.037272237 0.7149322
0.44819883 -0.17082056 1.0673952
-0.92189395 -0.39218268 3.1111794
0.33844915 -0.14120704 1.3714848
-0.65376449 -0.43042389 3.730679
-0.39077613 -0.078715608 2.0639834
0.45532832 -0.14707306 0.96467805
-0.17263171 0.050440893 0.65211463
0.38745329 -0.13757417 1.395885
0.46989557 -0.13684893 1.0236111
0.29100755 -0.015633475 0.93515325
-0.74396312 -0.079354294 1.4136767
0.38045099 -0.067248113 1.561584
0.17451641 0.050282553 0.5840888
0.074794471 0.056320265 0.36550879
0.21165696 0.052559067 0.27949357
0.24769911 0.10782229 0.57637596
0.31754491 0.031558271 0.51454806
0.213294 0.052805603 0.4090271
-0.20754442 0.051240571 0.26408172
0.23190895 0.041140024 0.73336983
-0.1069425 0.058137987 0.27830935
-0.053973198 0.056062505 0.33990002
-0.50930262 -0.18292812 1.0964618
-0.17295286 0.059102278 0.36957932
-0.13258293 0.056502849 0.42861271
0.34260222 -0.12838879 0.88548923
0.76025462 -0.19474491 1.8204317
-0.049861461 0.052052297 0.43018866
0.332885 0.0064525642 1.1261768
0.087658852 0.04958187 0.67322063
0.33124158 0.0097886175 0.52503562
0.4445304 -0.083661981 3.423595
0.31897113 0.018599242 0.9577198
-0.061904699 0.056109317 0.35255265
0.37609938 -0.061653346 1.4125171
-1.0160825 -0.39431533 3.4055505
-0.71594453 -0.39554739 2.0761986
0.14794603 0.057727277 0.29049015
0.073185354 0.055701554 0.36016989
-0.91035128 -0.2410779 3.1966143
-0.092645586 0.05307167 0.40359259
1.430254 -0.041137964 2.190506
0.17002311 -0.24629685 4.1599836
0.092986315 0.052365266 0.72082233
-1.0689725 -0.049632542 3.7126212
-0.97764111 -0.36415818 3.3454642
0.31639162 0.030060694 0.51188111
0.53814936 -0.17193177 1.0688782
0.29866955 0.036783826 0.55792761
-0.18977287 0.056859005 0.35359764
0.12682089 0.056529932 0.27478504
1.2368 -0.10179604 2.1301751
0.51464617 0.2164194 1.0865402
0.0760957 0.056928918 0.35946631
0.38090888 -0.024255902 1.5198908
-0.75530457 -0.27861425 3.0970926
0.15921172 0.018728284 1.2810774
0.33732238 -0.12629914 0.87254906
0.43714985 -0.16625604 1.0287519
-0.48010227 0.048068196 1.0621147
0.13191268 0.054478657 0.38296151
1.0675994 -0.072691061 2.2002277
3.2505355 -0.58640206 5.0335035
0.45593384 -0.11069388 1.5709219
0.70057857 0.029196661 0.92878461
-0.043416083 0.0485394 0.65699911
0.16331288 -0.19080767 0.89747882
0.31846359 0.024602035 0.51496363
0.71805263 -0.041953705 0.89167714
-0.17613146 0.065441832 0.43131089
-0.58817637 -0.18721831 1.5408673
-0.79378927 -0.36394778 2.1735539
-0.69902706 -0.48200041 3.1218405
0.29841021 -0.32175875 4.1106653
-0.54540491 -0.13998085 1.0189509
0.099158943 0.058641195 0.28239822
-0.1934292 0.063871011 0.40209913
0.079648763 0.056647208 0.30770135
-0.76016188 -0.10632414 1.3757186
-0.13617328 0.056088742 0.25156474
0.33712009 -0.14962873 0.87291145
0.36914751 0.035460137 0.77877975
-0.19186905 0.042843737 0.80817628
0.52961457 -0.16653484 1.2468133
0.43269417 -0.11381353 0.55754685
-0.11094937 0.05718752 0.30912042
0.17541495 0.05715277 0.28935647
0.32166353 0.039110154 0.50998592
0.2240192 0.047367055 0.46267653
-0.77825189 -0.002759181 1.8509502
0.086504787 0.061829403 0.3993659
0.15121678 0.058117375 0.28921509
-0.54142272 -0.1386016 1.0115151
-0.75739908 -0.29709527 2.199656
0.45357457 -0.17249537 1.0724125
0.97443521 0.25775364 1.303164
0.23005685 0.047998395 0.52477241
0.36350289 0.035091519 0.76332211
0.15114835 0.056407087 0.31703186
0.20106402 -0.0041307285 0.72897291
0.094612986 0.056394983 0.26584363
0.11592284 0.058167476 0.27615881
-0.17089781 0.05823721 0.36116934
0.45443633 -0.1730226 1.0691938
-0.19445863 0.058637999 0.26459217
0.16347995 0.0094100088 1.1468768
-0.53902245 -0.14623094 1.0333691
-0.21017954 0.051905643 0.31305647
0.32722738 0.014850345 0.95564675
-0.48407075 -0.18776682 0.99758101
0.30383882 0.036823474 0.50659323
0.18121985 0.060134068 0.25178647
0.9584291 -0.22664383 1.8856516
0.082814842 0.059371077 0.37607002
-0.05176881 0.054462042 0.46275902
0.23773441 0.047681745 0.35352731
0.18730482 0.057392038 0.32757306
-0.10291129 0.058991067 0.46128702
0.21851513 0.05039404 0.33157015
-0.43693945 0.021148318 1.6098967
0.18018779 0.058186617 0.30031991
-0.19661972 0.054347545 0.31051159
-0.055102199 0.056824006 0.34750414
-0.19134316 0.056821447 0.27489328
-0.16686818 0.040725049 0.95109558
-0.67404234 -0.16096151 0.98351908
0.17624202 0.053619318 0.40897989
0.19037935 0.010700837 1.12045
0.25786909 0.032207176 1.3373146
0.41520956 -0.086258002 1.4043465
-0.69315076 -0.16441819 1.0868597
0.40760913 -0.11195666 0.55101585
0.71079922 0.012136128 0.91462016
0.28781924 0.032801807 0.48264265
-0.18211052 0.042445596 0.7504158
0.18913642 -0.20632225 1.5773606
0.13246629 0.036834095 1.2980738
0.50207222 0.16047269 0.85235524
-0.67770064 -0.19873986 2.7842927
0.30697444 0.0089135021 0.51342344
0.20914111 -0.20265535 1.5678167
0.21609369 -0.21095452 1.6336088
-0.43943152 -0.17208466 1.0023336
-0.052675575 0.051117614 0.60291004
0.25876966 -0.033460066 1.4381113
-0.60369992 -0.35660687 3.9845653
0.36281332 -0.090445258 0.88960028
-0.083806902 0.057880912 0.29939318
0.72923017 0.025877923 1.1227736
-0.33147356 0.047308709 0.62892032
-0.1909847 0.024265895 0.26257944
0.07538113 0.045472749 0.50930476
-0.51137602 0.0049795769 1.2633266
0.19531193 -0.17428949 1.0249567
-0.84528339 -0.38615587 2.3318648
0.084828854 0.068062097 0.28152323
0.37964419 -0.14026165 1.441782
0.24086156 -0.18943214 0.84231949
0.38213393 -0.13463098 1.3656964
-0.76239753 0.0013521314 1.8132744
-0.17852804 0.046770763 0.6431241
0.37347493 -0.15482414 0.79535127
-0.53698313 -0.14550549 1.0273433
-0.20368543 0.053582087 0.27594709
0.22258815 0.042029724 0.35281253
0.073906779 0.05236432 0.44555235
-0.45677671 -0.20811254 1.0625796
-0.18781772 0.057642028 0.32738018
-0.20265535 0.026636308 0.2504642
0.36479238 -0.15246183 0.77602983
-1.103947 -0.11920341 1.8807044
0.11387381 0.05676844 0.26753473
0.43512926 -0.12926391 0.57460642
0.22947529 0.039396111 0.75764608
1.1509576 -0.040837936 2.0741973
0.17065045 0.056200907 0.30432606
-0.054596901 0.0584388 0.50110817
-0.15332386 0.057121038 0.34721112
-0.19810769 0.025833003 0.27263641
0.52004075 0.037506111 0.62363768
-0.19396362 0.057499707 0.27976322
-0.19245479 0.025238525 0.26304364
0.32104555 0.015043139 0.94211459
0.17906216 0.05140397 0.59014797
1.6391741 -0.049342759 2.5084567
-0.1492531 0.056616239 0.36227512
0.22126248 0.049638517 0.38675594
-0.062603205 0.056604132 0.34638977
0.36992899 -0.082487218 1.355535
-0.10818464 0.059272904 0.27037144
0.23448071 0.048306167 0.5354352
0.58974159 0.023437515 0.77061653
0.21181104 0.052345235 0.40584016
0.40193847 -0.1596337 0.78749847
-0.87762785 -0.1666837 2.0480633
0.30021963 0.036541097 0.56229806
0.0019267499 0.060084704 0.29214263
-0.34768775 0.047787219 0.88737106
0.20998695 0.053055931 0.40548563
-0.4733319 0.047133446 1.0995207
0.43974271 -0.11937558 1.053175
0.10613832 0.058101695 0.2612977
1.4925678 -0.062908113 2.142591
-0.6081835 -0.14784351 0.81614113
0.13646886 -0.12712985 0.7162993
0.4169021 -0.1133246 0.56169963
-0.053094685 0.050647981 0.58026385
1.1621358 -0.29216266 2.9265161
0.37621805 -0.06331151 1.3939896
-0.67246521 -0.13988194 0.88470268
0.17137894 -0.15330461 0.87828493
0.22511593 0.042637985 0.5785675
-0.043024451 0.048103251 0.65942574
1.4682481 -0.063786678 2.1148086
-0.52327478 -0.20865142 1.0946617
-0.74037313 -0.24083757 2.1315532
0.084265798 0.037720047 0.73374033
0.3327944 -0.085224591 0.81460214
0.84299541 -0.1065756 1.1392565
-0.129105 0.055082925 0.40053582
-0.71408808 -0.0094050616 1.8755655
0.18995079 -0.20428327 1.5746827
0.30093709 -0.051342256 1.4888511
-0.10361251 0.054554202 0.30735469
-0.73086119 -0.0073435493 1.924768
0.89842379 -0.20249665 1.1004953
-0.7003454 -0.39009261 2.0337071
0.39682689 -0.11823925 0.57668614
0.23564836 0.050199732 0.51640534
0.18093362 0.011556378 1.1388278
-0.17555985 0.057823043 0.35848927
2.7180765 -0.58217514 3.9848423
-0.68890882 -0.27115476 3.3426557
0.2202535 0.04780636 0.38638902
0.073236048 0.051582113 0.42561293
0.72510624 -0.041595556 0.90914536
-0.66613364 -0.17012605 1.2483134
-0.79841638 -0.53590155 3.9430313
-0.63555813 -0.30501637 3.4755073
0.74310315 -0.065453477 0.88275957
-0.67122006 -0.38604593 3.663774
0.22593054 -0.078046001 0.73632717
-0.78532326 -0.093418501 1.9390731
