# .PCD v0.7 - Point Cloud Data file format
VERSION 0.7
FIELDS x y z
SIZE 4 4 4
TYPE F F F
COUNT 1 1 1
WIDTH 475
HEIGHT 1
VIEWPOINT 0 0 0 1 0 0 0
POINTS 475
DATA ascii
2.1282434 -0.087994523 3.2436244
0.029230624 -0.20496695 3.4754083
0.28717461 -0.08604157 2.8938806
0.027135104 -0.20568702 3.5284441
-0.017379433 -0.38606429 3.7369297
0.0015340149 -0.010451585 2.0060456
0.028981239 -0.20567553 3.561938
0.02722469 -0.18984403 3.5797989
0.01900956 -0.36991596 3.5645225
-0.031335205 -0.33732456 3.9496109
-0.035681397 -0.0071864277 1.8978665
1.1515952 -0.25221241 3.3235776
0.72445691 -0.053424485 2.1712463
1.2710621 -0.37032229 3.6597822
0.72589791 -0.052037328 2.1837356
1.0426662 -0.36799026 2.9209149
0.19035557 0.042178683 1.1541529
-0.43484077 -0.16943921 0.96177292
0.19827583 -0.17254592 4.9206905
-0.061646312 -0.42050672 3.687247
-0.06897971 -0.44272983 3.9028776
0.24449405 0.029611364 1.3795364
0.87742674 -0.068043433 3.6416209
1.169896 -0.18213743 3.2304618
0.90180576 -0.032426253 2.5235488
-0.45046714 -0.3370747 3.8949735
-0.70654416 0.030320225 1.2374744
-0.61845016 -0.48514837 3.4606493
1.0843208 -0.024914466 2.6955283
-0.7733084 -0.062002286 1.262924
0.29810336 -0.090112619 3.1630738
0.60494256 0.037326328 0.81747222
0.91749382 -0.25886172 1.3185084
-0.035295218 -0.37879258 3.5328014
-0.58622146 -0.43960822 3.7272995
-0.065134376 -0.13232875 2.3336627
-0.52602637 -0.069193356 0.94743681
1.2721955 -0.35719329 2.8409731
0.2212902 0.0098614004 1.4154422
1.0063285 -0.019160926 2.4605343
0.99171531 -0.019638471 2.4020236
1.1292601 -0.078787751 2.0489385
0.97525537 -0.20581059 1.274368
0.98004782 -0.18182811 1.3999841
1.1801536 -0.17672619 3.2817919
0.911291 -0.26308966 1.312187
0.96309412 -0.17768726 1.2081807
0.39995024 -0.12344348 1.4329126
1.2471657 -0.2811814 2.7254193
0.96265686 -0.15896681 1.1842911
0.9524076 -0.1931596 1.3408253
0.95329154 -0.17427243 1.1790638
1.0325781 -0.062960573 1.586611
-0.60058939 -0.43728173 3.7768996
0.22515365 0.010685112 1.4246981
0.34070715 0.023808114 0.78480363
0.45522758 -0.14847095 1.087584
0.96435559 -0.12832971 1.3053453
0.41172531 -0.22275113 1.7014759
-0.8746289 -0.080822527 1.3151934
0.22403613 -0.20673692 1.1281157
0.16030887 -0.2326421 1.2070973
-0.7661674 -0.10270196 2.3205841
1.0223662 -0.28239298 1.3931444
-0.54164541 -0.23604931 3.1807816
0.96614683 -0.26086265 1.3161504
0.22129199 -0.16843492 1.2567918
0.21975663 0.039355747 1.3732378
-0.50339115 0.035269052 1.2214563
2.3488343 -0.1153942 3.6026528
1.2288914 -0.44595373 3.0061128
0.44019684 -0.14287554 1.0397785
-0.77311826 -0.074249029 1.2660882
-0.87637794 -0.080505311 1.3124425
0.23502985 -0.22292729 1.3475325
-0.80906332 -0.072182924 1.253433
0.43487999 -0.16148819 1.0197389
0.2107881 -0.18090113 1.2293956
0.2269555 -0.15037495 1.2589004
0.30487087 -0.024618179 1.6120336
1.6690493 -0.064527236 2.6059401
0.23914865 -0.26165181 1.2078393
0.3899146 -0.13871156 1.6511533
-0.4265444 -0.20905469 0.95537758
0.33220902 0.045652948 0.56768203
1.2403836 -0.25549406 1.5641482
-0.79104984 -0.11587508 1.2939665
0.77915156 -0.030711979 1.1149664
0.22607902 -0.14332795 1.7183444
1.1330216 -0.23001586 1.4023764
1.0288308 -0.28207022 1.3991382
0.1300284 -0.26429033 2.2273133
0.73861694 -0.076004013 1.0745397
0.53516483 -0.17438394 1.1498921
-0.65555692 -0.19681904 1.6505926
0.96403956 -0.19519483 1.3722961
1.2976497 -0.097645447 3.3751242
0.16854146 -0.20465949 1.150208
0.95438886 -0.15856308 1.1744008
-0.5536238 0.029955626 0.88679433
1.5097646 -0.43807948 2.5799129
0.46753111 0.004783472 1.6857102
-0.79837835 -0.067664005 1.2377987
1.0390271 -0.24406929 1.3965776
0.36009887 -0.10994805 1.6259654
0.20643935 -0.23166896 1.2308445
0.087789923 0.061494522 0.52821064
0.17739955 -0.20093063 1.9595687
0.22164068 0.011418272 1.4232705
0.26202455 0.039007634 1.0253587
0.38969997 -0.11245787 1.7843707
-0.37450364 0.055797637 0.54337835
1.0048974 -0.15904589 1.1564295
1.0048696 -0.18990123 1.2712305
0.20410833 -0.24583004 1.2132759
0.073883325 0.058875438 0.27680302
-0.18069527 0.054917678 0.54313827
0.2469258 -0.18250947 1.2802408
-0.48007628 -0.2185808 2.1479943
-0.038978696 0.050066702 0.62905645
-0.48994085 -0.19141929 1.1385064
-0.053112298 0.055502456 0.42938018
0.79678535 -0.087478571 1.2091031
-0.29833201 -0.15431707 1.0514145
0.61397898 0.039282106 0.82832503
0.28312913 0.048213862 0.51839399
0.21557531 0.057664461 0.27308202
0.21538541 0.057681989 0.27113652
0.66806591 0.036652867 0.96210146
1.0174676 -0.13254032 1.3126743
1.1633469 -0.052669749 1.4500482
-0.76009321 -0.058303207 1.236172
1.0212446 -0.27450389 1.4165165
0.1466381 0.057632264 0.34855723
-0.80817354 -0.064539574 1.2659957
-0.37678108 0.057321228 0.46595001
1.0352284 -0.021199748 2.549216
0.41609922 -0.082723714 1.5156801
0.21879801 0.05528079 0.51487279
0.37474599 -0.042771086 1.2412488
0.20960715 -0.1428785 1.3828285
-0.85426533 -0.077233434 1.2079949
0.22150752 0.05578123 0.52115488
0.41308549 -0.029111423 0.97921729
-0.60641313 -0.17252721 1.4054434
0.20482239 -0.2654776 1.1816666
-0.4330171 -0.30782866 1.4338648
0.22540542 -0.14707445 1.2434776
-0.0056018233 0.041042399 1.109467
0.74711037 -0.027435783 1.0484285
1.0603486 -0.1709078 1.4278371
0.092245609 0.051377267 0.67831635
1.2584101 -0.03116335 2.3899543
0.40648636 0.021079656 1.3955581
0.78415036 -0.027691662 1.1182363
0.2130532 0.040037729 1.3215358
0.43523446 -0.1691156 0.91445756
1.0144353 -0.13568239 1.2859676
-0.21142557 -0.31132275 3.4489505
0.43704632 -0.076175518 1.7031682
1.0456741 -0.031255201 1.2601302
-0.21296731 0.04653383 0.46465898
0.33726659 -0.044947863 0.76140881
0.18229553 -0.24800728 1.225703
-0.5211494 0.041815545 0.65101743
2.210597 -0.054019608 2.6348979
-0.76522124 -0.23686402 3.0365589
0.21007666 -0.19865549 1.1437681
-0.76605022 -0.1906337 1.259249
-0.55946863 0.026685964 0.80900097
0.42923763 -0.081049547 1.6604512
-0.8775779 -0.081121281 1.2672966
-0.51621902 -0.010058336 0.95483208
0.81283975 0.029873528 1.484782
0.39738646 -0.1383197 1.6678054
0.13200226 0.043297824 1.1612933
-0.74801004 -0.14851847 1.0434585
1.2198995 -0.033231288 2.4024913
0.3478851 0.023441747 0.80872273
1.2674432 -0.030643255 2.4131906
2.7694771 -0.14220713 4.4724512
1.3661813 -0.071935028 1.6781094
-0.71484005 -0.10528152 1.3385069
-0.72895527 -0.1496734 1.2434795
0.21148577 -0.142067 0.94440842
0.25269452 -0.21222083 1.062289
1.0933793 -0.18085065 1.5837319
0.38709471 -0.020038221 1.3476722
1.0231876 -0.23662184 1.5075758
-0.65341282 -0.15429279 1.1279891
0.24289557 -0.16186084 1.3600066
-0.055594653 0.056814358 0.44148993
-0.81345999 -0.083504423 1.2689888
-0.52408493 0.014976364 0.94724321
-0.42838147 -0.16380991 0.93904233
-0.55797684 0.030024283 0.89555287
0.20398924 -0.20017035 1.2240121
0.24149033 -0.16379881 1.2346373
0.082638234 0.055630803 0.4993124
0.083708197 0.056268223 0.51200461
0.48790684 -0.13979356 0.81468081
0.4305521 -0.13148892 1.5450971
-0.034861296 0.051259551 0.72197986
-0.63297749 -0.18241876 1.5257518
0.26488504 0.027869893 1.4424059
0.37690225 -0.22283007 2.3075759
-0.19818744 0.055117745 0.2682178
0.42349282 -0.077924147 1.6398685
0.23573396 -0.2575866 1.1801238
-0.5733577 0.02723028 0.8423636
0.37737611 -0.059979051 1.5467136
0.16510531 -0.23160003 1.2275813
-0.46853295 -0.18640827 1.0474544
1.0963404 -0.18061666 1.5995047
-0.38297638 0.056779966 0.5551095
-0.22620466 0.03041245 0.45533252
1.2987977 -0.081018485 2.5215003
1.1513999 -0.2354766 1.4242198
-0.55299425 0.026222274 0.80551839
-0.64505947 -0.19286799 2.5282385
-0.58508229 -0.17049377 1.0147412
-0.59721923 -0.17094968 1.0010214
-0.73835564 -0.16569148 1.2670252
-0.44848159 -0.17152022 0.99434876
-0.674348 -0.11874767 1.1440969
0.99641764 -0.19086833 1.3669326
0.073823303 0.058881097 0.27956343
0.20814952 0.055815727 0.25927615
0.21431151 0.054736257 0.50050282
-0.76873362 -0.17999344 0.99506116
0.1483627 0.058178928 0.35333562
-0.054581016 0.059178181 0.28301382
-0.18043524 0.054428648 0.54212046
-0.0038737953 0.057706345 0.36908555
-0.027111977 0.055954408 0.37509155
0.99244392 -0.10725379 1.2278104
-0.78774989 -0.082657091 1.2278938
0.28631017 -0.17444074 1.137773
-0.8358947 -0.081826709 1.2443907
0.16407982 -0.23900189 1.2431676
-0.79140747 -0.14047533 1.2902339
0.23517832 -0.1403494 0.75076318
-0.53085506 0.014033325 0.96044874
-0.090674937 0.051296033 0.5121026
0.22074315 -0.16613732 1.2222333
0.084225982 0.056517214 0.51822901
1.1221116 -0.029824346 2.3852584
0.9825201 -0.16207767 1.1649692
1.2544354 -0.34963429 2.0633595
0.22364661 -0.16855702 1.2505772
0.36425677 -0.038795888 1.2012014
-0.71322477 -0.097204745 2.211355
-0.15476394 0.042570338 0.9146843
-0.50282049 0.048303835 0.73396063
-0.054299355 0.055187397 0.41390657
1.0521835 -0.30199558 1.4037197
0.3696675 0.034134865 0.96457219
-0.67519653 -0.496777 3.54653
-0.52918994 0.026280709 0.68114567
-0.056217849 0.057433795 0.44486523
-0.63273573 -0.36999148 2.9376347
-0.22667202 0.048921186 0.49792409
-0.026976913 -0.035898179 1.0988643
0.27694562 -0.16715509 1.1006939
0.142003 0.056759626 0.36105466
-0.70375597 -0.1768582 1.2338033
-0.53256691 -0.25773937 1.7307112
0.66950989 -0.30090189 5.1702633
0.78027952 -0.058921315 1.1468236
-0.59001696 -0.25680369 3.5109894
-0.64432883 -0.15803033 1.1022701
1.2201687 -0.031839758 2.4092767
0.22248563 -0.1582792 0.77768087
-0.54989672 -0.42053282 3.2311156
1.0516577 -0.11735682 1.3152092
0.22339448 0.053807974 0.49214578
-0.70607626 -0.15905732 1.0201445
-0.56489205 -0.15897155 0.98530769
0.77442527 -0.040466748 1.1878538
-0.36971965 0.054999597 0.53815842
-0.84974635 -0.18853311 1.1073349
0.21250471 0.057468362 0.27097321
-0.18807063 0.05108574 0.62087131
-0.78048861 -0.078430757 1.1636279
0.39773878 0.021237059 1.2175949
-0.79988039 -0.063090667 1.2551734
-1.1647695 -0.12429005 4.9473362
0.26122525 -0.21772014 1.1041026
0.39456978 -0.10179739 1.8182538
1.0851624 -0.27083951 1.4318087
-0.83095026 -0.088762343 1.5423639
-0.72989261 -0.43002617 3.3075254
-0.9030081 -0.088711582 1.1919091
0.29178032 -0.17801617 1.1664326
0.2168934 0.056394164 0.41249657
0.44530866 -0.14589432 0.73526835
-0.045256943 0.053847279 0.49397278
4.5094976 -0.16858201 6.4993143
0.25573173 -0.54492939 4.7145109
-1.0985337 -0.033089139 3.3081443
1.0113338 -0.037798837 1.4041417
0.25606284 -0.27835476 1.2054896
0.080959558 0.057726853 0.41522384
0.17745593 -0.51275748 4.6879063
0.43609145 -0.13350905 1.5593364
0.34191433 0.030659661 0.78826332
-0.44631156 -0.25840342 1.4460933
0.43171796 -0.12115596 1.1315188
0.22058347 -0.19704048 1.1396632
0.26232257 -0.19442838 1.3715742
-0.58297575 -0.31894612 1.7123554
-0.15450978 0.048865244 0.99537921
-0.62524712 -0.049510151 1.0641048
-0.70514548 -0.17717631 1.1964753
-0.5083015 0.05096747 0.68576932
0.66077304 0.037279859 0.95086932
0.20138213 -0.19786681 1.2067201
0.055904567 0.039596789 0.25694513
0.24670455 0.02801762 1.316385
0.43186256 -0.15531778 1.6630595
0.44418296 -0.083212018 1.648525
-0.086540282 0.055829499 0.41878915
-0.65227342 -0.47693765 3.4089897
-0.21210453 0.027953928 0.45736289
-0.4527944 0.011554919 0.80468392
-0.53071928 -0.14980757 1.0072231
0.24672428 -0.52204931 4.4600229
0.24753627 0.038846482 0.47142601
1.1798594 -0.032619774 2.3130214
-0.17069322 -0.086373955 1.4675224
0.68710077 -0.31150097 5.3068609
-0.93261302 -0.43359035 3.8304484
-0.77209127 -0.45407099 3.6700084
-0.67585087 -0.29712307 3.3588498
0.59657359 0.035507049 0.93512702
-0.66648757 -0.52314126 3.7499826
-0.52104616 -0.24384131 1.7644184
0.37360576 0.045168623 0.56076241
0.34611133 0.027045701 0.79707193
-0.54502499 0.025289252 0.79192924
-0.50752938 0.044217542 0.69434452
0.25343207 -0.54163325 4.6800766
0.07229799 0.057740837 0.27439165
-0.61952579 -0.089799136 1.0261717
0.23454979 -0.24046893 1.1780357
0.15152183 0.058174413 0.39420795
0.21598092 0.055283099 0.50543284
0.25405398 -0.16127673 1.1197913
0.20484009 -0.20042267 1.2253931
-0.11527127 0.031695887 0.92016196
-0.87285042 -0.20442471 1.1286194
0.070626765 0.057688937 0.27813244
0.042841583 0.058275793 0.2778914
-0.11683902 0.052560918 0.6814785
0.24654731 -0.19505619 1.1351898
-0.26294813 -0.19818915 2.424228
0.10839608 0.059752785 0.33964729
0.25316575 0.042946313 0.86859965
1.2997948 -0.030353345 2.3886702
-0.054048538 0.058949884 0.28340626
-0.20127997 0.047315508 0.55571675
-0.21195886 0.046788312 0.52869892
0.59401882 0.2349484 1.5295932
-0.51063919 0.048041806 0.68721652
-0.096307695 0.054394811 0.56441092
-0.50852966 0.044175867 0.69674325
0.12677065 0.057936363 0.46658587
0.078819782 0.055804491 0.39029384
-0.10043502 0.056269784 0.5777998
0.14075273 0.060650028 0.29057932
-0.68332338 -0.34183663 3.2097986
-0.10218233 0.06435474 0.31318903
-0.096299022 0.060685299 0.28839588
0.12110063 0.058311887 0.33042836
1.2679243 -0.034707472 2.5028117
0.67092454 0.031665176 1.0747151
0.24537095 -0.14527489 0.7833178
0.23976633 -0.14718893 1.1695745
0.11912459 0.05518293 0.42920208
0.12604803 0.053801339 0.25735617
-0.17303023 0.012336688 0.4530797
1.1282506 -0.063194744 2.143882
0.44232401 -0.13693325 0.75494576
0.3908284 -0.12210676 1.6292207
0.75845778 -0.31307423 5.3678885
0.77213776 -0.086544432 1.1605296
0.77569401 -0.087066531 1.1687071
-0.21493062 0.046400055 0.46720934
-0.48977062 0.045303874 0.83381701
-0.8530966 -0.095643446 3.4629824
0.068373412 0.047895089 0.33577752
-0.54410756 0.029223001 0.87233114
1.0073311 -0.32317585 1.4014323
-0.66798902 -0.1787343 1.0978696
-0.42028543 -0.2465495 1.3015902
0.28636035 0.049187265 0.52601004
-0.50850761 -0.15762715 0.87990594
0.19995561 0.048892222 0.85466075
-0.74023378 -0.19864498 1.1985824
-0.42636666 -0.30301821 1.4108064
-0.061050534 0.06049972 0.42571807
0.38592026 0.046225213 0.5823257
-0.050762475 0.052267384 0.35487556
0.77366233 -0.023907892 1.1449831
0.043466032 0.059551358 0.28423572
-0.51142406 0.044588692 0.71068239
0.17929438 -0.50500447 4.5858231
0.079186261 0.055733956 0.387923
-0.034957439 0.062799975 0.30879116
-0.35732576 0.054110095 0.48477888
-0.019371778 0.063258886 0.30543995
0.36543635 -0.020826571 1.7009642
0.98981166 -0.11908904 1.2698786
0.37939861 0.047741778 0.50265408
0.25827119 0.044326 0.89142704
-0.52630305 0.053487077 0.70823026
-0.39855936 -0.17652917 1.9404037
-0.088089615 0.057967462 0.28423858
0.076735914 0.057972636 0.27887201
1.156242 -0.02791024 2.4578025
-0.55288029 0.021197222 0.96418023
0.14929256 0.055647377 0.47505975
0.90423512 -0.26474166 1.3062408
-0.73933828 -0.19778554 1.1938472
-0.056141376 0.061726425 0.29965687
-0.36841711 0.055246331 0.53618741
-0.48172608 0.04123465 0.6651566
0.93670309 -0.277695 1.5812056
-0.55270088 -0.4279359 3.5078261
-0.24883488 0.027631734 0.49687362
0.7411325 0.015692133 1.1069815
-0.042165279 0.05181814 0.4716022
0.23058119 0.050863117 0.67710257
-0.019046724 0.061392151 0.29477406
-0.74927604 -0.20116828 1.2130003
-0.42874691 -0.24604248 1.3857853
-0.089019537 0.057333589 0.43748355
0.20919582 0.055765718 0.34716392
0.21476719 0.056053087 0.37430859
-0.70420647 -0.16438395 0.90427709
-0.074240327 0.048386969 0.66342878
0.43407384 -0.14610949 0.71349359
1.5305015 -0.08936815 3.3143661
-0.6197269 -0.26926821 3.7082236
-0.045229673 0.053463794 0.48775125
-0.7070756 -0.1388621 0.91720366
-0.079069048 0.051514477 0.37999535
0.26178417 0.043937579 0.57468128
-0.0066253841 0.067897439 0.43633962
0.24172047 -0.050637215 0.42482543
-0.047186702 0.047798634 0.35685754
-0.81628239 -0.086536095 1.2743061
0.076050788 0.057452314 0.27345324
-0.076183408 0.056135833 0.2472434
-0.19324276 0.01809616 0.45800996
-0.16359285 0.017721824 0.51305246
-0.66924727 -0.27916831 3.3947437
0.20556942 -0.27460682 2.930712
-0.52011192 0.039226741 0.88242579
0.18299672 -0.21484451 1.2399905
-0.64284885 -0.13171753 1.1537275
-0.73613572 -0.15258813 1.2529013
0.21580616 0.052329309 0.27586484
0.12274927 0.052767236 0.24663615
-0.40088943 -0.15200989 1.1709037
0.98650408 -0.11247018 1.300709
-0.57316232 -0.088962272 0.9929347
0.74919128 -0.06495782 1.1364021
0.76549411 -0.031129427 1.0549576
0.77946901 -0.028033085 1.111629
-0.3825064 -0.16228564 1.0764647
0.016007841 0.051626854 0.5346725
-0.025714874 0.055038624 0.3715589
-0.78763819 -0.42895669 3.4432309
0.3759717 0.046842873 0.49727654
