# .PCD v0.7 - Point Cloud Data file format
VERSION 0.7
FIELDS x y z
SIZE 4 4 4
TYPE F F F
COUNT 1 1 1
WIDTH 652
HEIGHT 1
VIEWPOINT 0 0 0 1 0 0 0
POINTS 652
DATA ascii
1.9320695 -0.082820475 2.4873779
0.97767615 -0.058796588 1.4127729
-0.16353512 -0.18692693 2.6839454
-0.16628629 -0.18631668 2.6997554
-0.22968811 -0.37080726 2.9827077
-0.20009637 -0.37801498 3.1413643
0.65609419 -0.024728067 2.0851576
-0.16141683 0.00051091239 1.8292387
-0.23015755 -0.30272081 2.9167244
1.1000439 -0.22723156 2.0967944
1.0239484 -0.34065121 2.6857545
-0.84703445 0.0019757561 1.6998641
-0.12624943 -0.32547659 4.1506224
-0.27301937 -0.40692616 2.9439723
-0.82939613 -0.47349167 2.7049463
-0.22425878 -0.35210156 2.6334641
1.1219931 -0.35719493 2.1128132
1.0521977 -0.20217711 1.9481103
-0.78322923 -0.443014 2.7440178
0.63378656 -0.047250208 1.4300425
-0.87540948 -0.079445943 1.4099448
-0.83242977 -0.24728751 2.9017756
0.15207905 0.052674532 0.53605294
-0.0072107315 -0.41836622 3.0810201
1.1054982 -0.0858704 2.5864475
0.27853209 -0.097077757 0.82846189
1.6975321 -0.065140963 2.0131247
1.1325052 -0.023311581 1.6351039
-0.56072974 -0.38695318 3.948313
0.15417194 0.052981619 0.55533004
0.056154251 -0.19243668 1.1844475
0.34061259 -0.067427337 0.83003402
1.089489 -0.023148891 1.6355755
1.1267781 -0.022807561 1.6237981
0.19044942 0.04031143 0.58793044
0.33782196 -0.063564196 0.81621337
1.1050678 -0.068395182 1.619261
0.70923567 0.031622 0.88810039
0.99960852 -0.019341417 1.6324012
-0.03336215 0.050182052 0.94154286
-0.82057631 -0.074649706 1.3178442
0.30532527 0.030290153 0.42367625
-0.85499823 -0.45762765 2.6103275
-0.87915874 -0.47615898 2.7189829
0.3162955 0.034572825 0.40937042
-0.90282619 -0.39480489 2.513294
-0.21360302 -0.061327707 1.8678353
0.3888768 -0.29006279 4.5166445
-0.83553219 -0.35838199 2.5873945
-0.798105 -0.23704994 2.7314384
1.0835317 -0.022200052 1.6276577
-0.96958911 -0.43282852 2.6644638
-0.09487021 -0.51761723 4.1487379
1.315219 -0.31566817 2.055383
0.34659749 -0.14043567 0.85413766
-0.0069314241 -0.52270335 3.8572958
1.0907476 -0.023457583 1.6317236
0.39830256 -0.29827237 4.6389952
-0.87726092 -0.41063443 2.5082376
-0.94174743 -0.41252047 2.6727746
-1.1160393 -0.40018398 2.8666437
-0.0092923641 -0.52261186 3.8876898
-0.92755008 -0.34586102 2.6188824
0.28613925 -0.07890816 0.80966496
1.077016 -0.021334436 1.6071374
1.0108012 -0.018449027 1.6520517
-0.75634754 -0.4110159 2.709235
-0.87482572 -0.26256251 3.1092436
-0.85409069 -0.27618402 2.7191918
-0.90720987 -0.45124424 2.6813667
0.98293817 -0.082709625 1.6825211
-1.1226093 -0.33210552 2.8550766
-0.34955448 -0.40106437 2.9874308
-0.84097099 -0.022528868 1.3542049
1.080465 -0.069005579 1.6432412
0.27733296 -0.021460183 0.75513721
-0.76660991 -0.25447446 3.0891402
-0.75947714 -0.40280366 3.1613505
0.30232763 -0.094791666 0.92334867
-1.0051152 -0.22312272 2.6259019
-1.0827696 -0.3996467 2.7732389
0.31894708 -0.05410983 2.6305044
0.32281774 -0.045323055 0.79790902
0.050481677 -0.24224138 4.1018715
-0.8417381 -0.038397338 1.2953479
1.349565 -0.024258152 1.6429522
1.1515031 -0.082173556 1.5624888
0.97730291 -0.030803937 1.725548
0.12230295 0.033027887 0.69079232
-0.80912519 -0.53326827 4.3358145
1.0061921 -0.051722843 1.6746161
-0.65640068 -0.0010377169 2.574167
0.45205295 -0.10272251 1.2257636
0.20921123 -0.012862872 0.74016833
-0.44919962 -0.072834507 2.0497668
0.997352 -0.060322043 1.6866133
0.3624562 -0.083582908 0.78078341
-0.89415526 -0.36122388 1.7033465
-1.1395968 -0.40177545 2.9368784
-0.83151972 -0.48164177 2.7281792
0.17924345 -0.29482618 3.5909431
-0.84325647 0.016060226 1.3066504
-0.83149338 -0.27381042 1.6508677
0.30247468 0.025880672 0.41412234
-0.78322113 0.012931876 1.3219883
0.15837985 0.02403209 0.55113816
0.19515109 0.042436711 0.60875106
-0.75211787 -0.34271717 3.606096
-0.89333558 -0.35887334 1.710047
0.34272408 -0.11917102 0.8117125
0.31609058 0.034501143 0.40883183
0.3332175 -0.068313092 0.81344628
0.32768393 -0.047318462 0.80426526
-0.8101567 -0.22454074 1.586026
0.14668775 0.024172928 0.56021619
-0.85420704 -0.30311808 1.5918624
-0.78945756 -0.43602479 2.8175976
-0.76806247 -0.28877017 3.0638878
-0.82606435 -0.074577972 1.3200014
-0.1952424 0.055012144 0.35191274
0.15886164 0.024269942 0.55076432
0.31341404 0.01506504 0.9711082
1.104324 -0.26120809 1.7957442
-0.86790478 -0.26424196 2.5716193
-0.16871476 0.055066198 0.54003596
-0.1900779 0.053764179 0.38973832
-0.84805882 -0.55374134 4.5649862
0.081572831 0.050251219 0.4721024
1.0117711 -0.063776538 1.6567061
-0.84053731 -0.0064211115 1.2965224
-0.84145999 -0.03879958 1.29474
0.35456878 -0.0063007139 0.78197789
-0.80146325 -0.02485007 1.2765305
-0.90038812 -0.32471481 1.7212627
1.0035706 -0.044666898 1.6437943
-0.76981139 -0.38674787 2.6903832
0.32160532 -0.11966851 0.82614684
0.12889373 0.021193612 0.57391143
-0.6977489 -0.36879438 2.5774195
1.4092067 0.011274293 1.9045994
-0.70253062 -0.20760874 3.2816069
-0.64990401 -0.21077308 3.7390954
-0.79833579 -0.33672461 2.9754832
0.71650076 0.03233299 0.90262437
0.20188701 0.049649764 0.60977197
-0.93345177 -0.36035424 2.7157776
1.0995004 -0.068782672 1.6106369
-0.86250234 -0.256531 1.5785401
-0.93089616 -0.36016852 1.6554463
0.32463986 0.025898527 0.41501904
0.51118171 -0.056287061 0.88293052
1.0923971 -0.019657888 1.6348941
-0.83375359 -0.18580271 1.5966809
-0.17075229 0.050613016 0.73453736
-0.94587302 -0.27464759 2.5446408
-0.83795214 -0.27721494 1.6722176
1.0614659 -0.067844093 1.6074216
-0.87367439 -0.35681862 2.7474477
1.0043583 -0.041785579 1.6394761
-0.84798908 -0.15720941 1.504936
-0.80548608 -0.073601082 1.2928131
1.0252484 -0.057564933 1.6531913
1.22067 -0.3022061 2.0249946
-0.81307054 -0.37185645 4.1868105
-0.43173635 0.057417586 0.55584073
0.018566847 0.054498047 0.58701587
-0.92395592 -0.34501871 1.6434286
1.7314168 -0.39245975 2.0072148
-1.2197094 -0.46774274 2.9934461
-0.67127585 -0.55644083 4.4849329
-0.77553046 -0.37450024 4.2489462
0.99154186 -0.014557149 1.6543205
-0.82273376 -0.27054074 1.6144474
-0.89902782 -0.46058911 2.7207954
-0.71170974 -0.0032418296 2.2915499
-0.89809859 -0.27117318 1.7621114
1.7294955 -0.39063382 2.0062029
-1.2245387 -0.42860365 2.8394024
-0.8795563 -0.25221083 2.6053946
0.085507929 0.052970909 0.49426818
-0.36453104 0.056171395 0.5757935
0.59132993 0.031892143 0.9994123
-0.80590546 -0.020289831 1.2934468
0.67991686 -0.14905737 1.27757
1.1392887 -0.12695232 2.0746353
-0.93513918 -0.3611922 2.7184117
-0.71792948 -0.16264503 2.7438776
0.27914405 -0.079042122 0.83880925
-0.25723553 0.049638703 0.90966582
-0.78187299 -0.070444763 1.2197325
-0.37008315 0.058561422 0.50004888
-0.84445691 -0.076307118 1.3053567
-0.37023056 0.058680102 0.47452998
-0.79365551 -0.026915733 1.3055341
0.16768116 0.05161383 0.52680182
-0.83700705 -0.22852832 1.6676424
-0.7938484 -0.023235582 1.3075006
0.16712773 0.051497824 0.5270946
-0.94383073 -0.33589911 1.613137
-0.85742378 -0.20388058 2.6090987
0.29958296 -0.10232416 0.9412353
1.108321 -0.020461347 1.5778019
0.054264665 -0.15299617 0.95963836
-0.78098869 -0.024661116 1.2791183
-0.73057616 -0.25554079 2.8993585
1.1376628 -0.020744525 1.5774686
-0.79183853 -0.027605645 1.2973449
-0.51393855 -0.055805009 1.9335763
-0.66192341 -0.00072783977 2.5933201
-0.74903989 -0.37995791 4.210701
-0.65022242 -0.18977225 3.5060294
-0.84843159 -0.14372835 1.5147884
0.15180182 0.051959619 0.55122685
-0.36944628 0.057294916 0.59013915
0.32082367 0.039384793 0.38623881
-0.19477594 0.055871826 0.35882854
0.16526216 0.051412538 0.52250504
1.325706 -0.023650769 1.611769
0.1828894 0.021512479 0.58367276
1.1260082 -0.25660795 2.0796039
-0.75482821 -0.38192019 4.2303267
-0.8991462 -0.32584059 1.7131503
-0.85019553 -0.23156819 1.5302069
0.12542653 0.041614335 0.69879889
0.19370532 0.049081258 0.58836865
0.1295889 0.042892285 0.72560239
-0.052275598 0.052997909 0.47182965
-0.73965597 -0.248083 1.5319989
-0.68303084 -0.018672679 2.5758193
-0.89651728 -0.47151381 3.9363477
-0.54996371 -0.13645241 3.0624578
-0.76419747 -0.23204136 2.9640443
-0.77807665 -0.015099175 4.0224113
-0.70382118 -0.27864832 3.9646871
-0.53337508 -0.38345793 3.8198082
1.2324336 -0.055195425 1.7536533
0.30334556 -0.047874074 0.80908751
0.12862366 0.043017805 0.73549581
0.17081815 0.024967637 0.55068564
-0.91493726 -0.55233985 4.6251392
-0.45767874 -0.1616312 3.2253597
-0.20014393 0.043619022 0.52016807
0.33430296 -0.068916455 0.81869864
0.025667548 0.050629839 0.58841729
0.014387488 0.052229147 0.47237897
0.30486137 -0.10516711 0.93973851
0.33386797 0.040199161 0.41762137
1.6803987 -0.0286262 2.3420031
1.101711 -0.068429738 1.6072962
-0.94018972 -0.32804883 1.5963948
-0.88040876 -0.32269111 1.6738331
-0.78810596 -0.40573555 2.6033514
-0.81080329 0.021798726 1.3075011
1.3355782 -0.30127797 2.0959961
0.20490402 0.05163369 0.61139178
0.30847812 -0.025884647 0.40997887
-0.10254526 0.053326301 0.6013577
0.2190448 0.052525908 0.28166795
1.1349818 -0.043638211 1.5967534
-0.53623623 -0.39440727 3.9164131
-0.86433959 -0.2401672 1.6168339
0.36437953 -0.070680618 0.80691838
-0.11147416 0.05482256 0.47059655
-0.91073918 -0.34046486 1.7158148
-0.16197902 0.048379529 0.78686643
-0.18727756 0.053591236 0.38490725
-0.1864984 0.059100322 0.27709389
-0.77153826 -0.34099686 2.7091544
0.077889085 0.055527218 0.35669565
-0.84812117 -0.078075692 1.3329756
1.8086923 -0.25729501 2.2505581
-1.1322225 -0.438705 2.7733371
-0.24467427 -0.37320632 2.9195964
-0.97058928 -0.43519929 2.6744788
-0.77906537 -0.45451811 2.6322701
1.7185547 -0.018541861 2.0764115
0.32326794 -0.00067430735 0.75090528
-0.95041025 -0.29938644 1.5993426
-0.027314365 0.048594095 0.88809991
-0.26603198 -0.40442768 3.2331154
0.29653203 -0.06960097 0.84049153
-0.18702257 0.057538424 0.31748843
0.30480796 -0.048695963 0.81571889
-0.73107433 -0.36960483 2.989013
-0.98193061 -0.30565685 1.5703685
0.70641589 0.032744244 0.87460017
0.2156682 0.050865944 0.29793715
0.26498133 0.040626127 0.51745868
0.39761353 0.028224304 0.82612967
-0.96874845 -0.23161042 1.4660037
0.30823457 -0.10970287 0.82311273
0.21925592 0.050572269 0.61912513
-0.92358482 -0.24249551 1.6363227
-0.90552497 -0.15782751 1.5625165
-0.37035811 0.058567841 0.51289916
-0.98080194 -0.32109669 1.5995204
1.4602156 -0.2962155 1.8346612
0.33391607 0.028435294 0.97396541
-0.051808834 0.055597395 0.34179449
-0.8385452 -0.20568356 1.6850612
-0.7783618 -0.031525251 1.0234926
0.013313353 0.053495962 0.48763919
0.31245697 -0.031935383 0.40497947
0.54417276 -0.29125333 2.5438263
-1.1924528 -0.46084622 2.9278338
-0.75815678 -0.40546322 2.734216
-0.028193116 0.045696035 0.79357553
0.36017555 -0.064862475 0.80388665
0.13252926 0.015452359 0.71373868
-0.56558228 -0.089368343 3.286516
-0.0531317 0.053262226 0.46930766
1.4651322 -0.33222145 1.8804476
-0.41454107 -0.03911319 2.822737
-0.43021971 -0.23942789 3.0347831
-0.66956663 -0.10571599 2.4557784
-0.82873368 -0.17147776 1.5533936
0.084642768 0.052679852 0.47789264
1.496346 -0.024589904 1.8615677
-0.36615121 0.05804481 0.46907926
-0.7355665 -0.34096807 2.7701862
0.13011575 0.014713634 0.68973374
0.29389852 0.041978493 0.65559411
0.10124862 0.04702498 0.79974103
-0.82018018 -0.26441991 2.6109583
1.3452877 -0.34417549 2.0651491
-0.82400441 -0.37367412 4.2446671
0.1347124 0.041350391 0.57570434
-0.7431258 0.023484576 1.190913
0.31462789 0.034868665 0.40655756
0.10815537 0.049765602 0.8035686
0.32469785 0.019197766 0.41505456
-0.50954801 -0.36055183 3.6049688
-1.0216575 -0.23977131 1.5556099
-0.22418189 0.019941658 1.5939701
-0.81787324 -0.076475918 1.2810686
-0.20181262 0.053501435 0.27300668
0.07694602 0.055084236 0.34533453
0.20375675 0.053710595 0.30358362
0.30520093 0.032796878 0.42186618
0.20848328 0.05521119 0.2870214
-0.95786667 -0.29890078 1.5316727
0.076631546 0.05457034 0.33756185
0.30752921 -0.033288691 0.40807724
0.35470474 -0.062839568 1.2112038
0.14667243 0.025012076 0.56584716
0.00087487698 0.057576485 0.26237559
0.30956125 0.01734278 0.41475129
-0.50116241 -0.053247508 1.3895438
0.084373951 0.052331321 0.46958899
0.30498344 -0.069360361 0.82771039
0.12760681 0.020982005 0.56231141
-0.18395013 0.057184398 0.30673146
0.15761948 0.024266299 0.54161954
-0.045704186 0.053621486 0.92986846
0.31313193 -0.045075592 0.85988355
-1.0067028 -0.18085718 1.4661233
0.14654034 0.054238483 0.38702774
0.17049032 0.052120514 0.53385282
-0.3001107 -0.42920381 3.0183923
0.30079985 0.042534951 0.67039752
-0.71468925 -0.39962268 2.7313726
0.29014593 0.016628765 0.39482594
1.0857953 -0.34496611 2.2123559
0.33821088 -0.13069074 0.81493688
-0.11225528 0.05508668 0.47060227
-1.0097339 -0.42596292 1.9072292
-0.14619094 0.017323133 1.2528069
-1.2348317 -0.11602616 2.9443619
0.50607908 0.03471953 1.0545771
-0.10419393 0.05476623 0.46627641
0.32680905 0.015951775 0.41765523
0.74466276 0.031205103 0.8628428
0.25230491 0.047095105 0.36404514
-0.051913321 0.056868941 0.35711098
-0.89898145 -0.22983503 1.610791
0.19217074 0.053792447 0.43587327
0.058058739 -0.15924352 1.0323551
0.30929673 0.0023168959 0.41230345
-0.82832921 -0.48779136 2.7269619
0.31937206 0.01493128 0.40888166
0.25961095 0.032044474 0.3665266
0.30791271 0.034579299 0.41478586
0.30466795 -0.084661037 0.40843678
0.30510789 -0.085061625 0.40908933
0.31324232 -0.10973942 0.72824359
0.34307021 -0.10952294 0.80211377
-0.60388541 -0.04877555 2.8735478
0.36102951 0.029328156 0.84391904
-1.2181962 -0.17370488 2.8698218
-0.88686407 0.029059753 1.2895505
0.076987088 0.05515068 0.3530252
-0.10688031 0.053938359 0.60551095
0.32769299 0.017850239 0.93151355
-0.87735021 -0.087140575 1.636225
0.14165312 0.052021619 0.55586267
1.537951 -0.27080867 1.9638393
-0.10928571 0.054405466 0.47417617
1.0180777 -0.32567969 2.0559609
0.25618351 0.031943433 0.35991287
-0.16749752 0.050211854 0.51194978
-1.2257743 -0.055793997 2.9198072
0.72969377 0.030582655 0.84374785
0.34441119 -0.13514666 0.83660197
-0.073814571 0.054176398 0.26696563
0.1592437 0.05298312 0.52986884
-0.2300787 0.054276485 0.30476141
0.15205699 0.051849671 0.55746531
1.5869613 -0.019404285 1.9750135
0.26132119 0.029231139 0.38816762
1.2005792 -0.34546012 2.1000979
0.14114022 0.057783768 0.32458806
-0.88949144 -0.28779206 1.5657566
-0.098665774 0.051719796 0.58321023
-0.11910677 0.052429311 0.58362365
0.58913481 -0.31505355 3.7152755
2.2437427 -0.3430835 2.7513425
0.053905547 -0.19160855 1.0555933
-0.81388688 -0.013825163 1.382829
0.31462121 0.012946013 0.40153074
-0.50208831 -0.0086271316 2.5895092
0.37087548 -0.07623753 0.8168118
0.21836907 0.044645701 0.46098733
-0.57597315 -0.050721329 1.9344699
-0.84098709 -0.063842684 1.2923291
-0.10183299 0.051699553 0.57356715
1.1131651 -0.022016689 1.6031511
-1.0188502 -0.23940367 1.5479991
-0.53102285 -0.040873345 2.4818223
-0.19363511 0.046462901 0.53748679
0.33788085 -0.11671153 0.79635549
1.0028921 -0.2786313 2.0963495
0.13261664 0.040599726 0.5665977
1.0195814 -0.30746961 2.0394924
1.1710807 -0.33601502 2.0404747
-0.052141607 0.056432094 0.35579848
0.61211491 -0.40806049 2.3692424
-0.51788676 -0.38337243 3.7946084
-0.7890532 -0.23536471 2.7014139
0.36147439 -0.071021214 0.85616088
-0.20882487 0.053283803 0.30503178
0.29680258 -0.07394889 0.83393312
0.14756113 0.02629324 0.56540895
0.18724757 0.048327323 0.54845738
-0.18652701 0.059380203 0.27788806
-0.91867638 -0.34186578 1.6363976
-0.33853817 0.053893022 0.45262074
-1.0002663 -0.15717855 1.2235277
0.24081743 0.034301233 0.46616101
1.7229624 -0.041226592 2.0422843
-0.68179166 -0.36488473 2.5856931
0.001971662 0.057771005 0.26318264
-0.080408931 0.057958551 0.29337287
1.1779495 -0.29527622 1.9557011
0.29579151 0.038981728 0.49844289
0.0095844269 0.05684381 0.324651
-0.20460045 0.054072727 0.27063727
-0.57743275 -0.21682638 2.283417
-0.058767498 0.055901345 0.35123158
0.34836453 0.02998 0.8230288
-0.99017465 -0.18537237 1.5257447
-0.046901107 0.053389825 0.46252275
-1.204965 -0.45137689 2.8790748
-0.80631101 -0.078637168 1.3353078
0.020390749 0.053517032 0.47789121
0.012656271 0.054997966 0.49183106
-0.71060085 -0.39504072 2.7189782
-0.16233891 0.049360797 0.78217959
0.35227042 0.029014394 0.83353925
0.30449122 0.02529557 0.41238093
-0.83842897 -0.29997212 1.5889499
-0.35797733 0.056763917 0.4999063
0.30816394 0.017677691 0.41177225
-0.18731463 0.057787869 0.31844258
0.21838611 0.049066037 0.38510394
0.2379691 0.041831225 0.43235993
0.15305126 0.019104462 0.5573175
0.25044936 0.044494763 0.36521268
0.21097875 0.053132348 0.32090664
0.079530716 0.053872868 0.3463881
1.1508106 -0.33140275 2.0069344
0.23314095 0.043383941 0.49194455
-0.18376625 0.058377091 0.45008874
0.71881783 -0.40844175 2.3297637
-0.054843307 0.058242261 0.24747491
1.0286305 0.011743173 1.2388928
0.082137585 0.051419199 0.45226073
0.76598275 -0.48330659 2.4889019
0.30941349 0.035177808 0.41749191
-0.89207149 -0.29504892 1.5368016
-0.20638126 0.044543955 0.68776727
1.3198798 -0.32012573 2.066035
0.074071646 0.057343319 0.28532577
-0.1172123 0.038856663 1.1285799
0.2278142 -0.10312238 2.0605447
-0.70082092 -0.19387501 3.1280997
0.21579587 0.048151821 0.37915182
-0.53052801 -0.11212994 1.9416597
0.89769161 -0.011794686 1.4911916
2.0285316 -0.43269005 3.1830242
-0.19183034 0.055238917 0.37584019
1.534793 -0.30456978 1.9296539
0.13821745 0.057379693 0.25241828
0.23735547 0.044276077 0.49977565
-0.28280544 0.042326685 0.76188874
0.21663541 0.04791557 0.42247224
0.31752205 0.035076536 0.41036367
-1.0245993 -0.25985995 1.9463975
0.15943706 0.025341064 0.551121
-0.38221395 -0.032493498 1.5934741
-1.0160835 -0.2403903 1.547231
0.15792471 -0.16316341 0.97624898
0.13274223 0.055494558 0.30381703
0.61920857 -0.40389591 2.5266635
0.30652571 0.033638626 0.39425111
0.64391148 -0.4270632 2.5045555
-0.13028359 0.058501676 0.26687765
-0.055207491 0.054747656 0.47744918
-0.12696302 0.057775844 0.24254155
1.2473361 -0.27375329 2.0268619
0.15707922 0.019999143 0.49195552
0.21948791 0.048734665 0.42916203
1.4259486 -0.33816788 2.3865273
-0.18899667 0.052331917 0.42307854
1.7340631 -0.058579836 2.0683124
0.12523693 0.040474448 0.68719745
0.34690511 -0.13664603 0.60632491
0.072777689 0.054720212 0.22864485
0.15164745 0.056296851 0.26618886
-0.48507988 0.040033344 1.054785
0.22682893 0.050723709 0.44428182
0.055612624 0.058518309 0.27288389
-1.1755009 0.04334506 1.7426975
0.16005194 0.055020962 0.59101415
0.5968945 -0.18593287 2.6101668
0.22979641 0.050861441 0.33749008
-0.99074101 -0.19534127 1.2652657
0.22930771 0.05052904 0.37290955
-0.20183325 0.043756738 0.66977382
0.20780164 0.054798972 0.28592443
0.14331055 0.0560297 0.25599456
1.1830597 -0.26226181 1.9232438
-0.53928429 -0.15917887 3.704313
-0.35388279 0.053620942 0.78433681
1.5087065 -0.28498018 1.8780811
-0.74248016 0.20793928 1.3390496
-0.8293376 -0.03930622 1.3126862
0.24241191 -0.034353416 0.75774646
0.55971563 -0.17711541 2.439574
-0.35595739 0.022678699 1.2346637
0.32773107 -0.056492034 0.80188823
-0.75182986 -0.39321971 3.2306263
-0.45605934 0.07058797 0.73298621
0.087591052 0.02443232 0.46815467
-1.0182614 -0.14020927 1.2513173
1.5348161 -0.29149649 1.9116318
-0.94957983 -0.1875596 1.2318227
-0.054305494 0.053743292 0.46101022
0.05951637 -0.18916102 1.0365131
-0.84595215 -0.037724841 1.3041604
-1.0440475 -0.017464384 1.7929471
1.7671546 -0.31032252 2.280072
0.30605501 0.025702916 0.41609216
0.24941766 0.046724822 0.35931015
-0.053183913 0.056578837 0.23926973
-0.059174716 0.055057965 0.23133588
-0.19199401 0.053314038 0.2899189
0.17122692 0.025288966 0.55107808
0.28515297 0.03809841 0.47805858
-1.2714155 -0.47708338 3.043916
-0.92114151 -0.16999716 1.1872756
0.69903827 -0.44418722 2.2663891
0.12490219 0.05035473 0.58634448
-1.2720138 -0.44939137 2.9286129
0.25702751 0.047855172 0.5476315
-0.98262298 -0.23139891 1.4932148
0.30863118 -0.025214318 0.41037774
-0.87631571 -0.035529714 1.3208745
0.30961657 0.01249364 0.42740226
1.3360316 -0.29145247 2.0883605
-0.18961549 0.054195561 0.38627934
-0.36018354 0.05695501 0.52150369
1.5079197 -0.36761621 2.3602092
0.32384175 0.023696464 0.41385841
-0.19176811 0.055906229 0.26291656
1.5165303 -0.28578252 1.8863847
-0.1992597 0.058379747 0.24542832
-0.23318368 0.036853321 0.34090853
-0.85301435 -0.23958045 1.7144549
-0.19381368 0.048995681 0.41628981
1.8572221 -0.04556727 2.2086217
-0.91694617 -0.23119885 1.7353652
0.18782067 0.055543169 0.29370403
-0.050677836 0.056122895 0.35156059
0.15595466 -0.16063963 0.9544971
-0.85966516 -0.46950167 2.6526611
0.93853283 -0.16667978 1.3650186
-0.80684054 -0.079853073 1.3356693
0.051395476 0.056165308 0.33609223
0.54005277 -0.11448857 0.82483792
0.14146274 0.055446483 0.42085123
-0.082922101 0.0595688 0.30246711
0.16305763 0.049932964 0.50450492
-0.34660363 0.054913245 0.46408629
-0.18586862 0.058161914 0.33036494
0.24057662 0.051443417 0.31767106
0.2238304 0.04985141 0.30633879
0.32089776 0.029420551 0.78310037
0.18508691 0.06226965 0.61707377
-0.83787751 -0.2679899 1.6553614
0.31002849 0.025966626 0.42264366
0.22928798 0.032458231 0.43209505
-0.75734663 -0.076958746 4.0861301
0.18413264 0.0039975271 0.59824681
0.67856729 0.036763031 1.1521232
-0.11767769 0.056372587 0.30773568
-0.36645448 0.057302784 0.58427739
-0.15714967 0.048763059 0.52267861
0.21718132 0.04840076 0.29557228
0.22575653 0.048203915 0.58165336
-0.82679486 -0.20816456 1.4897549
0.32783812 0.04342733 0.55356479
0.30128217 -0.10642609 0.80370593
-0.70538449 0.0024717115 1.1538947
0.62895 -0.41382158 2.5609643
0.17144752 0.014245845 0.54409671
-1.2277324 -0.70538783 4.1992779
1.2445112 -0.21652725 1.9968259
-0.38951528 0.061225455 0.59688401
0.54200721 0.031777751 0.95988917
0.14989901 0.055220015 0.28740478
-0.94658041 -0.18625401 1.2278454
-0.84093177 -0.26795015 1.5597537
-0.99061954 -0.13954516 1.2143281
0.18888533 0.043682098 0.58170485
0.42884719 0.030431286 0.81108212
-0.19622076 0.056184977 0.35568714
-0.2256099 0.053432923 0.29747558
0.011194825 0.050397173 0.43914771
-0.18547398 0.05798126 0.30917096
1.8561759 -0.26804113 2.3706124
0.30332017 0.017446339 0.40646362
1.1100998 -0.33367506 2.0993803
-0.16439945 0.054954037 0.52433228
0.13934493 0.055707965 0.28887033
0.68114805 0.018339638 1.3076298
0.18814266 0.0038208179 0.60493541
0.95530486 -0.16971272 1.3949525
-0.65395641 -0.071169674 2.5224121
0.2996707 0.041538619 0.65479779
-0.80114889 -0.090411276 1.2970922
0.1160959 -0.0017386824 0.34380555
0.30712926 -0.049534123 0.82296538
