# .PCD v0.7 - Point Cloud Data file format
VERSION 0.7
FIELDS x y z
SIZE 4 4 4
TYPE F F F
COUNT 1 1 1
WIDTH 688
HEIGHT 1
VIEWPOINT 0 0 0 1 0 0 0
POINTS 688
DATA ascii
-0.12130392 0.059394524 0.29166031
0.11616868 0.024731727 0.25876093
-0.19247758 0.049915686 0.53112221
0.60569996 -0.010188229 1.0633574
-0.95607489 -0.22778836 1.4167385
-0.49509817 0.051046558 0.75690889
-1.3233597 -0.38939428 2.3596239
0.11826813 0.03547737 0.26385593
-0.92023939 -0.22996947 1.5168791
0.55471128 -0.14761817 2.1258998
-1.3797088 -0.45991752 2.6879635
0.75024229 -0.52158123 2.3272519
-1.2807717 -0.26482102 2.4776683
-1.3756781 -0.29648444 2.6240239
-0.90703815 -0.15636387 2.3734918
-0.83720845 -0.2557312 2.1956553
-0.04613018 0.05304518 0.58535099
-0.77291399 -0.12383138 3.4132376
-0.48186105 -0.036280327 2.0576558
-0.17788219 0.055421576 0.56155348
0.011795342 0.056812771 0.35695982
0.28021967 0.047032181 0.35756302
0.13164133 0.031251919 0.30173063
0.080491722 0.057063106 0.27079201
0.45943791 0.039565206 0.66968489
-0.20356852 0.053852871 0.27329779
0.31976265 -0.038071297 0.53286171
0.0016601682 0.056835458 0.28232288
1.3476546 -0.3510004 1.6153512
0.31943756 -0.037217386 0.52815485
0.11236608 0.032433923 0.3884182
0.29088205 -0.10550091 0.5248909
0.14096785 0.057243258 0.26458645
-0.18189895 0.04893069 0.58461332
0.3349784 -0.049463362 0.51363659
-0.88451022 -0.15065444 1.1948662
-0.17882997 0.05901989 0.32402277
0.32970661 -0.10590998 0.51666689
0.096528053 0.055830903 0.5626092
-0.84427232 0.02082248 1.0309415
0.12223583 0.031206653 0.25488997
-1.0414722 -0.29036644 2.4182501
0.16031122 0.030420508 0.25403786
0.54278129 -0.21689913 2.09865
-0.85370582 -0.23868018 1.3584924
1.4490309 -0.36211336 2.0387826
-0.86243778 -0.44658262 2.4879322
0.41671282 -0.36386633 2.0044346
0.079405606 0.047301117 0.69760561
1.3535786 -0.17126602 2.2092414
0.14920002 0.028314775 0.25184536
-0.59413904 -0.032039948 1.1684523
0.31533599 -0.063823603 0.51827669
-1.0835483 -0.27766001 1.325738
-0.18232268 0.059273869 0.31681681
0.39986235 0.032762334 0.49908257
0.16898316 0.034910627 0.25374365
0.12779266 0.046733767 0.25681353
0.011138082 0.056078188 0.33667183
-0.047270298 0.055483002 0.35367155
-0.84845978 -0.22665203 1.3114285
-1.0294857 -0.20679289 1.3056178
-1.1747236 -0.41740286 2.5318508
1.3457277 -0.39013276 1.825489
-1.0444903 -0.20967373 1.2957039
-0.51865333 -0.055018701 1.0405841
0.011490643 0.058557801 0.35584307
-1.0492573 -0.21333236 2.3149552
0.59032899 -0.30296302 2.0223079
-0.55175799 -0.050211087 1.5826349
0.70388466 -0.43017316 2.1731434
0.60893685 -0.30320647 2.1766448
0.53668791 -0.36620969 2.4154792
0.50148743 -0.41913742 2.3806095
0.65559298 -0.4273662 2.1643243
-0.59622449 -0.36578783 2.6680136
-0.30221468 -0.34832904 2.1933737
-0.29642642 -0.28402865 2.7067738
0.61432534 -0.43944126 4.0526495
-0.12699544 0.059056137 0.26268911
0.17013621 0.035060115 0.256567
-0.18886238 0.055732161 0.29853916
-0.18804842 0.059886198 0.28496408
1.1708977 -0.07527139 1.5379963
0.16598862 0.026227467 0.25608158
0.1378386 0.022825871 0.45074463
0.11051238 0.050962746 0.28404379
0.048344553 0.057468414 0.26185894
0.9470908 -0.035114028 1.380877
0.13607937 0.022928346 0.48424768
0.9511742 -0.0067349412 1.4109707
-0.13934815 0.063612476 0.38212681
0.12232476 0.028256578 0.25686359
-0.51818651 0.05174575 1.0383272
0.9717899 -0.038626112 1.3622093
-0.85524005 -0.25043982 1.3117695
-0.97696394 -0.23423019 1.3892951
1.2877584 -0.34125847 1.7513366
1.2906606 -0.33548418 1.7938814
0.011301517 0.055202954 0.33838415
1.0243616 -0.014386397 1.4484358
0.090518653 0.052573066 0.50649738
-1.0710342 -0.42239174 2.4258432
0.49631232 -0.17976674 2.1265526
-0.89262801 -0.21208528 1.2747259
0.29730457 -0.018338084 0.5005765
-0.3693397 0.034186799 0.70874023
-0.89604574 -0.21313372 1.2774315
-0.14613789 0.048248738 1.0368686
-0.29820234 -0.22718939 2.5134678
0.50451833 -0.4239527 2.40414
-0.27776593 -0.36584967 2.9107666
-0.37695903 0.059294719 0.50750113
0.31235868 -0.10511964 0.51496029
0.32969546 -0.063306451 0.5167675
0.11439371 0.03871271 0.39177656
-0.18999833 0.051427972 0.43835545
0.21172643 0.05251798 0.27709532
0.27089125 0.045476012 0.34897709
-0.18766105 0.050292745 0.60548878
0.21998245 0.046822809 0.31027842
0.069509923 0.053867403 0.25170469
0.13634872 0.031190725 0.26299286
0.11862612 0.035672974 0.26367903
0.52352792 -0.25445345 2.2888117
0.15016985 0.056301512 0.24686527
-1.0373087 -0.20856407 1.2857366
0.090743363 0.038864084 0.92392588
1.0706825 -0.066544287 1.3393345
-0.064812183 0.059988998 0.40073299
-0.087515056 -0.52208328 3.5154667
0.11623299 0.053828597 0.3242712
-0.85819453 -0.16696969 1.2269726
-0.19008982 0.061834335 0.33235312
0.095895648 0.055502705 0.50125694
0.58814794 -0.30196252 2.01791
-0.16266978 0.052458771 0.62061787
0.01841259 0.057182722 0.28254509
-1.0168703 -0.38225451 2.3811255
-0.19172245 0.049298935 0.52646351
0.31132209 -0.043285213 0.50996304
0.44427341 0.040203236 0.63601065
1.1023111 -0.060126819 1.3511353
0.2869969 -0.023302972 0.61425114
0.28314847 0.047961075 0.36422348
-0.16967165 0.051509194 0.58717918
0.32813597 -0.047086596 0.53509235
-0.81128091 -0.33054271 2.5859594
0.073781848 0.057041764 0.27510071
-0.85371715 -0.17794129 1.2573791
-0.045718908 0.057706948 0.26768064
0.1433022 0.056478813 0.24214077
0.11091566 0.038781546 0.28937006
0.11911631 0.046477437 0.26241207
-0.55477291 -0.10579497 1.558497
0.73343033 0.018137243 1.0736361
0.18291271 0.056161486 0.27587175
-0.080991387 0.059301697 0.32931757
0.32255697 -0.11240662 0.50622559
0.11804837 0.024510358 0.26191139
-0.20380419 0.053880692 0.27402544
0.3463251 -0.06437058 0.51733732
-0.18727762 0.059636287 0.28343344
-0.19029933 0.054710299 0.42641354
0.026919723 0.059024952 0.27795744
-0.048826933 0.056142587 0.37913132
-0.9561829 -0.45753148 2.3962841
-0.53913981 -0.053908259 1.5444579
0.362472 -0.064999111 0.72094488
0.26685888 0.044983566 0.34396505
-0.18073481 0.055459894 0.44090843
0.13862264 -0.16115835 0.69440842
0.11207658 0.030780487 0.25581598
-0.10231614 0.057332382 0.36552668
-0.42819136 0.049202543 1.0844779
-0.20370668 0.062158108 0.5003376
0.49694711 -0.096009783 1.8217454
-0.74740285 -0.31849104 2.4479332
-0.83538514 -0.15448895 1.2722845
-0.83652371 -0.26449078 2.2677174
0.24201226 -0.089493833 0.52092791
-0.90682942 -0.3577449 2.3579612
0.34933132 -0.05957748 0.51467419
1.6125498 -0.29246652 2.2617536
1.4063282 -0.40881875 1.9060521
0.18451577 0.056622356 0.28189564
-0.31577736 -0.37655824 2.6902337
-0.21026772 -0.15101695 2.2123547
-0.21402723 -0.18145558 2.2718029
0.07278192 0.057017125 0.24440527
0.36209768 -0.31339589 2.1119466
0.12336445 0.031371642 0.25268984
-0.12346721 0.06094645 0.30058718
0.30760628 -0.10993213 0.55538034
-0.19696182 0.056378365 0.26060152
0.32087636 -0.046240903 0.52089834
-0.1793431 0.058628902 0.31103611
-0.45630914 0.052932508 0.72256947
-0.18354082 0.057078183 0.51521254
-0.18774617 0.058879547 0.31634426
-0.1979757 0.055283271 0.2451067
-0.13626885 0.059107918 0.29806328
0.25760722 0.048010744 0.33481836
-0.41312462 0.043849967 1.2719231
0.11161226 0.048027046 0.37852669
-0.2025727 0.053658228 0.27232409
0.43268234 0.039690427 0.6199851
0.32640207 0.039867453 0.39460373
0.9814164 -0.017241657 1.3748112
1.0752633 -0.068989627 1.4013071
0.18058366 0.055278774 0.27275658
-0.11542046 0.059261449 0.31045532
0.12135202 0.036186196 0.27256632
0.11302996 0.050362989 0.38350677
0.42183906 -0.11706124 1.333231
0.18531841 0.053240657 0.29217815
0.037264049 -0.1513156 0.72308493
0.11704195 0.051267818 0.40001249
-0.97019857 -0.19995496 1.2662945
0.12970382 0.05666063 0.26331997
0.14137554 0.01880075 0.25635862
0.15323746 0.056462109 0.25885153
0.16031826 0.030506333 0.25391102
-0.096325338 0.055404231 0.48440552
-0.90093917 -0.21598494 1.2706575
0.0017191768 0.056720693 0.28223801
0.1500538 0.030541286 0.25310993
0.33915389 -0.10661321 0.51552391
0.13965619 0.023836022 0.25082445
0.27264506 -0.077951342 0.61509848
-0.052982092 0.052633226 0.56640339
0.13370121 0.028081663 0.25567245
0.290497 -0.09180852 0.52476835
1.0928178 -0.070866637 1.3514671
0.11633998 0.02442258 0.25886393
0.18158954 0.055621482 0.27487326
-1.0453057 -0.17221084 1.2828331
1.3640287 -0.35621583 1.7476864
-0.99233741 -0.16332564 1.2164822
0.57239884 0.033818308 0.70000696
-0.1832571 0.056369383 0.55026722
0.32493305 0.039637733 0.39268541
0.57467133 0.034565568 0.70641041
0.3240844 0.043915946 0.44113111
0.35143322 -0.049909249 0.64215708
1.4958105 -0.22146943 1.9542308
-0.027056456 0.034913342 0.45074987
0.54581875 -0.23823628 2.4441185
0.44825023 -0.34098601 2.4195414
-0.83419794 -0.2676672 3.338057
-0.91835243 -0.36987612 3.5957813
0.69898921 -0.39085954 2.2671466
-1.0469072 -0.24974558 1.5002484
0.11132389 0.038215075 0.3094902
-0.19276249 0.056932457 0.30644989
0.11287457 0.025834091 0.25518799
0.11663461 0.021049527 0.38140297
0.085074186 0.057249896 0.37901592
0.11332881 0.029864674 0.25718451
0.32339334 0.040095206 0.3902173
0.1543262 0.057073705 0.26161575
0.013576567 0.059368528 0.28718662
0.0012421012 0.058358006 0.2889328
0.10377008 0.057045303 0.25764227
0.17443109 0.050220631 0.27583456
0.13992041 0.056970224 0.2631464
-0.10401368 0.056348741 0.44247341
0.64366072 0.018942794 0.90545464
0.1120649 0.047870152 0.28927135
0.11342013 0.030537784 0.24772978
-0.22565395 0.055880684 0.30691385
0.29335922 -0.043436766 0.52453899
0.2231167 0.059802815 0.30933285
0.26453894 -0.061107278 0.59125805
0.15384758 0.056690022 0.26038313
-0.1259281 0.058634803 0.53839779
0.11472368 0.031018361 0.24843264
0.11335796 0.029626295 0.25731039
-0.58712667 -0.05474598 1.1079082
0.084782541 0.053028554 0.43284035
-0.5138734 -0.054102518 1.029119
-0.17919344 0.054325901 0.44644499
0.10996526 0.039237436 0.28617096
0.59404677 0.034205552 0.70099354
-0.998519 -0.0075841323 1.3297954
0.10871464 0.038198054 0.28284359
0.0039439201 0.058135919 0.26809502
0.27230084 0.044432171 0.36037874
0.12673086 0.027353486 0.23949003
-0.056955993 0.064842813 0.31277418
0.12328917 0.033305123 0.27154541
-0.046331048 0.058713146 0.27116966
-0.089538872 0.079173282 0.38543129
-1.0726752 -0.19958133 1.4171219
-0.83536381 -0.2192907 1.2859178
-0.38410473 0.04482295 0.99211073
0.1378805 0.030476155 0.26405334
-0.17856497 0.052271567 0.27727461
0.74117714 0.021130037 1.1073947
-0.13085926 0.060424171 0.35313892
0.58531803 -0.30582801 2.0052333
0.36361474 -0.093799017 0.51323175
-1.0833383 -0.27735063 1.8405566
-0.75888079 -0.015594393 1.3431282
-0.041718125 0.055852644 0.60748482
0.60508233 -0.3443388 2.0460062
-0.49122757 0.053754885 0.8970046
1.3199964 -0.34607193 1.6901913
-0.86368376 -0.26509836 2.2699575
-0.4859764 0.050800949 0.73791122
0.6799683 -0.27422944 2.1798348
0.52279323 -0.25556451 2.2786655
-1.2420647 -0.45487532 2.5732679
-1.6214495 -0.49158248 2.9521947
-1.3326507 -0.27928838 2.5449162
0.35672826 -0.069515556 0.52137995
0.50237232 -0.43916214 3.0500278
0.66512495 -0.40632704 2.0515699
-0.30641133 -0.37836295 2.4273672
0.061592162 -0.17937183 1.84443
-0.3175016 -0.38885477 2.7087603
1.0679462 -0.10577781 1.3341212
0.12122905 0.059470985 0.25935173
-0.1400438 0.061576325 0.28327703
0.48501629 -0.1382229 1.5554895
0.43886715 0.039877664 0.63134718
-0.14099908 0.051727653 0.80012226
0.12129796 0.027789701 0.25302982
-0.12368852 0.019416232 0.22896862
-0.33370978 0.060844235 0.49093533
-1.4433293 -0.42636836 2.5882363
0.20111012 0.032835662 0.70193672
0.11665386 0.050909735 0.39954185
0.1589815 0.030482661 0.25118828
-0.9398331 -0.28863424 1.2722054
0.11045033 0.028291028 0.22533464
0.071151733 0.054048225 0.2848587
0.11095852 0.03878675 0.28975105
0.11930978 0.030284742 0.24878025
0.11990637 0.023385324 0.26152849
0.011898875 0.056649186 0.35631275
0.06378299 0.049409654 0.23413134
-0.97322541 -0.16409737 2.5282826
1.2865758 -0.30703962 1.8123574
-0.52909368 0.032783519 0.74890423
1.2497315 -0.12628895 1.5643044
0.31424439 -0.11419224 0.5140028
0.3100335 -0.036811903 0.50934601
0.080404282 0.046659902 0.45272541
-0.83071917 -0.26585782 1.2665644
0.17172045 0.040932048 0.25825405
-0.48116559 0.051268056 1.0635018
-1.3340261 -0.43651077 2.6223865
-0.18262392 0.056517705 0.4711833
1.3630142 -0.40014908 1.7953959
0.11025167 0.051266577 0.28333569
0.21003699 0.052230448 0.27475309
0.66263217 -0.41191271 2.1503263
-0.29332393 -0.14984336 2.5422268
0.11084628 0.020524798 0.28217602
0.28411388 -0.089257084 0.51197386
-0.12285179 0.056868106 0.33495522
-0.92092365 -0.10829198 2.303133
-0.045031071 0.05487819 0.41708183
-0.12460411 0.05780457 0.34664869
-0.89769489 -0.29130062 1.3161349
0.078688025 0.057149515 0.24193811
0.56606323 -0.27869248 2.1017795
0.46685344 0.043087244 0.6743865
0.64979905 -0.22912377 1.824729
0.36739641 -0.064370453 0.73296499
0.57287604 0.04374703 0.73337555
0.25325823 0.0035851449 0.44304466
0.37656218 -0.043342635 0.74119139
-0.28837037 -0.1777072 2.4185925
0.35145432 -0.24433997 2.6251793
-0.13068444 -0.51113498 3.5603132
-0.2157132 -0.20170391 2.3941956
0.4686659 -0.037101366 0.98714924
0.16826755 0.045478333 0.90648031
-0.19441724 0.045575958 0.78103161
-0.20860076 0.050467864 0.31128883
0.27304131 0.04620536 0.35547733
-0.98974389 -0.23980927 1.631321
-0.05134964 0.058674246 0.25070381
-0.18329614 0.059527639 0.31854248
0.62368292 -0.2429986 2.1779017
-0.9124561 -0.21893999 1.2900567
-0.21909189 0.051379554 0.30911303
-0.33124375 -0.41935882 2.6293287
0.25493813 0.0013803169 0.57355642
0.28846383 -0.043541104 0.52546453
0.3367098 -0.056663252 0.50340176
0.53472275 -0.14417237 2.0424471
0.090556383 0.057365149 0.59149599
1.3568549 -0.33269182 1.7935863
0.10640752 0.038366217 0.27655363
1.0960848 -0.029926196 1.6630287
0.57165509 0.033400625 0.70087624
-0.31893772 0.050944947 0.42622709
0.33527416 -0.07995338 0.51598406
-0.090764701 0.084457673 0.56069994
0.38506597 -0.021155253 0.74357224
0.080746651 0.028896835 0.27386475
0.11069548 0.020571835 0.28333998
-0.21143514 0.048510395 0.42923117
-0.13060248 0.060526662 0.36483669
-0.22441632 0.068948656 0.67855644
-0.22687608 0.053210452 0.35105133
-0.11443472 0.13207287 0.99446011
-0.23996586 0.055483047 0.3567915
-0.81952447 -0.37856236 2.4007916
-0.044219017 0.050906699 0.27578354
-1.0463493 -0.10076209 1.3502684
-0.8574478 -0.24396661 1.3132715
0.11118931 0.050266925 0.28811598
0.94816321 -0.054275446 1.1345448
-0.22255558 -0.18354747 2.3659973
-0.29470557 -0.37038627 2.682364
-0.29831344 -0.41099626 3.217205
0.60099763 -0.018929921 1.6908131
-0.1980437 0.0033870563 1.5010195
0.57563335 -0.036354326 1.0611272
1.0372064 -0.32812387 2.3179326
0.57609671 -0.036508277 1.0750065
-0.21749598 -0.32792088 3.8823562
-0.15061277 -0.14671549 3.5913696
-0.3389383 -0.40802354 2.6579833
0.92970914 -0.1677922 2.1316361
-0.89061445 -0.47325203 2.3931603
1.8315744 -0.10615949 2.3974104
0.96366006 -0.28607556 2.2172203
-0.84773153 -0.44321233 2.4414268
-0.84288543 -0.39973733 2.467639
-0.91744059 -0.25236917 2.6725421
2.046706 -0.11028203 2.5552611
-1.1564958 -0.41295797 2.4907603
0.61007851 -0.011660554 1.9512258
-0.08439213 -0.46819147 3.2113271
0.94830352 -0.076395355 2.1592751
1.042927 -0.083618127 2.2773657
0.6067583 -0.019537978 1.8981977
0.86907977 -0.0082328171 1.5251904
1.0913782 -0.020157717 1.3410387
-0.62238115 -0.37112299 3.4544015
1.0712829 -0.065483846 1.3401995
0.2898466 -0.29013863 4.1928415
-0.89914697 -0.35931787 2.291997
1.0407515 -0.018640332 1.3271437
1.2742615 -0.31599939 1.7854724
-0.092085421 -0.52925682 3.6100526
0.29399782 -0.29468802 4.2532129
-1.0311277 -0.4204559 2.4487252
-0.93685716 -0.27339727 2.2628822
1.2222612 -0.020943455 1.5569754
-0.094034255 -0.5284974 3.6359224
-1.0044742 -0.35266519 2.3622942
-0.1662541 -0.49633858 3.5977182
-0.82416719 -0.41347763 2.4255819
-0.92355758 -0.25650609 2.7081757
-0.90357596 -0.26943687 2.3585873
-1.0764606 -0.39206716 2.3540277
-0.43104398 -0.40496975 2.7660313
1.0453932 -0.065869875 1.3615198
-0.77265769 -0.23674461 2.508173
-0.83767313 -0.39850226 2.8604717
-0.55237645 -0.066502407 1.5250726
0.25801855 -0.04961694 2.2810535
-0.037504256 -0.23934209 3.7360048
1.5727036 -0.65575451 4.4989061
0.9487775 -0.056020983 1.3692579
-0.89408845 -0.48193684 2.4196167
0.10103792 -0.29324636 3.2685418
-0.50598401 0.042172592 0.73731804
0.31674963 -0.063657209 0.51839256
1.0583832 -0.27863711 2.2272148
-0.87642521 -0.22833055 1.3407049
2.7015376 -0.59604287 3.5591664
-0.84485251 -0.43130213 2.4756279
0.14779437 0.029308448 0.25276756
2.6153359 -0.57767618 3.4216127
-1.0065582 -0.36106557 2.1875505
0.48672265 -0.033742465 1.1595874
-0.97041982 -0.56826347 4.3696346
0.96870238 -0.041501269 1.3608537
1.0982099 -0.019128598 1.3472042
-0.84018725 -0.39057741 2.4169059
-0.80484146 -0.39719439 2.4893007
-0.73291534 -0.041704319 3.6953945
-0.5533033 0.0453679 1.6003842
-0.77806848 -0.2086485 2.9833746
-1.000035 -0.36049351 2.4156914
1.0753207 -0.066518724 1.3483996
-0.87237293 -0.18252736 1.2838178
-1.0249918 -0.27924764 2.2915921
0.97577947 -0.039484628 1.3701181
-0.89728934 -0.15365773 2.3292737
-1.292495 -0.47226492 2.6871533
-0.78451854 -0.56954491 4.2721395
-0.92639297 -0.40190372 4.2535448
0.1731261 0.047075666 0.26671791
-0.87519747 -0.27199817 1.33254
-0.96036631 -0.45945463 2.4045672
-0.96732932 -0.27351522 1.5093861
-1.3327703 -0.44202837 2.6216145
-0.917656 -0.25020978 2.2485743
1.1478319 -0.13080969 1.9137077
-0.32522589 -0.22629803 2.4818559
-1.0021164 -0.36126706 2.4187822
-0.80117899 -0.16561913 2.5222921
0.68269342 0.034689941 1.5192842
1.0345643 -0.21736777 1.6826224
-0.83755559 0.019229364 2.1807599
-0.79175121 -0.2533111 2.5754828
-0.82186002 -0.44479021 2.2787805
-0.5067355 0.042200394 0.73984671
-0.53747863 -0.050715916 1.5435586
0.14304525 0.058008235 0.26509476
1.1867459 0.044619683 1.4200015
-0.87816602 -0.39629102 4.0866547
-0.58731729 -0.36151102 3.2910123
0.29002947 -0.044029683 0.52504253
1.5753715 -0.15435749 1.980123
0.15965593 0.029373733 0.25298786
-1.0385525 -0.5663144 4.4208651
0.29877883 -0.10582612 0.70329237
1.0750248 -0.066247024 1.3399878
-0.8385151 -0.39811534 2.2583308
1.2997119 -0.30087647 1.8373199
1.1093786 -0.041934691 1.3306379
-0.92311436 -0.27150092 2.3084402
-1.275537 -0.46902964 2.6508207
-0.30929148 -0.37360877 2.6310611
-1.0388081 -0.43755725 2.3806672
-0.86464232 -0.46716902 2.4136405
-0.046060979 0.05315062 0.57976723
-0.81555885 0.015852541 2.093399
0.29074764 -0.10522725 0.5247817
-0.93979317 -0.23373106 1.2742476
-0.92251903 -0.15039772 1.2071619
0.82711917 -0.0084149949 1.1527848
-1.277837 -0.4675661 2.655313
-0.048270345 0.052884981 0.56252813
0.3428399 -0.061161555 0.50566292
-0.97371513 -0.44654921 2.3757696
-0.76427919 -0.10504187 3.7180877
2.4632528 -0.37957975 2.9839044
-0.56079191 -0.26365855 3.1632786
-0.86049658 -0.16748342 1.2288876
0.14113206 -0.14340207 0.69824123
-0.84286517 -0.25237894 1.3041039
0.086398423 0.05217915 0.52551079
0.42888433 -0.030628085 0.75175619
-0.87746221 -0.26147723 2.2916946
1.2834244 -0.33158723 1.7514114
0.12176782 0.046528257 0.27048445
-1.0281675 -0.4233602 2.399188
-0.57471472 -0.34795868 3.1879215
0.42548245 -0.077959001 1.3318329
0.28874671 -0.064016417 0.53399897
0.11567831 0.025971776 0.25968981
0.14834923 0.029381348 0.25135374
-0.063333392 0.057242397 0.59696722
0.2957226 -0.039632715 0.56347132
-0.36295652 -0.42681259 2.6945043
-0.78014261 -0.40035191 2.4373188
-0.77371567 -0.060607545 3.8165011
-0.19266123 0.045776479 0.9967494
0.036232054 -0.15528277 0.7315464
0.37288469 0.032174222 0.49017239
-0.90731496 -0.067112952 3.6887159
0.71437675 -0.45101503 5.1760273
0.35090822 -0.070671961 0.51066875
1.0889366 -0.019859783 1.3391919
-0.838983 -0.062435158 3.3658662
0.9601354 -0.27718115 1.8178706
0.32707083 -0.059877686 0.50969648
0.13452297 0.030510126 0.2598033
1.4183965 -0.2407935 1.685215
-0.2774567 0.018478215 0.51686573
-1.2724385 -0.45219263 2.5640326
-0.77676767 -0.39693972 2.4295425
-0.89600903 -0.30141351 1.3106537
0.14040899 0.023783864 0.25269938
1.2838225 -0.32080486 1.8043537
-0.15561724 0.046829849 0.95862722
0.2723245 -0.16292998 2.9770336
-0.82483333 -0.20672703 3.0570755
0.17432064 0.049661733 0.27504683
0.55471009 -0.035730742 1.0227184
0.55051237 -0.38942802 2.155405
0.11885023 0.045830894 0.43718386
0.12216103 0.030926557 0.25495052
0.56255037 -0.19262671 2.4298339
-0.66395086 -0.1708892 3.6770072
-0.52590889 -0.078213833 1.883832
-1.0683453 -0.28999093 1.3201942
0.11373854 0.05560682 0.29183102
-1.3377738 -0.44905919 2.6054602
-0.9431898 -0.48140129 2.4164696
-0.3626256 -0.16623175 2.4576993
0.18102926 0.001649797 0.33959866
0.55925876 -0.39199516 2.1782651
0.17419952 0.048652329 0.27351618
-0.18723416 0.057826329 0.45457363
-0.35639566 0.05398773 0.73033667
0.32623631 -0.046550252 0.64172792
1.3647482 -0.40569133 1.7835388
1.3708115 -0.17472929 2.2384539
0.036254764 -0.15977535 0.7503562
0.34443265 -0.064341567 0.51393461
-0.41576988 0.045686066 1.3055668
0.97564119 -0.02055838 1.3646655
-0.55880398 -0.16905674 3.2159176
-0.49860615 0.055488579 0.9200449
-0.70684665 -0.099473484 3.4945588
0.64045423 -0.39735386 2.0752254
1.0919266 -0.021512099 1.3423276
0.76562709 0.062398259 1.2017651
-0.18161464 0.058891837 0.31404638
1.1967266 -0.22943306 1.7736073
1.1315811 -0.015030086 1.6475143
-0.12822562 0.05916249 0.26705551
0.31530803 -0.05919075 0.52167034
0.12135774 0.023401327 0.26566505
-1.0249515 -0.30456862 1.3088574
-1.0308704 -0.21278417 1.3409219
0.9503904 -0.31047028 1.7844195
-0.8389315 -0.30380976 3.9531083
0.11634237 0.025010241 0.25983334
-0.77079898 -0.34367958 2.5198569
0.093994617 0.05521322 0.51739502
-0.1647768 0.053252961 0.63534117
0.53277224 0.039554197 0.67686176
0.93010098 -0.076600395 1.3733463
-0.89539367 -0.37401199 2.3410168
-0.88710517 -0.1531198 2.33006
0.12007278 0.046481851 0.26506948
0.0175035 0.056778289 0.28336859
-0.055569589 0.054468494 0.57736301
0.29017311 -0.044021383 0.52842283
1.6566761 -0.16785634 2.1745815
-0.20501357 0.051559821 1.0287423
0.16721088 0.025611628 0.2584486
-0.1756677 0.053503718 0.43596363
0.53319293 0.040046196 0.67496014
0.97722179 -0.037415273 1.3690648
0.71020299 -0.49896738 2.2311378
-0.11424106 0.058434263 0.3033061
-0.98154634 -0.1641933 1.2330885
0.31344116 -0.043766715 0.5098381
-0.70535785 -0.1078568 3.091454
-0.82523888 -0.25708362 2.531539
0.44907111 -0.082613118 1.481462
-0.26690274 -0.019832209 1.979804
0.16138154 0.028051941 0.25674105
0.93441314 -0.074618615 1.2758589
-0.29441959 -0.37931013 2.6739984
-0.28589326 -0.27768761 2.6236062
-0.9676345 -0.46063575 2.4350672
0.55764967 -0.1967856 2.4069424
0.48141605 -0.24269399 2.5137291
0.3315776 -0.063782804 0.52118444
0.46064347 0.039862283 0.67029762
0.14056581 0.02368493 0.25254774
0.331294 -0.081317566 0.51546383
0.52155024 0.042076237 0.66963577
-3.8600864 -0.07614553 4.7930603
1.3070409 -0.30165359 1.8482924
-0.17414761 0.044609264 0.87527609
-0.90918213 -0.27721432 1.4009862
0.27658898 -0.078773931 0.62611055
-1.06112 -0.30430385 2.3297563
-0.51349622 -0.054631867 1.0300879
-0.6156885 -0.16755599 2.92483
1.4800348 -0.37706694 1.7092128
1.0523589 -0.0063089915 1.2725744
1.3458898 -0.40360492 1.8077526
0.11911565 0.044128448 0.43070412
0.10740322 0.032411464 0.37557268
-0.55513412 0.036310881 0.74667692
-0.16807938 0.054078415 0.64492607
0.33314341 -0.0496163 0.51182413
0.21175224 0.05238869 0.27721262
0.11053157 0.051080454 0.28505325
0.040682793 -0.16016439 0.72223711
0.32991922 -0.10567287 0.51563549
-0.35728139 0.05449165 0.73430681
