# .PCD v0.7 - Point Cloud Data file format
VERSION 0.7
FIELDS x y z
SIZE 4 4 4
TYPE F F F
COUNT 1 1 1
WIDTH 567
HEIGHT 1
VIEWPOINT 0 0 0 1 0 0 0
POINTS 567
DATA ascii
0.37491593 -0.12210144 1.1825631
0.98725784 -0.054371599 1.5172045
0.62954575 -0.005944293 1.5271099
-0.68272823 -0.16783331 0.88539815
0.72103757 -0.050179157 0.98333764
0.743725 -0.047416363 1.0575802
0.84604162 -0.044435773 2.1387761
2.5582392 -0.14040755 3.8712845
1.8289007 -0.092308119 2.5656381
-0.24194172 -0.33355978 1.9167411
-0.68195301 -0.16728841 0.88565588
-0.33104956 -0.20325474 1.4421513
0.38239849 -0.20211242 2.1038222
-0.5514465 0.0010910798 1.0123425
0.41198525 -0.16893995 1.3552318
-0.42048877 -0.16545881 1.4286728
0.64117384 -0.0066407844 0.82177901
-0.27857038 -0.22023122 1.4583409
-0.20418003 -0.32295653 1.9962127
-0.2434555 -0.26895371 1.7590644
-0.28209743 -0.26122907 1.4393666
-0.21126202 -0.31686282 1.8991919
0.4168905 -0.22104014 4.0804162
0.32331979 -0.020848267 2.1515801
-0.21488774 -0.35307246 2.0531585
0.25481749 -0.17153256 1.3539979
0.64218086 -0.0063134655 0.82345247
-0.2893613 -0.19914974 1.4142985
-0.55165964 -0.00016674399 1.0129318
-0.4348886 -0.24525642 1.3587143
-0.56229442 0.028928531 1.0274775
-0.56156212 0.02839219 1.0270948
0.60089135 -0.1109143 3.5843868
0.48662916 -0.17175016 2.0574765
-0.30486906 -0.2591835 1.3959391
-0.53867882 -0.03704169 0.99432802
0.43898267 -0.23008657 4.3607049
-0.20572886 -0.24434319 1.6621566
0.4424668 -0.42995214 4.8871803
-0.24559313 -0.34480846 1.9717453
-0.21660262 -0.28734061 2.1405439
-0.20357013 -0.25521806 2.2863345
-0.49530607 -0.15115796 1.587285
0.32596466 -0.16416207 1.2264009
-0.65288717 -0.13959385 0.8789537
-0.45566922 -0.18716042 1.1621227
-0.40111423 -0.16927494 2.4682918
0.46047753 -0.24050158 4.5985055
-0.46803874 0.010535326 1.5357914
-0.38780016 -0.54285717 3.2102451
-0.31654045 -0.21204533 1.6915457
-0.16488135 0.041815057 1.0054586
-0.65427732 -0.13947111 0.8806231
-0.39252305 0.02807565 1.8822124
-0.46807688 0.01832103 1.5357399
-0.65393275 -0.13874263 0.87931275
-0.24424642 -0.23624378 1.6067891
-0.302472 -0.24445283 1.4116805
0.44823363 -0.10290284 1.1434333
-0.6202808 -0.16197366 0.87776041
0.41505134 -0.1713683 1.3691452
-0.60888737 0.04879193 0.90278959
-0.68034631 -0.16671224 0.8848238
-0.62252432 -0.16189869 0.88035631
-0.58474636 -0.12978838 0.90876675
0.63372248 -0.039730642 0.79414892
0.26744944 -0.24241316 1.3796251
-0.44346908 -0.18436456 1.1324053
-0.50817209 0.0065376554 1.4062479
0.51847923 -0.21494101 3.0200324
-0.27995801 -0.3869839 2.047251
-0.25636324 -0.26694682 1.5753872
-0.13283598 -0.17703429 1.4662497
0.44952881 -0.21935901 4.4869995
0.21419957 0.05763248 0.37272143
0.2194083 0.055522673 0.51663232
-0.65297467 -0.13901846 0.88867712
0.070443057 0.059113812 0.30320525
-0.36513838 0.052628048 0.97293687
-0.42798406 -0.18741362 1.2408178
0.41691089 -0.17387588 1.3806593
0.32139769 -0.16192342 1.2015831
-0.51853037 -0.12624896 1.6122656
-0.41929293 0.029819384 1.5787835
-0.51663333 -0.12580113 1.6080935
-0.4792484 0.041976199 1.3087687
-0.38923725 0.057195991 0.72827816
-0.64354283 -0.14057034 0.87220168
-0.51386207 -0.19689971 1.0827422
-0.51534396 0.015630381 1.5828667
-0.51162577 -0.12302472 1.5888178
-0.51522464 0.014580247 1.5833697
-0.53559762 0.024285968 0.99394393
-0.46661419 -0.19034758 1.1925554
0.37800607 0.042632774 0.68402052
-0.33556294 -0.20236374 1.4565639
-0.73391277 -0.095897868 2.2724981
-0.53717113 -0.094586492 1.9730706
0.056417428 0.046626277 1.0334606
-0.23144013 -0.36585319 2.2839699
-0.62102687 -0.16200377 0.88117576
-0.62290436 -0.1779778 0.87267303
1.5248827 -0.1464918 1.894295
0.69078624 0.026248248 1.2065239
0.70979732 0.016782172 1.4267869
-0.20474824 0.049473651 0.55930138
-0.19350919 0.054166269 0.44430399
0.13371822 0.055605177 0.51769519
-0.7429269 -0.096839935 2.3036137
-0.43287575 0.0058690142 1.7815709
-0.30240697 -0.16613515 2.4143524
-0.20855182 -0.10601604 1.5588629
-0.42185816 -0.0407365 2.6334653
-0.5798173 -0.14665072 2.7300472
-0.56261045 0.021627732 1.0013728
0.44076383 0.020366233 1.3604829
-0.40630934 -0.20570794 1.396296
0.20187426 0.057938315 0.40156937
-0.45012027 -0.12437698 1.5612185
-0.7470395 -0.10181375 2.130686
0.38972908 0.0041316655 1.7164559
-0.49433625 -0.18446347 0.92435145
-0.23603708 0.048957977 0.52721524
-0.45309705 -0.0059324875 1.5485194
-0.73621154 -0.097443357 2.2767339
-0.16427183 0.043364584 1.0393136
-0.35302457 -0.17856775 1.9834564
0.26968643 -0.24580267 1.4030166
-0.22341529 0.058097567 0.85653257
0.22922084 -0.21875779 2.2637172
-0.51709527 0.0020293556 1.4099951
-0.43151453 -0.10297811 3.1734962
-0.3342683 -0.19254731 1.4181221
-0.72829539 -0.18914065 0.8961277
0.44166389 0.021454073 1.3651619
-0.53001195 0.012332316 1.3381836
0.20579913 0.051157847 0.32166982
0.37324041 -0.01830053 1.4303515
-0.42015949 -0.1634697 1.4264987
-0.55975485 -0.0030827168 1.2278638
0.2229079 0.054707959 0.54791045
0.68474227 -0.00068452209 1.0990579
0.1306724 0.0581313 0.3094635
-0.51032358 0.042374771 0.96678591
0.45030668 0.0030154977 1.4286835
-0.39492989 -0.16634256 2.4164562
0.42926925 -0.16735435 0.8432529
-0.36629125 0.053132091 0.83762646
0.13965586 0.056015387 0.46209192
0.3200767 0.025980899 0.60203123
-0.55704767 0.0075127836 1.2042587
-0.12222191 0.032422554 0.55435157
0.29874685 -0.14392179 1.1150694
0.41333458 -0.16857412 1.3582101
-0.46367067 0.0088795125 1.5280011
-0.23692915 -0.23955193 1.8236682
-0.11363443 -0.12639359 1.5007226
0.7190724 -0.063634157 1.1103084
-0.46783346 -0.21091761 1.4202931
0.3342573 -0.050188471 3.966435
1.0498424 -0.074402124 1.6805496
-0.24145204 -0.18956953 2.5264449
-0.062622346 0.056854844 0.37688875
-0.53519875 -0.061335851 1.0121624
-0.48182756 0.02008027 1.2772322
-0.50453025 -0.21364628 1.3838496
0.67816728 -0.000335766 1.0848312
0.34412742 0.040175125 0.58913422
0.36997405 -0.28240791 2.0005379
-0.31058756 -0.25141329 1.4388764
-0.43157339 -0.17375697 1.4815788
-0.3912769 0.058223482 0.60785937
-0.3855949 0.05706314 0.7194798
-0.55076343 -0.0008866936 1.0131872
-0.31503624 -0.23510689 1.328629
0.25285473 0.046697065 0.9168787
-0.24042344 -0.23188317 2.2045507
-0.55541724 0.0088502094 1.2067699
-0.55461103 0.0027790423 1.0190196
0.50300747 0.034108259 0.70923114
0.071617983 0.05949365 0.29975557
-0.063471235 0.05903684 0.29354954
0.15207288 0.055000611 0.51249313
-0.20388228 0.05536633 0.29684854
0.42530248 0.035914816 1.054312
-0.53885043 0.048239835 0.85761166
-0.19968459 0.053614706 0.39793181
-0.20007905 0.053224392 0.28640699
0.31620818 0.02571084 0.59278941
0.21492687 0.056431428 0.3430438
-0.5359301 0.018775743 1.2044814
-0.1973598 0.046250328 0.76846075
-0.44655102 -0.19172023 1.2124186
-0.52551728 -0.11035489 0.99846005
-0.53528529 -0.11227451 1.0220411
-0.44033289 -0.19712546 1.110878
0.37966692 -0.2044958 1.2473853
-0.18165848 0.053012352 0.87748647
-0.45801419 -0.0019310862 1.5551693
0.37497815 0.018907828 1.5268884
-0.062862568 0.055755187 0.54350805
-0.060930118 0.055562161 0.55645633
-0.279176 -0.25716805 1.42033
0.41698453 0.0016747452 1.3978136
-0.25634757 -0.30381399 2.112571
-0.28059703 -0.22128628 1.4527538
-0.20008951 -0.29825059 1.9844553
-0.59067845 0.017585237 0.96369934
0.26384926 0.049071006 0.3723259
0.26626891 0.049775727 0.37042284
-0.38906422 0.058316682 0.60000825
-0.58626044 -0.13017783 0.91157031
0.32181191 -0.27058488 1.7614741
-0.26769486 -0.31415141 1.9066138
0.20481926 0.058412869 0.40498281
1.0527257 -0.23931012 2.5878849
-0.48772299 0.018487681 0.89395952
0.15455049 0.055584025 0.52510452
0.43726027 0.03957184 0.71877456
-0.56001943 -0.0028221197 1.2306492
0.64281011 -0.0054024309 0.82454729
-0.36944157 0.05403034 0.8454659
0.6048454 -0.10781103 0.83038735
-0.16598254 0.045249071 1.0734243
0.2474556 -0.25868827 1.3467276
0.21514949 0.057754792 0.37519908
-0.21273541 -0.28049433 2.4561234
-0.23622313 -0.16863421 2.4922028
-0.19648787 0.055022798 0.26547527
-0.19224697 0.053547524 0.43925571
-0.073193379 0.05897209 0.29666972
-0.31203556 -0.24828804 1.3454325
-0.26159433 -0.28818327 1.5180542
0.34881169 0.018724442 0.61340594
0.21080139 0.057493668 0.3911202
0.39326906 -0.24241543 1.9524233
0.3675667 0.018273341 1.4970098
0.14171916 0.054102685 0.51543641
-0.52615452 0.012199629 1.3203068
0.088100545 0.052824974 0.61772251
-0.45855594 -0.19362918 1.1315527
0.33119869 -0.15406391 1.2801306
-0.44038814 -0.22785527 1.1095006
0.14214644 0.054149054 0.52140427
-0.29290527 -0.26886296 1.4486046
1.2138973 -0.064729884 3.4347105
-0.28539836 -0.40161055 2.0719066
0.070822842 0.059198577 0.29224062
-0.19361308 0.053801715 0.44181204
-0.20533845 0.056533039 0.41239786
-0.46665078 0.0048903935 1.4417543
-0.4805705 0.010335483 1.4702487
0.075403608 0.059036843 0.41919303
0.12046056 0.06103443 0.3353045
-0.56921899 0.050397761 0.91985965
-0.18684441 0.059417758 0.38271046
0.20162052 0.055941515 0.37687612
-0.41921633 0.0061807875 1.9313939
-0.6063183 0.057872474 0.88304067
0.36022583 -0.16999614 1.4048424
0.40264383 0.018379454 1.3035228
-0.56117433 0.045746736 0.90332842
-0.38597959 -0.23032191 1.3780038
-0.25093967 -0.29324996 2.0370846
1.5834659 -0.29582596 4.3232765
-0.51515973 0.053285547 0.9375205
0.44330493 -0.1370203 1.5102043
-0.57510245 -0.0014876742 1.2411654
-0.58597523 0.05525355 0.89731026
-0.77489811 -0.086769775 1.9266374
-0.50945663 -0.12467255 1.5776143
-0.4260093 0.031401176 1.6091409
0.32000214 -0.1991837 1.2373521
-0.1930379 0.057240367 0.32407475
0.16219422 0.050398998 0.64623332
0.067325763 0.05914868 0.29319787
0.50166279 -0.1750295 2.122611
0.64641184 -0.046360385 2.7663436
0.21699005 0.030757334 1.2538037
0.34110931 -0.25414273 2.2085476
0.28115734 -0.20184025 1.2526324
-0.19241285 0.051512845 0.68287873
-0.40386987 -0.18005005 1.1016996
0.35589802 0.044181459 0.448627
-0.54416889 -0.090003461 2.0330925
0.54570544 0.036023408 0.77732015
-0.27018863 -0.34046409 1.481509
-0.61044604 0.05922991 0.88961887
0.54399705 0.020725004 0.9269855
0.46133488 -0.085168898 2.0462172
-0.55112678 0.028134268 1.0036809
-0.22443029 0.062800378 0.6176548
0.45070583 0.040298816 0.74763608
0.8686797 -0.13364293 1.3645456
-0.82324439 -0.17964093 1.5189905
0.13261572 0.055796999 0.51380587
-0.59857881 0.055183429 0.89584517
0.29121217 0.051878281 0.35520411
-0.48698837 0.072415605 0.85484552
0.20316914 0.060128912 0.2726233
0.12712806 0.056738514 0.29537916
-0.73114699 -0.18621792 0.89500046
-0.62625664 0.050992493 0.92263937
0.53478169 0.03688179 0.76418304
-0.25960323 -0.28711587 1.5064266
0.27758187 0.049431633 0.4485364
-0.62468988 0.051343791 0.92233372
-0.53011793 -0.11117508 1.0087917
-0.69512755 -0.1442173 0.95346618
-0.44833362 -0.20132677 1.1231439
-0.60222942 0.03170906 0.94376349
-0.17705792 0.051639766 0.95963907
-0.66985315 -0.19059105 0.90179634
-0.44529611 -0.17123723 1.5095253
-0.45232952 -0.20395896 1.1349409
-0.19231564 0.045453839 0.74453378
0.68139523 -0.00035256334 1.0923319
0.38191998 0.050058559 0.47967958
0.37378073 -0.20666261 1.2657077
0.30043799 0.050355524 0.36568594
0.37722594 0.044127591 0.50689673
-0.093771495 0.052464843 0.91666317
-0.733504 0.058224145 1.0264468
-0.5136351 0.043697454 0.97577953
0.44900095 0.023889653 1.3882272
0.42748159 -0.026254762 0.70746517
-0.49089855 -0.20470729 1.1437922
0.21387923 0.058242459 0.3702991
-0.37585756 -0.21269165 1.0547786
-0.18794221 0.059338346 0.38502526
-0.45400149 -0.2067651 1.5103061
-0.55605346 0.0073861107 1.2032466
0.5521763 -0.19332923 2.3375897
0.32634458 0.02086933 0.6100328
-0.39617845 -0.22297271 1.4905949
0.44393152 0.038332362 0.68780851
-0.45833641 -0.20562458 1.1568546
-0.51626712 0.0031394102 1.6999755
-0.25012541 -0.33826604 1.5096281
-0.26131672 -0.36047372 1.8948324
-0.84764892 0.037847567 1.1069758
-0.095912375 0.053060368 0.95195699
-0.042207606 0.052744098 0.82784891
-0.19530088 0.055173639 0.37577295
0.1676884 0.041118905 0.87007165
0.057685636 0.047896557 1.0335917
0.41533571 0.0054713581 1.4161122
-0.15757298 -0.18380646 1.7115941
-0.56101787 -0.12494951 0.8681736
-0.48035216 -0.17884918 0.94448757
-0.68528455 -0.19677152 0.89788222
-0.32827687 -0.17431538 1.7329915
0.32709062 -0.20663908 1.4091499
-0.05949644 0.055224169 0.37464309
0.32459587 0.02107377 0.60917068
-0.25023192 -0.20232199 1.5531108
-0.041485555 0.054520756 0.90721607
0.37912753 0.018888883 1.5594349
1.0022321 -0.084485754 3.1205964
-0.31692004 -0.19196041 3.1719131
0.22834796 -0.35438922 3.7591543
0.14613912 0.056839794 0.30160141
-0.54906708 0.063348949 0.67781949
-0.074914001 0.060427796 0.30460334
0.30020064 0.050248869 0.36418653
-0.47434455 -0.16528216 0.8847816
0.4249348 0.042572428 0.58672166
-0.50282985 0.052580357 0.90300584
0.63647854 -0.18296991 0.84806275
0.43076402 0.034164127 0.68877196
0.21304166 0.052602261 0.33080363
0.63647157 -0.004915528 0.81578159
0.32130778 0.032054964 0.60798526
0.32376885 -0.001465397 0.59883118
0.32503092 0.016705124 0.56465793
0.31198835 0.050721679 0.36518884
0.29877809 0.050041255 0.36221099
0.21471488 0.058336824 0.39818501
0.20320371 0.060481176 0.33757854
0.20674232 0.056744978 0.38676977
0.21283469 0.051854968 0.47458577
0.095695876 0.060554035 0.28448296
-0.065513939 0.059423942 0.28707457
-0.22727406 0.052860957 0.35801053
-0.060735062 0.056155935 0.27495527
0.33968636 0.03065544 0.61764884
0.22685406 0.057997815 0.53793025
0.67859906 -0.0038136058 1.0063145
0.082893111 0.054557491 0.53124309
-0.82696599 0.036310151 1.0811477
0.52494514 0.038295522 0.66334724
-0.19347447 0.053907864 0.44249821
0.028094597 0.060472108 0.42518449
0.24643704 0.049094122 0.52506065
0.13235688 0.055243313 0.50920486
0.21355 0.052230176 0.33202314
-0.19921726 0.048803374 0.53774452
0.12877512 0.053658325 0.49308562
0.0700543 0.054673344 0.37750864
-0.19760254 0.046476375 0.63751101
0.42320639 -0.15670542 1.2298608
0.18779197 0.047317356 0.98998523
0.41026759 -0.16857131 1.3487735
0.29741693 -0.28734073 1.4205062
0.42323521 -0.12715495 1.392875
0.43872046 0.021590481 1.4366364
0.21799374 0.052584507 0.66330147
0.26656219 -0.21653429 1.2482479
0.15172708 0.059771918 0.31925464
0.3334564 -0.22338122 1.3096366
0.32883757 0.029846366 0.61847782
-0.48725218 0.021623712 1.2971277
0.34106272 -0.1587403 1.3000789
-0.45494366 0.0081968028 1.6195927
0.21851814 0.052597847 0.3641088
-0.064789817 0.059239946 0.59595203
0.017226286 0.056132328 0.50443459
-0.31656218 -0.16818163 1.6593573
-0.44581926 -0.050147694 1.4985833
-0.028032728 0.051508136 0.91078448
-0.41266072 -0.20952781 1.4279938
-0.38043994 -0.21395728 1.4217155
-0.44767874 -0.20868482 1.1484399
0.27117655 -0.2941283 1.397722
0.53358507 -0.15759702 1.9793568
0.38263172 -0.22341794 1.2556736
-0.34677365 -0.22644964 1.4066293
-0.40055281 -0.22645584 1.5123057
-0.5854724 0.0545085 0.89848709
0.018124528 0.054289084 0.48590612
-0.04611551 0.052048378 0.61267304
1.2892978 -0.37013835 3.465456
0.54870272 -0.12759668 2.1239932
0.96647644 -0.07950516 2.9867797
-0.65476251 -0.059194911 2.803206
-0.25959226 -0.3212589 2.0337875
-0.2777116 -0.30117637 1.4569454
1.8113347 -0.43441433 4.8587227
-0.2623429 -0.3907218 2.1146092
0.15288231 0.037853479 0.78496814
-0.11521789 -0.016192958 0.95736599
0.30924609 -0.0094367638 1.3784709
1.5152961 -0.33918923 3.822732
-0.44128329 -0.12191109 1.5227804
-0.4608019 -0.074074805 1.5623364
-0.10003471 0.026522551 1.5224116
-0.31523594 -0.036837537 2.9340768
0.99597961 -0.08181192 3.0975404
-0.054365352 0.017942555 0.077912331
0.43573555 0.035563678 0.62333369
0.5115723 -0.08827728 2.146059
0.14954731 0.058329929 0.27338958
-0.62822372 -0.16376613 0.89276767
1.1544032 -0.33154127 3.1124487
-0.20165026 0.053954408 0.36344957
-0.11212683 0.060260035 0.35851145
0.06715896 0.056141652 0.27138019
0.20444742 0.059247352 0.41525555
0.6225788 -0.16122241 0.85955048
-0.18565771 0.058909509 0.49475694
-0.046289973 0.057817534 0.89971256
-0.12845704 -0.14747089 1.7375772
0.3536393 0.040591691 0.70287871
-0.72334373 -0.18753472 0.88846707
-0.068963557 0.061136167 0.610147
-0.46138293 0.0059272889 1.6841569
-0.20262098 0.056267373 0.29473495
0.40490788 -0.12191628 0.80588913
0.63077939 -0.0056330264 0.8079443
0.097196244 0.06005621 0.25898433
0.27290732 0.051150259 0.38086534
-0.076303013 0.063132614 0.26718819
0.1487858 0.059543766 0.31437778
1.1869227 -0.050738301 3.2717748
0.36906329 0.014630911 2.1813412
-0.1897805 0.056044281 0.29759908
-0.79397964 -0.095427975 1.8105817
-0.20478493 0.056033857 0.31488895
-0.20315048 0.051728994 0.50800538
-0.62554896 -0.1630694 0.88867617
0.7702381 -0.10882343 0.92336082
0.37596342 -0.16919661 0.79713655
0.262104 -0.28939345 1.3445477
-0.21421239 0.052998401 0.47517633
0.31571612 -0.14885193 0.75157642
0.32947379 0.019173343 0.61525941
-0.61288911 -0.17520218 0.85840797
-0.53725606 0.037317716 0.86666703
0.33778059 0.019612161 0.60345173
-0.79213077 0.027563864 1.4414186
0.12003986 0.0587257 0.31498551
0.20443249 0.059054326 0.41508365
0.18774697 0.048653249 0.99020982
-0.48504215 -0.16872106 1.5456541
0.16013458 0.06232189 0.30006075
0.13290736 0.034246948 1.0976353
-0.51285785 -0.12238792 1.5928893
-0.83979124 0.0034448318 1.0866945
0.40370804 -0.15441203 1.7979255
-0.39124429 0.019795557 1.6584535
-0.20384946 0.054246124 0.34000611
0.16887066 0.067669898 0.49783993
-0.069373645 0.062831797 0.32256532
0.4082194 0.024878075 2.4517336
-0.53135675 -0.17826578 0.88172436
-0.20429724 0.051614895 0.51125741
-0.21139669 0.049187861 0.48348784
0.33113733 0.030456491 0.59452581
0.42347234 0.040778715 0.64141011
-0.48534834 -0.21768783 1.4855707
0.21212646 0.056918733 0.28301454
0.688187 -0.010947511 1.1505702
-0.11545188 0.064074427 0.28342772
1.1057298 -0.28196916 2.2289138
-0.076611154 0.061786618 0.31135297
0.8271305 -0.21657448 0.98368979
-0.4524802 -0.12649731 1.5695369
0.14297342 -0.030126914 0.82973242
0.85666692 -0.067998141 1.0574737
-0.54461086 0.028644187 0.9987483
-0.59302479 -0.20487092 1.0302958
-0.67331064 -0.19280152 0.9066534
0.32568622 0.038255122 0.55661082
-0.65544194 -0.15778916 0.89116859
-0.23853806 -0.32384264 2.0352149
-0.18908757 0.057059452 0.28634262
0.33213267 -0.06391795 1.5045803
0.31759864 0.028867908 0.59453368
0.34996688 -0.12341957 0.73746824
0.12460487 -0.025465693 0.64953923
0.36646909 0.045841906 0.44669461
0.14976832 0.058316398 0.50615978
-0.84106606 0.04653655 1.0927696
0.13782427 0.06998764 0.38842297
-0.46833485 -0.20971923 1.4287558
-0.44911921 0.019284358 1.4686306
0.30815065 0.030034445 0.52356815
0.14569715 0.055917114 0.5341332
0.34282893 0.023221541 0.60444379
0.34863326 0.021537712 0.61583638
2.051053 0.17085923 3.3367538
0.65165812 -0.0031220708 0.78139424
0.39871845 0.038087972 0.59919786
0.40198568 0.0012018904 1.3232291
-0.56041604 0.12706739 1.8856063
-0.26844668 -0.21010871 0.99066854
-0.21341139 0.063035563 0.331882
0.78812069 -0.053702001 1.2151299
0.32205117 0.022280516 0.60430622
0.37411326 -0.43638939 4.553297
0.36087054 -0.44018844 4.4723744
0.41176793 -0.21458657 1.190892
0.34379143 -0.22524971 1.2501793
-0.23312187 0.051589459 0.56384444
-0.18074602 0.053005014 0.29233241
-0.52016431 0.028575655 0.81187797
-0.25875399 0.055144031 0.3350904
-0.23397166 -0.021685995 1.9101703
-0.0053981319 0.043644406 1.0044568
0.33815402 -0.1277701 0.74651599
-0.54394203 0.040920883 0.9194746
-0.48222226 -0.20113014 1.1224144
0.28831223 -0.26473475 1.2843928
0.38491669 0.035413787 0.57182121
-0.8588444 0.0470131 1.1156292
-0.19734848 0.052614965 0.39176917
-0.26765159 0.058540951 0.66102529
