# .PCD v0.7 - Point Cloud Data file format
VERSION 0.7
FIELDS x y z
SIZE 4 4 4
TYPE F F F
COUNT 1 1 1
WIDTH 564
HEIGHT 1
VIEWPOINT 0 0 0 1 0 0 0
POINTS 564
DATA ascii
2.347688 -0.089844629 3.6056347
1.4362477 -0.082283169 2.2281084
-0.30028272 -0.27845749 1.3382714
0.26622677 -0.19631304 3.8537393
0.27007627 -0.19872902 3.9594302
-0.3102203 -0.28712723 1.8229904
0.24355169 -0.38326779 4.2725525
-0.29731035 -0.23834626 1.8028493
-0.55294651 -0.13630511 1.0313969
0.27812642 -0.20270663 4.0962553
-0.52481794 0.026689515 0.98327923
-0.52476037 0.032445274 0.98250675
0.26965684 -0.18155877 3.9355736
0.45642477 -0.15600938 1.1827006
-0.56718796 -0.1083007 1.0230358
-0.28801095 0.079851113 0.78828311
-0.56737846 0.029005367 1.0065403
-0.56600249 -0.10670641 1.0193751
0.86757058 -0.059514944 1.6411335
-0.81277704 -0.074960813 1.682472
0.26083118 -0.35818383 3.947969
-0.19716619 0.054881219 0.47894883
-0.4628225 -0.16969754 1.6263311
-0.58109713 -0.0035089888 2.8113155
0.4002381 0.037370831 0.88688087
0.36485416 -0.15360166 0.84426904
-0.52001601 0.024008978 0.97401571
0.180694 -0.017320342 3.5503764
0.23889561 -0.3294113 4.406229
0.09577103 -0.0041268878 2.0636625
0.45811421 -0.19477637 2.1668143
-0.51126778 -0.1928409 0.96273899
-0.32308263 -0.27344865 1.4770851
-0.30681556 -0.23333962 1.4658587
0.11368455 -0.0094210543 2.6124725
0.33040959 -0.33417362 1.8368826
-0.19494767 0.05554786 0.4800458
0.29682928 0.02199306 1.7379956
-0.57231236 0.027043268 0.7614243
1.1001046 -0.032893721 3.0265856
-0.3301338 -0.27571696 1.5062866
0.96987879 -0.14198408 1.3535933
0.49651825 -0.015745882 1.9888897
-0.53018099 0.020609744 0.98863602
0.40168095 0.039717108 0.88621497
-0.37816119 -0.15141167 1.1147966
-0.30935544 -0.18269269 1.0085843
-0.278117 -0.18267098 1.5730717
0.10032786 -0.41879708 4.4088225
0.15432476 0.059251849 0.46206808
0.89071447 -0.064679146 2.5740166
-0.43445474 0.043600135 1.32445
-0.57891911 -0.15998691 1.0776739
0.53809649 -0.12610717 1.9730773
1.3698868 -0.30770716 3.3790221
-0.50048113 -0.10861644 0.98199201
0.47653222 -0.33627647 5.3329868
-0.34215009 -0.20472628 1.1016715
-0.49219567 0.04627604 0.94834757
0.30005842 -0.13372743 0.73882532
0.42243063 -0.17365615 1.7970033
0.25239897 0.043065146 1.4438267
-0.0521743 0.060339566 0.4772253
0.30701166 -0.25631005 1.6306071
0.22642259 0.055573665 0.29732871
-0.50107312 -0.10862638 0.9851892
-0.48829782 -0.12206146 0.88375282
-0.3402192 -0.16291134 1.4303048
0.53315914 -0.16551273 5.419322
0.20050372 -0.42772606 4.3407063
0.19659032 -0.43256241 4.332468
0.2267379 0.055989783 0.29809427
-0.3103565 -0.0026913136 1.4014347
-0.20172344 0.052521221 0.47988343
0.85346282 -0.017436173 1.7309179
1.0339159 -0.25288141 1.7557254
-0.27435708 -0.31099576 1.4589055
0.71660554 -0.016556397 1.061024
-0.69761622 -0.045444403 1.9270091
-0.30364686 -0.19898422 1.5216067
0.92060894 -0.28132677 2.1735516
0.35466272 0.027634069 1.8873854
0.35546154 -0.16529451 1.2569749
0.72673434 0.033411525 1.4103649
0.16836347 0.059079073 0.36817813
1.4011886 -0.18206206 3.6818089
-0.49919355 -0.10685948 0.98251009
0.0083604455 0.058259394 0.30352855
1.0877398 -0.033425082 2.9917607
0.32456577 -0.27292055 1.6320546
0.42927337 -0.17647672 1.8024836
0.70001483 -0.15582834 1.8649602
0.09290652 0.059677791 0.53030992
-0.52466011 0.025552643 0.98701572
1.0460106 -0.052298021 2.6357932
-0.34007895 -0.18435161 0.8731029
0.39208257 -0.12305573 2.9553509
-0.12921835 -0.2370867 2.9940543
0.17142175 0.060006123 0.37610435
-0.35894775 -0.45790538 3.7873068
0.45296514 -0.14986143 1.0003037
0.78663284 -0.037221711 1.8308506
0.74612468 0.031686038 1.477864
0.63150746 -0.074377373 2.48206
-0.62418503 -0.038984455 1.7214043
0.42686504 -0.19584143 2.2300816
-0.05321157 0.059831843 0.31930208
-0.12476175 0.059529345 0.43950605
0.3107729 -0.26848933 2.6231012
0.90275288 -0.10462554 2.3675947
-0.68806177 -0.064412653 1.8803473
0.97008538 -0.29710039 2.3259773
0.49766892 -0.08453989 3.4632549
0.54284841 0.038508784 0.7718575
-0.21284337 0.055463195 0.30157351
0.15119235 0.059775472 0.30181718
-0.19356702 0.060579404 0.38248253
0.59668416 0.040915802 0.88695931
-0.87576139 -0.16711134 1.0895576
0.25430554 0.046201125 0.33344507
1.0425657 -0.26401675 1.8133192
-0.10417242 0.05891829 0.44160891
0.023435071 0.058403518 0.43696332
0.36285383 0.036561131 0.82406068
0.2019958 -0.35799307 3.8223467
-0.79350007 -0.07058531 2.4932523
-0.39779592 -0.28638411 2.386456
-0.31897795 -0.38997298 3.3735795
-0.32424766 -0.43025905 4.2289777
-0.28476483 -0.3347404 1.4840741
-0.57957351 0.02620827 0.78554749
0.25425506 0.047025789 0.33422971
0.16555239 0.065131329 0.38111925
-0.19592805 0.062084295 0.29521155
-0.19139899 0.057782587 0.37760782
-0.51718557 0.048222341 0.8085649
0.64408588 0.030947933 0.91814637
-0.44652754 -0.13824992 0.90136456
0.96625382 -0.15873612 1.6886625
-0.1247531 0.059778277 0.44133067
-0.37652189 -0.15331121 0.92308688
-0.62019402 -0.19051413 1.7285292
-0.4964909 0.024490809 1.3905952
1.1565433 -0.11360312 2.2770405
0.32834578 0.0072679166 1.8852015
-0.67803609 -0.043288376 1.8794165
1.1040777 -0.019978184 2.6734519
-0.48959327 0.024554424 1.3734725
1.5244803 -0.25272149 3.2583227
0.31881624 -0.294121 1.6752245
1.1861787 -0.076542094 2.2164536
-0.92510295 -0.081863359 1.2602851
-0.54696316 -0.18456876 0.90954161
-0.10952558 0.061298776 0.30939436
-0.11790363 0.061403193 0.31172729
0.76781529 -0.15259948 0.88210535
0.23383345 0.05567063 0.53066969
-0.5075441 -0.056041446 0.97858787
0.45351535 -0.19522929 1.0045462
-0.19665511 0.057086032 0.49962854
0.17084922 0.059777793 0.36996531
-0.54979694 0.031814076 0.92852998
0.22719188 0.0570894 0.47004128
-0.49609953 -0.084572345 0.96521664
1.0664316 -0.25948113 1.6647222
0.4997955 -0.1930984 1.0980353
0.60921299 -0.17130658 1.0431883
-0.50528932 -0.08576104 0.98655772
-0.52793801 -0.18949631 0.94265628
1.0800655 -0.21132693 1.7324798
1.1303855 -0.29189375 1.8455696
1.0223081 -0.26726511 1.7831278
-0.35352373 -0.17045626 1.1510458
0.90063894 -0.038060635 1.6537542
0.77432656 -0.033195022 1.4170463
-0.37962914 -0.23371379 1.6178451
0.27203763 -0.23858581 1.6484022
-0.036281332 0.056381356 0.54241204
1.0750166 -0.18190764 1.8234692
-0.5629065 -0.13475887 1.0056214
0.48277456 -0.16712891 1.6175327
0.25295788 -0.20847645 1.5457733
0.41830295 -0.17934087 1.9964967
0.90544885 -0.063092977 2.665926
-0.54782462 0.054475494 0.75190687
-0.55832016 0.02883146 0.98375678
0.39332914 0.047595583 0.47771764
-0.44828069 -0.13779767 0.90794039
-0.56621468 0.015980324 0.85065818
-0.12322275 0.059231881 0.42994928
0.65867436 0.029094689 0.78491426
-0.46379 0.044123381 1.305546
0.56125176 -0.19808549 1.2469578
1.201599 -0.24477257 1.9748964
0.42295194 0.013781151 1.3239682
-0.11736746 0.061095472 0.31126356
0.0078935623 0.058746729 0.30728245
0.0069094002 0.059639122 0.30682397
1.244193 -0.23468141 1.9167228
1.0563147 -0.18726079 1.7792473
1.0840145 -0.1859097 1.7041714
-0.76872849 -0.081929103 1.8779588
-0.82293785 -0.073507115 1.2044637
0.4899134 -0.12304842 1.8342047
-0.65554059 -0.09174712 1.8350458
-0.85140431 -0.079345569 1.249099
-0.72073597 -0.018913157 2.1479802
-0.55226427 -0.18110606 0.80816889
0.11051507 0.053403147 0.76672053
0.31371462 -0.20650843 2.210043
-0.84066129 -0.17218985 1.3101676
0.15146746 0.059769105 0.30060983
1.1093129 -0.29658899 1.677799
0.17066573 0.05989185 0.36876035
0.2024795 0.061239928 0.27606177
-0.20640151 0.055522222 0.32813787
1.1654587 -0.31981426 1.6832018
0.080050424 0.060245369 0.32898617
0.22592999 0.055453289 0.4233036
0.22718199 0.056059901 0.42632532
0.079635158 0.059655067 0.32288933
0.37536341 0.018936818 0.84730268
-0.051220372 0.058801893 0.31566119
1.0847414 -0.16679215 1.6799529
0.26676309 0.050647192 0.80877137
0.16215731 0.059052706 0.41597509
0.67145932 0.0381485 0.83410764
-0.90128744 -0.20870532 1.2715511
-0.69562042 -0.23094593 1.1263268
0.66539717 0.037164241 0.8249104
-0.42436063 0.068735458 1.4507627
-0.56366211 0.030131038 0.96039534
-0.48356843 0.04691096 1.3458488
-0.51707929 -0.062189642 0.97961092
0.31892407 -0.26782757 1.7157207
-0.5464828 0.052793149 0.88063574
-0.53614056 0.029353119 0.74637079
0.31437886 -0.21111128 1.6332426
0.019661799 0.055694066 0.44538188
-0.33035964 -0.15647002 1.6033139
0.2239805 -0.013113998 1.5013945
-0.31111395 -0.39391708 3.9058962
-0.5237509 -0.052413221 2.2835784
0.34677523 0.0084982812 1.9915886
0.35300899 0.044896856 0.51672053
0.22939186 0.056666601 0.43133163
1.1521484 -0.38606867 1.6589067
-0.84078783 -0.21572226 1.37937
-0.53240681 -0.1767658 0.83661461
-0.11827223 0.061432887 0.31147122
0.19929875 0.059046622 0.42257404
-0.59648836 -0.199219 0.98291779
-0.053822368 0.062594265 0.35170627
0.079378024 0.059987422 0.32743382
-0.19666536 0.061109338 0.38069463
0.23657547 0.052916717 0.64647746
0.12030475 0.048392903 0.29937053
-0.58786553 0.021324402 0.76407576
-0.21307726 0.05553513 0.30347371
-0.48487067 -0.15904671 0.87744975
1.0727849 -0.32496062 1.6140032
-0.5491755 -0.18366794 0.8981781
0.67364681 0.035936154 0.90096974
0.0062900782 0.059786219 0.30614662
-0.11258617 0.057876069 0.48330522
0.25315493 0.052232243 0.77030396
0.86000592 -0.084635571 1.6020067
1.1391034 -0.15900609 1.6521058
0.70402116 0.029534191 1.2948899
-0.11186101 0.057103988 0.4639771
-0.32270408 0.05219635 0.98798656
0.24129055 0.056881044 0.63358688
-0.85319996 -0.16792056 1.1939764
-0.20407178 0.055037122 0.40601516
-0.51318699 -0.041927595 0.98531365
0.42082936 0.020750063 1.3105433
-0.052129015 0.059037853 0.45048523
0.50944281 -0.14351185 1.4594831
0.62292409 -0.15126853 1.5021188
0.87083185 -0.039485041 1.5987298
0.71581697 0.025960587 1.4151506
0.2718792 -0.0077651218 1.7493315
0.4499985 -0.19393407 1.8021922
1.4618201 -0.062563702 2.0960727
-0.50566572 -0.07539697 0.98268342
0.42365223 -0.017343052 1.3678274
-0.31549758 -0.29134125 1.604866
-0.77346814 -0.08224465 1.8947139
-0.50629711 -0.056995962 0.97676325
-0.56396228 -0.19329654 0.95537066
0.30405635 -0.20202918 1.5540204
-0.051028728 0.058785718 0.45035434
0.26689565 -0.11831148 1.3008051
-0.16354673 0.043784626 1.0226665
0.25003088 -0.22808562 1.6460662
0.30303884 -0.25194421 1.6162436
0.25820053 -0.23621513 1.7138462
-0.023445293 0.053324398 0.69394803
-0.87476683 -0.17188281 1.1573071
-0.40965146 -0.25956827 2.0798464
-0.53827381 -0.20175412 0.90453005
0.36434543 -0.15145253 0.83928823
0.14690517 0.058918227 0.4172554
-0.53031933 0.056692142 0.73856306
0.07711558 0.057807691 0.30593872
0.46687049 0.040217414 0.5633502
-0.51215017 0.030061606 0.82337379
0.08637853 0.056682855 0.44240761
0.157811 0.059411932 0.35733843
-0.51689911 0.023361616 1.1383886
-0.82707691 -0.16766015 1.2875736
-0.20336275 0.053331703 0.48499107
-0.061234489 0.060889211 0.34177566
-0.017229974 0.060301121 0.27776599
-0.12339728 0.058839265 0.5888536
-0.38242024 -0.15154473 1.1118157
-0.102456 0.058938306 0.43836069
0.41828728 -0.17631514 0.82449532
1.1465362 -0.21063009 1.7652974
0.3853637 -0.16266412 0.90219879
0.85616428 -0.034918662 1.5543146
0.37319958 0.037920948 1.0150537
0.42446244 -0.17559385 0.94556665
0.44212222 -0.14977878 1.1398509
0.51934439 0.041384384 0.84624124
-0.41952634 0.041077308 1.2707815
-0.49703598 -0.10384624 0.97750401
1.2434562 -0.23325531 1.9197788
-0.34812963 -0.19552012 1.238445
-0.38796383 -0.17937514 0.87881732
-0.36344248 -0.26596722 1.4036069
1.1283463 -0.28756303 1.8361583
0.37524009 0.033083435 0.830235
0.26290232 0.050994128 0.89106584
-0.098390803 0.057348352 0.62371445
0.021932766 0.059800141 0.51111269
0.12955864 0.051460814 0.96059895
0.021400794 0.058439743 0.49017882
-0.32420266 0.053273585 1.0952764
-0.3665235 -0.2678428 1.4206114
-0.29971594 -0.29245114 1.5541162
0.31361687 -0.19438352 1.2097812
1.8935385 -0.15540165 3.3484101
0.020120427 0.05793076 0.48441792
-0.61674368 -0.20447764 0.97094846
-0.29823059 -0.30653158 1.6952863
0.49828851 -0.21394286 1.061044
-0.2977547 -0.27811551 1.5149066
-0.68995422 -0.11532363 1.8757787
-0.87764919 -0.16511515 1.0934875
-0.75812948 -0.16395299 1.9769058
-0.15990596 0.042484548 0.99101877
0.35439402 -0.18957317 1.9630842
-0.69120616 -0.15174522 1.9018831
0.3270542 0.036799707 1.865674
0.78859222 -0.039212663 1.2911563
0.62016982 -0.031629894 0.9077847
0.21183111 -0.050117251 0.30746317
1.0247731 -0.066538796 2.8570642
-0.053771883 0.063067332 0.35296535
-0.037114844 0.058755275 0.58387756
0.1581728 0.059863146 0.3629837
-0.4942292 0.025328565 1.0113182
0.056587175 0.061414581 0.28829026
-0.10970572 0.061613444 0.31032181
0.45900208 -0.1462182 0.86976886
0.53898853 -0.15171058 1.5623646
0.34749061 0.034986239 0.60876513
-0.52563488 -0.15637992 1.4310138
-0.8371402 -0.21022756 1.2329907
0.66100532 0.039051417 0.96194839
-0.13249235 0.068945363 0.45598888
-0.21286206 0.055817995 0.30368257
-0.51929832 -0.070041388 0.98252892
-0.36081403 -0.1834278 0.85864544
-0.48624027 -0.10055511 0.95359373
0.071841374 0.06015433 0.26498032
0.67394662 -0.042278256 3.1536303
0.25168675 0.029810872 1.783246
-0.70373279 -0.082158312 1.9225407
-0.040300414 0.061953645 0.25994182
0.18120344 0.056006346 0.7252903
-0.77559388 -0.081773132 1.8943329
-0.52189648 0.031962477 0.84423828
0.1622925 0.064575307 0.4677875
0.011250511 0.057826921 0.42687392
0.221285 0.058711696 0.38418674
-0.5149923 -0.022132713 0.98193002
-0.17465691 0.063039482 0.29807734
-0.55082583 -0.13140959 0.98094249
0.65625638 0.028595865 0.9240725
0.34049553 -0.28583482 1.9605551
-0.37014115 -0.1997634 1.2956815
0.65478402 0.039949298 0.77758121
0.4018513 -0.26913133 2.2110448
-0.50412625 0.050742794 0.90776896
-0.17524855 0.053513709 0.6961565
0.24673982 0.057938285 0.6510632
-0.29505581 -0.27894533 1.5142865
0.16544037 0.059228178 0.39836216
0.68370986 0.0053363144 0.89254618
-0.20170693 0.058649853 0.29953837
-0.33786094 -0.16456865 1.1083896
-0.54258502 -0.18320251 0.94130397
1.1142874 -0.20574223 1.7128918
1.2189616 -0.15916435 1.5540471
-0.57416749 0.026578227 0.72643709
1.0957166 -0.2545917 1.6982937
-0.39203131 -0.17013288 1.4349213
-0.043880537 0.059023701 0.44367886
-0.35689753 -0.18403992 0.87264633
0.56813228 0.039386913 0.84499311
0.097499087 0.059146438 0.57989049
0.2327937 0.051954668 0.63471484
0.30405766 -0.19042198 1.1805212
-0.6220907 -0.20212747 0.92012525
0.009817794 0.059727006 0.43968058
1.1197004 -0.17275253 1.7375236
-0.50802869 -0.077968895 0.94928217
1.1902831 -0.25238687 1.6832087
0.13205414 0.048473492 0.31500602
0.22554524 0.054945584 0.32183409
-0.051994652 0.059583906 0.32699323
-0.20108749 0.058812153 0.25639868
-0.69925296 -0.076497495 1.7948203
-0.21132098 0.05638808 0.33862519
-0.51674217 -0.041255943 0.9921999
-0.34146422 -0.20805655 1.4640071
-0.20993809 0.060222194 0.28852272
-0.30763328 -0.23499931 1.4692492
0.32835108 -0.17270765 1.7781868
0.22923775 0.055173483 0.35656095
0.3645485 0.014827898 1.112242
0.80360413 -0.077535123 1.5536976
-0.045741126 0.061154995 0.46977663
-0.22929065 -0.16196199 1.4873567
-0.48444176 -0.16134144 0.78298998
-0.060586736 0.03520852 0.18725634
-0.28433692 0.070414528 0.50105286
0.025039837 0.059313033 0.43568373
-0.2057112 -0.21730687 1.1619341
0.31286019 -0.14891216 0.92426705
-0.21282552 0.055617299 0.30271435
-0.36080581 -0.27140337 1.3510423
0.33325821 -0.29094404 1.6888695
-0.57262778 0.026270263 0.77487707
-0.20156552 0.05873068 0.29979801
0.46324569 -0.17575105 0.90227747
0.14997499 0.059239648 0.29590034
-0.20322676 0.053440865 0.4853282
-0.58685315 0.035553213 0.85539532
-0.19291358 0.056746174 0.49593425
0.28875446 -0.17240703 1.6176305
-0.19869523 0.060730916 0.36692381
0.15485473 0.055064689 0.35524583
0.67778051 0.01966895 0.85533452
-0.34488142 -0.26908788 1.3875556
-0.33746922 -0.26402956 1.3567929
0.16014467 0.059233736 0.48929715
0.60809481 0.033303618 0.70310092
0.084021136 0.055532146 0.42197132
-0.22427706 0.05236971 0.30578518
0.084836945 0.056526426 0.44464159
-0.1982957 0.058426365 0.51282454
-0.19553079 0.061187234 0.37899423
0.26076603 0.060591251 0.71264553
0.079367056 0.060353797 0.32916236
0.39909774 -0.16528465 0.88364887
-0.85752344 -0.17218189 1.2000079
-0.51840246 -0.14911744 1.3820381
-0.041003332 -0.028174128 0.36165905
-0.063175052 0.059118021 0.25474858
0.17977767 0.05553706 0.71434045
0.29603434 -0.24837442 1.3333964
0.30813509 0.049776435 0.60846257
-0.12188251 0.067167506 0.4053371
0.20490457 0.058856566 0.41895866
-0.84557474 -0.21447103 1.3168108
0.013564482 0.055906173 0.27838469
0.44731742 -0.18424702 1.9242249
-0.22791786 0.052876368 0.3120482
-0.12268256 0.061761443 0.42737889
-0.050244182 0.057159964 0.42939115
2.4931495 -0.07764329 3.9948268
0.31902921 -0.14900509 1.70538
-0.54089105 -0.15116869 0.98178768
-0.02267693 0.05700535 0.77418017
0.23516281 0.057910055 0.55836248
-0.83886957 -0.18144204 1.1878691
0.082639173 0.055202175 0.42621112
1.2579824 -0.041025467 1.8828888
0.47102755 0.039655011 0.6633749
0.47074217 -0.13714735 0.85994601
0.22754018 0.056043051 0.42665267
0.40165615 -0.14487126 1.471673
-0.017806098 0.062323425 0.29002857
-0.69930631 -0.046415623 1.9255199
-0.74247611 -0.081007183 1.8181486
0.14335392 0.059710283 0.29949689
0.43261611 0.016776429 1.0178273
-0.10640894 0.057701487 0.41579366
0.37142235 0.044831038 0.66910911
-0.20974351 0.056522004 0.33639479
-0.56846273 0.033775643 0.82776237
0.4528625 -0.13730963 0.83738518
0.153982 0.06078843 0.51160955
0.057604894 0.062418971 0.29425144
1.2260085 -0.16000079 1.5605078
0.076905683 0.060583875 0.33896923
0.5837481 -0.17500833 1.2820258
0.23813944 0.054091673 0.64986992
-0.088587642 0.050775278 0.37716818
0.013146669 0.055999849 0.28325844
-0.21203263 0.054145399 0.4057138
0.14454038 0.060123798 0.30365229
0.16376121 0.059362877 0.35183764
0.35041904 0.037462581 0.78781652
0.316351 -0.20996888 1.2061367
-0.11288193 0.056179222 0.3874433
1.1285048 -0.21751226 1.6176612
0.40644765 -0.1710808 0.90681791
1.2801428 -0.10001956 1.589498
1.95364 -0.075050324 3.011951
0.35914236 0.047319219 0.46866417
-0.54080331 0.039063826 0.68891191
0.45411617 0.039590418 0.54634118
0.17417969 0.069450997 0.35741234
-0.093691722 0.073259741 0.96769977
0.66186881 0.038006708 0.8184588
-1.1482345 -0.22818623 1.7167542
0.013199031 0.055599477 0.28076005
-0.53738201 -0.17568408 0.80695248
0.46253699 -0.13298124 0.81223369
0.69208795 0.013909457 1.3616316
-0.3673768 -0.27182731 1.4459531
-0.49807572 -0.18837927 0.90515804
-0.55860794 0.029137895 0.98298979
-0.5319351 0.051509399 0.94491148
0.84882754 -0.18418784 1.6075463
0.013744235 0.05708411 0.28864479
0.52703744 -0.14541888 2.195138
0.15355839 0.056524809 0.46140671
-0.49802774 -0.085306466 0.97010636
-0.35114616 -0.21492973 1.5251598
-0.22913711 0.040068191 1.2982769
1.956784 -0.32764322 3.7816062
0.34848958 0.013578897 1.691191
-0.59092879 0.022560211 0.76807904
0.089061335 0.058747064 0.45529723
0.66449285 0.0056323875 0.86787057
-0.19390045 0.055938676 0.40544748
0.46123201 -0.14437778 0.80196786
0.31206959 -0.14967661 0.91912436
-0.1105486 0.053519208 0.53583479
-0.41622728 -0.20901053 1.7498803
1.5803208 -0.36288992 3.2704163
-0.4853273 -0.15910009 0.8794601
0.41846335 -0.17638654 0.91934299
0.3196547 -0.21367483 1.2266254
0.36865729 0.038625307 1.0023642
0.14494105 0.060574252 0.30358839
0.227053 0.059824128 0.40381646
0.362059 0.036279887 0.82428503
1.9071896 -0.11437006 3.3087678
