# .PCD v0.7 - Point Cloud Data file format
VERSION 0.7
FIELDS x y z
SIZE 4 4 4
TYPE F F F
COUNT 1 1 1
WIDTH 682
HEIGHT 1
VIEWPOINT 0 0 0 1 0 0 0
POINTS 682
DATA ascii
0.3602578 -0.080434941 0.57150173
0.11480558 0.050092049 0.3513155
-0.12185454 0.059740379 0.36193609
0.075315833 0.056288134 0.30481195
0.11847949 0.023528187 0.31736708
-0.19057906 0.049417816 0.59706593
0.29412192 -0.093536355 0.5834527
0.28918004 -0.076525576 0.59555531
0.76608962 0.015011277 1.0676179
0.82228285 0.016946856 1.1047435
1.1941888 -0.27167359 1.764339
0.15066278 0.057141148 0.2914381
-1.1748955 -0.3510381 2.1587191
-0.17948699 0.057883136 0.37449503
0.12133622 0.034368485 0.32529688
-0.92319804 -0.23328182 1.6005092
-1.3189425 -0.43820503 2.6862297
0.55987734 -0.14643106 2.1557989
-1.3497596 -0.45523378 2.7183557
1.6146448 -0.34125569 2.1189065
-1.3165765 -0.28836241 2.5903354
-0.87988967 -0.15395948 2.3907042
1.6651912 -0.047705561 1.9209833
-0.50187081 0.023714174 2.3760338
-0.74407476 -0.1221533 3.4191589
-0.17196763 0.033011667 1.1412387
-0.46563238 -0.036706574 2.0713325
-0.17506391 0.054755211 0.62490559
0.014555931 0.056343131 0.42185736
0.28541702 0.046270199 0.41934347
0.081547678 0.055356376 0.32277107
-0.20111984 0.052505653 0.33262444
-0.13333446 0.058269601 0.33190203
0.31583852 -0.038070917 0.57397556
0.42325991 0.034829959 0.61926794
0.0040499568 0.056359701 0.34625387
-0.827694 -0.027972467 1.0649481
0.07327801 0.056054305 0.26345778
0.11011505 0.037376516 0.33556032
0.29234511 -0.10586841 0.57753563
0.11951715 0.028733922 0.32893133
0.14344627 0.056241728 0.32356644
0.22053832 0.052493922 0.34734678
0.070341408 0.053756166 0.29227638
-0.17758602 0.058283646 0.38757706
0.098978281 0.054144602 0.61157703
0.12417418 0.030108524 0.31276655
0.10635048 0.045868833 0.72728205
1.092787 -0.10821468 1.8564086
1.4713378 -0.274708 2.0748258
1.4474456 -0.30891401 1.9962401
0.16348463 0.02954234 0.31415081
0.54584032 -0.21462879 2.1206708
-0.84222537 -0.44650266 2.5309558
-0.034641147 0.049412042 0.71185446
2.4008718 -0.52293789 3.3304791
0.37718016 -0.31984547 1.7781653
0.084042788 0.046373308 0.75946236
-0.75310546 -0.25821325 2.3815985
0.51728278 -0.37035513 2.0478125
0.32605112 -0.032750145 0.55107927
1.3504076 -0.17282251 2.2329178
-0.40501964 0.021958858 2.5622344
-0.31809628 -0.24371961 2.6609612
1.5334022 -0.2776736 2.160254
-1.0306661 -0.21003255 1.3505559
-1.0126967 -0.26563561 1.3713703
0.15088713 0.027590578 0.30890703
-0.038187265 0.059251312 0.26022434
0.18418771 0.057470694 0.25109434
-0.32826096 0.050781187 0.62703657
0.31763589 -0.064589508 0.57339621
0.23809558 0.050669655 0.28589582
-0.51251954 0.045329317 0.97799492
-1.071728 -0.27778724 1.3837037
0.23732162 0.049816109 0.27769184
0.2195884 0.050108507 0.27798796
-0.83590597 -0.22605211 1.3671303
-0.18115574 0.05855104 0.38016319
0.40854424 0.032540962 0.56438875
0.99142879 -0.082319595 1.513226
0.13025498 0.045535736 0.31571674
0.013553381 0.054480717 0.39074516
0.09570384 0.014254116 0.32244015
-0.84746617 -0.2297813 1.386116
1.1781943 -0.31830442 1.8039293
-1.2464628 -0.37112784 2.6259036
-1.1730044 -0.42024294 2.6275725
-0.18239146 0.055611901 0.53805971
1.4562671 -0.41958424 2.0226507
-0.50812942 -0.05573301 1.0916657
-0.22459024 0.050442468 0.29875565
0.013194263 0.054415628 0.38749838
1.4358869 -0.32119367 1.7628293
-1.0354488 -0.21353143 2.3747582
-0.73383695 -0.066044606 0.94213438
-0.035985172 0.04925219 0.69775581
0.60028392 -0.30407777 2.0749226
-0.52697426 -0.049487971 1.5932527
0.6832357 -0.41215357 2.1103392
0.98845857 -0.014764864 1.4929056
0.61282545 -0.29965124 2.2003679
-0.10780752 0.025903281 0.65164423
0.54593378 -0.36377552 2.4536328
-0.88039047 -0.53293002 4.1416826
0.51439685 -0.42358211 2.4472904
0.65569192 -0.42194054 2.1763506
-0.28116262 -0.2835913 2.7547741
0.64637166 -0.44239071 4.1863565
0.072012961 0.055141114 0.25636721
-0.12212938 0.056781955 0.31391907
0.168401 0.033034667 0.30591154
0.21139628 0.057794541 0.25376749
0.29557163 0.047901034 0.43715572
-0.18386543 0.059587996 0.31538343
0.22445226 0.044408418 0.28233671
-0.17539889 0.061461296 0.26198483
0.15644759 0.056882624 0.27655697
-0.18508214 0.058645248 0.34329414
0.79558831 0.018625613 1.092031
-0.12270683 0.061258011 0.34837627
0.0038377047 0.057201855 0.35098219
0.15367502 0.058124267 0.294209
-0.23319983 0.052313488 0.31141233
0.17188591 0.025551997 0.32253885
-0.21416479 0.059802808 0.52454519
0.11733782 0.017788952 0.41151524
0.11304927 0.049836434 0.34291649
0.21556109 0.038585238 0.28767014
-0.38150436 0.059994057 0.5599699
-0.21575063 0.053841695 0.33052111
-0.20039314 0.051792871 0.3393178
0.95246345 -0.036425911 1.4310932
0.9026168 -0.20987123 1.3904419
-1.0195355 -0.30655381 1.3257689
0.37449908 0.044379078 0.48361111
-0.79415339 -0.23644453 1.2842188
-0.13331258 0.060748134 0.42811966
0.12503213 0.027291762 0.31700945
-0.51308113 0.05079861 1.102489
0.97856778 -0.039553307 1.4145823
-0.84757727 -0.25117314 1.3743377
-0.041390955 0.045187391 0.2219305
-0.89768547 -0.21811575 1.3383756
1.2948887 -0.3346085 1.8395114
-0.050617874 0.058496676 0.29697847
0.013982117 0.05429922 0.39941454
0.093623996 0.051233713 0.56601906
1.2134418 -0.21954688 1.8298478
-0.8406015 -0.019129537 1.0902023
-0.86478931 -0.20814589 1.3002472
0.29897898 -0.018039078 0.5529952
-0.84681147 -0.14952391 2.3052087
0.352027 -0.059201367 0.5680604
-0.72849637 0.039819986 1.1410089
-0.36014879 0.033975486 0.75556707
-0.85083669 -0.20594281 1.2708549
-0.8826471 -0.21312785 1.3297501
-0.14749026 0.049615834 1.1751876
0.51897758 -0.43001696 2.480607
-0.26309818 -0.36841932 2.9819474
-0.35843831 0.056962177 0.47286654
0.32472861 -0.10915374 0.59075642
0.22418475 0.047597431 0.39798355
0.33211571 -0.064091943 0.57196093
0.1173808 0.037798852 0.45113516
-0.18625218 0.050291099 0.49611616
0.21261227 0.051206931 0.33253431
0.18154103 0.056118615 0.28208971
0.27468657 0.044684667 0.40851736
-0.18604183 0.049718343 0.67418623
0.2086789 0.057395086 0.2380867
0.5730136 0.034377452 0.75458622
0.22556651 0.046524666 0.37403011
-0.31171328 0.048098683 0.58836699
0.22271013 0.043684527 0.28700876
-0.37630278 0.058701921 0.55034256
0.078831971 0.055842284 0.25876999
0.073219121 0.053982731 0.31814146
-0.94042975 -0.22050253 1.3463855
0.21558321 0.051685333 0.33804846
0.23682272 0.049763054 0.276752
0.13309991 0.037194438 0.36715317
0.53210205 -0.2540749 2.3278642
0.14961118 0.054231107 0.29824209
0.29413885 -0.11077975 0.68332529
0.46193403 -0.14409685 1.1152949
-0.99710208 -0.25801918 1.2836437
-0.9321447 -0.19597051 1.2729988
-1.0334551 -0.21007738 1.3547702
-0.93405956 -0.33096525 1.4626646
1.0746171 -0.067275263 1.386199
-0.067880452 -0.51603103 3.5229402
-0.84947985 -0.16771314 1.2871957
0.2308827 0.0084577166 0.88329315
-0.12767488 0.058035634 0.33302307
-0.86856121 -0.22773477 1.5039544
0.099537194 0.055036169 0.56348372
0.59566623 -0.30129281 2.0617924
0.21821344 0.085148722 0.47687817
-0.14592057 0.047265183 0.61838961
0.020153344 0.054889735 0.33210707
0.12266952 0.055033531 0.46688604
-0.19268495 0.053940132 0.31558847
-1.0609131 -0.21664542 1.4261789
0.31676728 -0.044753365 0.57155514
0.43978399 0.038703851 0.6792655
0.33282965 -0.027067557 0.78323507
-0.97469097 -0.2836158 1.3999147
0.15280932 0.048171453 0.7615447
0.28724122 0.047144845 0.4244256
-0.16811001 0.050969459 0.65718412
0.61557144 -0.26637256 2.1269135
0.33046246 -0.048161417 0.59007692
-0.19258416 0.062569499 0.33883905
0.14515382 -0.1649631 0.76236916
-0.76265472 -0.31630409 2.5151248
0.13991714 0.054942932 0.31524849
0.18993527 0.058612183 0.25877905
0.075101614 0.055370867 0.32916212
-0.04199326 0.054708868 0.31332111
0.22214854 0.043615729 0.28574324
-0.064370334 0.058564458 0.2686553
0.14072096 0.058457971 0.252882
-0.1438753 0.02227827 0.29879522
0.056922436 0.041466914 0.24941063
0.319933 -0.11164855 0.55226088
0.1104849 0.036929823 0.33832026
0.12078667 0.045114607 0.31886911
0.51645929 -0.25324112 2.1973438
0.28057849 -0.021482132 0.76020479
-0.54082197 -0.10590438 1.6034675
0.7871502 0.017399929 1.058548
0.80629116 0.020124502 1.2366228
-0.41262025 0.064685978 0.60317802
-0.89276642 -0.21816766 1.3296041
-0.076362431 0.056764022 0.3768816
0.33552563 -0.11673591 0.58069324
-0.26973122 0.04183067 0.54007769
-1.0551417 -0.079430677 1.5147338
0.11484849 0.022503002 0.30464602
-0.20185655 0.052936755 0.33465672
0.35315806 -0.066066697 0.58029938
0.22417414 0.051718976 0.2747159
-1.3600633 -0.16240638 2.5963788
0.16589236 0.03423243 0.31498003
-0.18499702 0.058375068 0.34305429
0.18009359 0.055008762 0.25858021
0.22203243 0.051083326 0.28088427
0.029390216 0.058555081 0.34093428
-0.046988547 0.056213893 0.4500041
-0.51621002 0.045940459 0.98775196
-0.20653737 0.052361503 0.31032228
-0.96085733 -0.46713546 2.5097914
-0.51958746 -0.054414399 1.5717974
-0.85133976 -0.1965808 1.4521685
0.35228854 -0.062469043 0.74485254
-0.18489844 0.056569166 0.52221155
0.14180213 -0.16098991 0.74616241
0.29691279 -0.10756315 0.5892992
-0.06990391 0.034403324 0.14536953
0.11691606 0.031258605 0.32509995
-0.93702978 -0.22395104 1.1970325
-0.1011669 0.057035215 0.43204021
-0.061287224 0.055409811 0.25422955
-0.36974984 0.042605378 0.99722815
0.15871859 0.030401539 0.32664347
-0.058865547 0.06952291 0.48931742
0.22298777 0.04378543 0.28007698
0.039356351 -0.1794647 0.78870392
0.32471198 -0.066486441 0.58778906
-0.29483575 0.059732847 0.76019049
1.1913438 -0.27466065 1.7542362
-0.83243531 0.028735045 1.0491838
-0.056042194 0.060577728 0.27715063
-0.18846864 0.056340009 0.52040672
1.2031662 -0.21445379 1.8127871
0.24687243 0.051901706 0.29029751
1.4407623 -0.41855687 1.8253651
0.51440614 -0.098915346 1.909286
0.28314567 0.0077245086 0.76308823
-0.73096603 -0.318838 2.4985662
-0.9582265 -0.19757712 1.2503672
-0.82230562 -0.26398066 2.3276625
0.27849299 -0.1022075 0.65843344
-0.043146729 0.048850268 0.33951521
-0.89062411 -0.35742259 2.4135871
0.32945573 -0.11553129 0.57173777
-0.056696951 0.061634015 0.3209672
-0.93089956 -0.21840388 1.3317966
-0.18832296 0.052931752 0.30832195
0.35214418 -0.059879757 0.57016373
1.5942469 -0.28269306 2.2603202
-1.0626647 -0.19176611 1.3401732
0.72664779 -0.074194342 0.9243474
0.41994685 -0.079399146 0.60935116
-0.7791484 -0.025062554 1.0082569
-0.61606354 -0.18199337 3.1022925
0.22180426 0.050933801 0.28147602
1.4439163 -0.41863266 1.9982924
0.11299866 0.032703154 0.41267824
0.18682313 0.055242579 0.33983803
0.014770865 0.056354385 0.4215188
-0.27996296 0.029239804 0.72980118
-0.85732096 -0.35864878 3.506897
-0.30277467 -0.37820119 2.7624722
-0.20058501 -0.15318859 2.3000178
0.80269748 -0.10481711 1.7194662
-0.20509821 -0.18490621 2.3732677
1.5117846 -0.095715158 2.2338099
0.95384151 -0.054378472 1.1866503
-0.21012861 -0.18437615 2.4263921
-0.27907431 -0.36952651 2.7239923
-0.27720231 -0.40730041 3.2285042
0.58407861 -0.037483059 1.1404834
0.63220769 -0.051884674 2.6386337
0.71323293 -0.015675373 1.3794746
1.8435991 -0.10715694 2.4492869
-0.25654101 -0.33503506 2.1848869
-0.83510822 -0.44467902 2.5081081
-0.83059448 -0.40084824 2.5335317
-0.89383227 -0.25045851 2.6945581
2.0540073 -0.11084891 2.5972805
0.61956125 -0.012494594 2.0026946
1.0608349 -0.085162126 2.3561487
0.267555 -0.096935846 0.61753845
1.0977869 -0.021093287 1.3925219
-0.61785561 -0.38033542 3.6165767
0.32463753 -0.063233085 0.58049059
-0.69880205 -0.088237174 2.3660507
1.0519762 -0.020286806 1.3846192
0.32379836 -0.059946783 0.57529163
1.0767896 -0.066231199 1.3896861
-0.84179491 -0.071171694 1.055479
-0.93294567 -0.47854921 2.4858031
0.31077152 -0.28986374 4.2398181
-0.88665122 -0.36011672 2.3542247
1.0479522 -0.01979015 1.3808208
0.26845306 -0.079064712 0.63697004
-1.0280116 -0.43736804 2.4456387
4.0959797 -0.17635125 5.8473973
-0.16835135 -0.52111852 3.9286175
1.2831171 -0.31675223 1.8367209
-0.07325834 -0.5297879 3.6695523
1.0561967 -0.020684429 1.3882394
0.31459051 -0.29388312 4.287169
-1.1687338 -0.40048805 2.6146197
1.2352786 -0.022487484 1.6201129
-0.07527405 -0.52844608 3.6895785
-0.91726786 -0.37649313 4.2559228
-0.9902547 -0.3526693 2.4201245
0.29431683 -0.10626892 0.58405352
-0.1482119 -0.49848375 3.6724529
-0.90617007 -0.25641471 2.758564
-0.89453715 -0.27154738 2.4352889
-0.95982951 -0.45298359 2.4446979
-1.0612946 -0.41857514 2.45122
-1.0629275 -0.39250576 2.4152722
-0.84423226 -0.018859059 1.0611529
1.0496244 -0.066749804 1.408453
-0.76583904 -0.26308453 2.4357219
-0.80758017 -0.39351478 2.8596439
-1.054446 -0.22270527 2.378324
-1.1398304 -0.4063701 2.5429707
-0.82238132 -0.39905933 2.9219413
-0.54454321 -0.067877762 1.5892787
-0.018226922 -0.24032936 3.8047104
-1.1144261 -0.33323041 2.4780478
-1.5726476 -0.32352999 2.1763039
3.0598207 -0.56462991 4.4342313
0.20172995 -0.012905933 0.53696346
-0.49557418 -0.072699606 1.8621273
1.6151633 -0.68691212 4.6676908
0.9560501 -0.057107545 1.4230046
2.8838837 -0.5461185 4.1006436
-0.88129276 -0.48279813 2.4829082
0.11803883 -0.29409638 3.3310099
0.31998843 -0.064759463 0.57507849
0.31550533 -0.043956339 0.56976032
-0.84532386 -0.22307897 1.3464499
0.13662577 0.028174896 0.31381416
2.7599945 -0.60645103 3.6709509
-0.83549899 -0.43383476 2.5525589
0.15004617 0.028215606 0.31148911
2.6628237 -0.58423358 3.5162988
0.4868111 -0.032358222 1.189095
0.33043015 0.02801965 0.55463123
0.98390716 -0.061815739 1.4276061
-0.91755015 -0.31678396 1.4316831
0.97497469 -0.042364098 1.412097
-0.82756156 -0.39148766 2.4805708
-0.83044976 -0.34545663 2.4864106
-0.71523494 -0.040751256 3.7739954
-0.54307252 0.04427034 1.6553559
-0.75910991 -0.22583929 3.7548347
-0.9874 -0.3613261 2.4800181
1.0813868 -0.067391746 1.3993158
0.50731319 -0.055414878 0.67503691
-1.0123417 -0.27897918 2.3538365
1.0400314 -0.066083245 1.3904347
0.9835338 -0.040294535 1.4242549
0.86838537 -0.015813936 1.4593515
-0.83294147 -0.070719011 1.0448298
-1.2834857 -0.47500357 2.7657824
-0.76458019 -0.57155681 4.3477359
-0.90351862 -0.4018338 4.3123412
0.17603624 0.046041988 0.32763481
0.14302349 -0.14751443 0.75406408
-0.84321958 0.038308293 2.4220743
-0.94789571 -0.46041682 2.4691839
-0.90598553 -0.25095597 2.3125982
1.1125729 -0.081147976 1.3176193
-0.72754925 -0.018342435 2.3345718
-0.98863727 -0.36230987 2.4809971
0.2936101 -0.10048034 0.74407959
1.0804365 -0.019028835 1.3474879
-0.82928306 0.018596392 2.255302
-0.80680841 -0.26402569 2.7592821
-0.50216275 0.041172218 0.80105305
-0.53769678 -0.053168252 1.6414852
-0.70754474 0.00072440505 2.3462057
-0.89213198 -0.2534669 1.3244057
-0.85265225 -0.39588481 4.1405325
-0.71208125 -0.19087961 3.2664719
-0.88310796 -0.14214146 1.2740083
0.14388818 0.056374758 0.31605768
-0.11428833 0.057096265 0.35557985
-0.85647768 -0.39651266 4.1465011
0.1363464 0.05738404 0.32277441
0.11808825 0.045381606 0.48326588
-0.69714564 -0.15957564 3.3493605
-0.58512765 -0.37296087 3.4631786
1.1248257 -0.048161574 1.389503
0.29257315 -0.044963218 0.57961941
0.16208935 0.028234944 0.31211853
0.16200745 0.029288441 0.31157207
-1.0170002 -0.56737071 4.4908347
-0.50737852 -0.15945423 2.9379468
0.32000351 -0.065192379 0.57678843
1.0817945 -0.06710159 1.3923521
1.3072062 -0.30137348 1.8852673
0.18924141 0.054657988 0.34939432
1.0807498 -0.23047909 2.2680306
-0.11369246 0.057781771 0.36203003
-0.8769843 -0.23294219 1.3162675
-1.1928825 0.027027037 1.5587311
1.1153011 -0.042636119 1.3812933
-0.57544512 -0.37531862 3.4606447
-0.83382767 -0.34682849 2.514698
-1.2462897 -0.46347454 2.6775532
-1.0265646 -0.43860841 2.4459352
-0.85161322 -0.46835384 2.4766965
-0.04201138 0.051752754 0.63032389
0.29373002 -0.045403808 0.58488417
-0.75663584 -0.35184112 2.6161132
-0.93431383 -0.23387265 1.3413687
0.35617906 -0.10811899 0.55421305
-0.90869421 -0.15084413 1.257206
0.82968158 -0.0078234114 1.1994162
-0.90129191 -0.21339166 1.5056348
0.27879095 -0.056324288 0.5767808
-1.2614636 -0.46733508 2.7143736
0.34596831 -0.062413186 0.56190443
-0.82111186 0.016844377 1.0889387
-0.96850413 -0.45003548 2.4629774
1.3609734 -0.26059726 1.9239511
-0.46668816 -0.23707816 2.6920872
-0.77810997 -0.38798177 3.9208498
1.4582791 -0.33799985 1.6994815
-0.82758683 0.027587462 1.0432658
1.4000902 -0.25354964 1.6714945
-0.5184235 -0.25518036 3.0429044
-1.0332732 -0.22004423 2.3333559
1.1241364 -0.078931592 1.3301845
-0.85457188 -0.16881484 1.2940326
0.14417601 -0.14304975 0.74635077
-0.83663565 -0.25334394 1.369256
0.28173274 0.045507029 0.41294575
-0.831819 -0.077476986 1.0826364
0.088577271 0.051972814 0.58513784
0.15481526 0.061488092 0.75284052
-0.87043828 -0.26376182 2.3731718
1.2891629 -0.33334622 1.7989807
-0.3965978 -0.28647071 2.5881209
0.40525597 -0.13076344 0.68999386
0.12412739 0.045457557 0.32966232
-0.17470574 0.0016682111 1.0691581
-1.0165861 -0.42424282 2.4661064
-0.56482202 -0.35425663 3.2997384
-0.8491928 -0.073948331 1.0396953
0.4156968 -0.076063462 1.316792
0.29278767 -0.065737881 0.59308577
0.1180687 0.024887705 0.3191781
0.15083057 0.028356288 0.31104565
-0.92608517 -0.21284729 1.561739
-1.0615959 -0.26540694 1.348877
-0.058016837 0.054399535 0.61913872
0.295039 -0.040259011 0.60594511
-0.34953099 -0.42797291 2.7600789
-0.76764029 -0.40188414 2.5026984
0.040532768 -0.1557487 0.78537703
-0.78166622 -0.24344549 2.7097745
-0.8573088 -0.064853199 3.6017017
-1.2742338 -0.17131558 2.6272936
-0.11850893 0.05854287 0.36840773
0.13462925 0.0565437 0.32474041
0.15075594 0.056906641 0.29001522
0.14427602 0.056273259 0.32287407
-0.92855948 -0.28818053 1.3294511
-0.11262608 0.057427891 0.36307907
-0.1308046 0.05751247 0.34764147
-0.86576611 -0.038961262 1.0798645
0.70825249 -0.43116108 4.9755082
0.35426968 -0.071719527 0.56767082
-1.0143299 -0.21124801 1.3893504
1.1002176 -0.020924322 1.3981662
-0.20262498 0.050730452 0.29033804
0.12259489 0.04459402 0.32208443
0.3301239 -0.061224885 0.56577253
0.28435946 -0.07013911 0.59960413
-0.82305712 -0.075332835 1.1030779
0.13766146 0.029620454 0.32137871
0.1698271 0.024491854 0.31707573
1.1667187 -0.29940209 1.7705164
0.33802789 0.032602571 0.59296131
-0.055370808 0.054536708 0.64303732
-1.0593312 -0.19067138 1.3334169
-1.2663662 -0.45611122 2.6474748
-0.83219332 -0.076393001 1.0821543
-0.45019609 -0.19132408 2.5098877
-0.76361281 -0.3977797 2.491652
-0.17227393 0.052320644 0.51971388
-0.92686373 -0.32062149 1.4397397
0.14317894 0.022663239 0.3130312
0.70913631 -0.42440566 2.2024045
-0.95692557 -0.30633375 1.3482838
-0.80942243 -0.20786688 3.1238036
-0.54386061 -0.10536753 1.6185269
0.88216895 -0.010866921 1.2774625
1.6901438 -0.36997285 2.4555054
0.17526478 0.048026264 0.3297267
0.59813482 -0.037761368 1.1723142
0.11829025 0.053009868 0.44803095
-0.37368673 0.057025306 0.72528601
-0.96271712 -0.23345494 1.5042706
-1.0555041 -0.23973867 1.3072352
0.1213007 0.044911247 0.4924984
0.56898981 -0.19117954 2.452991
-0.37074488 0.05800017 0.54182816
0.52664798 -0.17901996 2.2416487
0.0056827664 0.055339579 0.34436369
-0.52279276 -0.080288388 1.978766
0.31765443 -0.053644672 0.57301998
-0.97169608 0.032512594 1.561244
0.5588209 0.042208217 0.88813925
-0.99240679 -0.013099264 1.3904381
-1.0892024 -0.31492352 2.4911208
-1.0582166 -0.29017565 1.3799338
0.11862117 0.054035068 0.36457014
-1.3216879 -0.44899553 2.6656156
-1.0479674 -0.23682934 1.294044
-0.83445233 -0.03856159 1.0461416
0.22439718 0.047524601 0.39932203
-0.93385631 -0.48412868 2.4910569
1.7203755 -0.025466941 1.9980693
-0.34596556 -0.1638439 2.4827275
-0.84510213 -0.079656027 3.928503
0.32133216 -0.12864295 0.58653021
-0.80468863 0.0036156848 1.0273881
-0.8872444 -0.27138579 1.3391056
0.1778844 0.047515586 0.33540487
0.68039078 0.0210642 1.1191916
-0.18357235 0.056633439 0.51370382
-0.35004121 0.052684702 0.78533173
1.3667982 -0.4040814 1.8244352
-1.0628111 -0.19116467 1.3370838
-1.0691271 -0.19312373 1.3466811
0.039908946 -0.15961605 0.8012948
-0.83716351 -0.034868322 1.0300865
0.33595073 0.029791486 0.58328629
0.34733427 -0.065196179 0.56972647
0.98107904 -0.022230648 1.4150734
-0.54186004 -0.17006022 3.2759953
-0.49673194 0.054980382 0.98976183
0.53863269 -0.020908095 2.6771402
0.64852875 -0.39633304 2.1222606
0.34022987 -0.10720699 0.56873846
-0.84703809 -0.013996888 1.0468893
-0.22532004 0.050600979 0.30066681
1.0996563 -0.02269531 1.3960848
-0.85000652 -0.3428838 2.4563065
0.017717779 0.054790158 0.34006357
-0.12721372 0.058016025 0.33169127
-1.2727542 -0.2667821 2.5482974
-0.1810165 0.058390267 0.37880659
0.9791736 -0.012553047 1.4294181
-0.38285661 -0.39433387 2.7212033
-0.12666351 0.058192752 0.32863569
0.3525961 -0.068463072 0.57228231
0.31917042 -0.06050285 0.580688
-0.16965717 0.05220978 0.50834417
-0.11963403 0.05833558 0.35079622
-0.87618786 0.040014189 1.0843563
-1.0974078 -0.21765625 1.3393602
-1.027277 -0.21419489 1.4111452
-0.81165284 -0.30190834 3.9795594
-0.76160973 -0.34667704 2.5982561
0.93836015 -0.077161379 1.4282479
1.3868527 -0.4232296 1.8324237
0.096824229 0.053823728 0.57111311
-0.16544354 0.053474143 0.72102737
1.0883033 -0.067626528 1.4060178
-1.05843 -0.22826037 1.3039179
0.941145 -0.077396303 1.4336429
0.0049117804 0.055688754 0.34494543
0.068399012 -0.17324293 0.82083464
-0.88264591 -0.15504491 2.4175801
1.11607 -0.40055582 1.7635465
1.151509 -0.35003349 1.7754178
0.12278515 0.045510121 0.32497501
0.10654581 0.056776702 0.28743315
0.019696176 0.055459067 0.34073734
-0.052100241 0.053769201 0.64303684
-0.20486665 0.05162365 1.1257439
-0.87345845 -0.2130281 1.2960525
0.30391973 -0.081316151 0.57441807
-0.17261976 0.052448012 0.49454737
0.22035074 0.050494559 0.27890396
0.98739618 -0.038452864 1.426856
-0.11190629 0.057438735 0.36290503
-0.96925372 -0.16408178 1.2882543
0.31900209 -0.045086764 0.57416964
0.61282891 -0.44443572 2.2112699
0.45935506 -0.083774276 1.5459175
0.34941834 -0.068862855 0.56793118
1.1413183 -0.3405526 1.7386804
0.8619594 0.015648924 1.0452585
0.16435313 0.027100297 0.31726408
1.4200115 -0.35028407 1.6629114
1.1738219 -0.21988401 1.7648468
0.94031459 -0.075836442 1.327795
0.33744055 -0.034290008 0.64286661
0.31819159 0.034771647 0.57398081
-0.2789225 -0.37856457 2.7199306
-0.26757121 -0.27365187 2.630301
0.54726118 -0.1908114 2.3515086
0.34965384 -0.082786687 0.57453537
0.48281795 -0.23704126 2.495728
0.33526689 -0.065092303 0.57899904
0.1584571 0.056374855 0.32220268
0.45287079 0.038066819 0.70660734
0.14403111 0.02268892 0.31448793
0.13579237 0.048018847 0.76101685
0.2209996 0.043204054 0.28417826
1.3199477 -0.29650769 1.8758154
1.1787949 -0.21240622 1.7746882
0.17019671 0.024598755 0.31800652
0.31347811 -0.047247358 0.55733585
0.5116263 0.040332824 0.70368195
-0.050091028 0.058637239 0.31379271
-1.007391 -0.25939059 1.285912
1.3266797 -0.30492997 1.9160714
-0.16772276 0.043216463 0.92657423
-0.24413425 0.054787438 0.35162401
0.28198391 -0.080308549 0.68855524
-1.056783 -0.30689624 2.4144273
-0.50850731 -0.055584997 1.0941601
1.4900315 -0.37801635 1.7614579
1.1338711 -0.041356817 1.3833442
0.33053148 0.029163353 0.57463408
0.1233266 0.044268847 0.49638462
-0.20382571 0.051501982 0.28869343
-0.83292347 -0.016400035 1.0451598
-0.54185981 0.034503851 0.79392576
-0.16168714 0.052278221 0.69165421
0.11655658 0.019727562 0.35141945
0.33281094 -0.050011545 0.56147575
0.21497101 0.051444609 0.33702278
0.11434382 0.05037193 0.34922361
0.044954062 -0.16033027 0.77551508
-0.50551313 0.041327048 0.80756378
-0.35379702 0.053616248 0.79741955
