# .PCD v0.7 - Point Cloud Data file format
VERSION 0.7
FIELDS x y z
SIZE 4 4 4
TYPE F F F
COUNT 1 1 1
WIDTH 617
HEIGHT 1
VIEWPOINT 0 0 0 1 0 0 0
POINTS 617
DATA ascii
0.36198407 -0.078893729 0.47718048
-0.1949355 0.050986268 0.47460413
0.28740585 -0.090045087 0.47211409
0.27974933 -0.071709968 0.47698641
-0.49489957 0.051820062 0.69252443
0.1197874 0.03576944 0.38162136
0.1164341 0.036954917 0.20944166
-0.90830547 -0.22448397 1.4263482
0.5441739 -0.14283782 2.0716882
-1.3985386 -0.46018612 2.643065
-1.3049531 -0.26640716 2.4459395
-0.9061535 -0.15205431 2.2803698
0.56982225 -0.41252562 1.9540272
-0.92043012 -0.3627955 2.2678213
-0.52103347 -0.036244117 2.165297
-0.17946184 0.05630859 0.50106239
0.0098109841 0.058444612 0.30486155
0.31601733 -0.035035081 0.47786808
0.3157841 -0.035021529 0.47350502
0.28880852 -0.10358378 0.47359896
0.33343899 -0.047360815 0.46330023
0.092909634 0.057379 0.50404119
0.11999118 0.03264562 0.19931984
0.1006707 0.050107844 0.6363368
1.6589501 -0.30611742 2.2947989
0.15912569 0.032159854 0.20159769
0.53559381 -0.21350387 2.0580401
-0.85307521 -0.23582184 1.2890978
-0.040519238 0.050392024 0.55418968
0.44691831 -0.39307639 2.1634598
0.16490376 0.033669233 0.20084381
-0.78347248 -0.1412237 3.0749869
-0.43105978 0.029413849 2.4663281
-0.33105296 -0.23065668 2.4268994
0.14781797 0.030333348 0.1992588
0.3139497 -0.061976261 0.46845627
-0.53146642 0.049050882 0.87871552
0.16873741 0.036863133 0.20325518
0.97673756 -0.076050438 1.4093471
0.0093827844 0.059797496 0.30234528
0.10318446 0.017967142 0.2610817
-0.049959898 0.057568956 0.30652428
1.1788442 -0.0034449175 1.3569641
-0.5228278 -0.053759053 0.98282433
-0.5515421 -0.048554033 1.5020289
0.69567961 -0.42405054 2.1234479
0.59609562 -0.29711664 2.1134887
-0.14903957 0.033855148 0.79700375
0.52965266 -0.36143577 2.3782439
-0.96642441 -0.55526149 4.2515378
0.49292821 -0.41364363 2.3346491
0.64660066 -0.42362386 2.1169748
-0.28112555 -0.071851701 2.1815944
-0.30967754 -0.28093603 2.6623383
0.58508426 -0.4249894 3.9298687
0.11483091 0.041334026 0.34866142
0.11373109 0.022774667 0.24156761
-0.19035387 0.056648694 0.24304724
0.78853029 0.023580533 0.99310827
0.16456681 0.027859163 0.20308828
0.26271796 0.047159344 0.37791252
0.70044833 0.023528069 0.9422555
0.12094593 0.029848717 0.20387316
0.96685153 -0.033702455 1.3152771
-0.86570281 -0.25055304 1.2620125
-0.97339147 -0.23118061 1.3159342
0.0092645288 0.056814384 0.28648901
0.087373018 0.054035857 0.44898653
0.49430102 -0.17778265 2.1106057
-0.90865272 -0.21346697 1.233984
0.4698599 -0.19941312 2.0228615
-0.90686101 -0.21333718 1.230145
-0.31503701 -0.23102573 2.5372987
0.49318427 -0.41669798 2.3442268
-0.29256004 -0.36306989 2.8745155
0.31426477 -0.10428879 0.4712081
0.32847303 -0.061313443 0.46702576
0.1138106 0.04098919 0.34519386
-0.19335026 0.05277738 0.38604069
0.13036704 0.03185492 0.19891644
0.51458424 -0.24954686 2.2435646
0.08029151 0.038870491 0.8024416
-0.067942381 0.062036745 0.35050869
-0.064669847 0.058998231 0.2514863
0.59105855 -0.30353466 2.0142627
-0.16717494 0.054186374 0.57204008
-0.196145 0.050871335 0.47685766
0.29598069 -0.021487884 0.58656502
-0.84882373 -0.33828944 2.6221123
0.10934806 0.040317412 0.23640394
0.11729896 0.047966897 0.20851994
-0.15939724 0.050513469 0.56870508
-0.081234753 0.059127346 0.2661376
0.11636209 0.026046025 0.20833158
0.34315181 -0.062080182 0.46420431
0.30140424 -0.037708454 0.45740986
-0.18978959 0.055038415 0.3633256
-0.96643001 -0.45502681 2.3378429
-0.55679446 -0.052002169 1.5205536
-0.8786431 -0.19953883 1.3553033
0.11307371 0.033342168 0.21173763
-0.10564524 0.059199661 0.31635046
0.52103382 -0.18740603 2.0738654
-0.20610112 0.063458733 0.44444704
0.48493224 -0.09029793 1.7538943
-0.76064485 -0.31534696 2.3970795
-0.85229677 -0.15507755 1.2335191
-0.85825497 -0.26646388 2.2445455
-0.92872864 -0.36032274 2.3326259
0.30834424 -0.058128886 0.46986675
-0.8781361 -0.3486352 3.3304539
-0.22041786 -0.14763784 2.1578026
-0.22282434 -0.1765354 2.1978292
0.38872284 -0.34107354 2.3175545
0.12320852 0.033122867 0.20276642
0.29289144 -0.10501929 0.48123884
0.31833279 -0.043999501 0.46864986
-0.18447334 0.060563881 0.26280499
-0.19146645 0.060427733 0.26512623
-0.42358106 0.045885257 1.2327175
0.98196524 -0.011957549 1.3366046
1.0670323 -0.063946046 1.3504157
0.11343521 0.053097077 0.33986616
0.4339096 -0.11810539 1.3475986
0.033531725 -0.14864162 0.66511965
0.11289483 0.051837951 0.33846807
-0.97743863 -0.2000165 1.2103047
0.13943821 0.020324361 0.20198202
0.15911543 0.032153085 0.20143604
-0.10119963 0.058096379 0.4420557
0.1488452 0.032115988 0.20059967
0.33589631 -0.10378245 0.46175671
0.13867748 0.025397563 0.19881439
-0.058505774 0.056409821 0.54203939
0.1327337 0.029802654 0.20372677
0.28903353 -0.089657925 0.47447681
1.0967951 -0.067206301 1.3170605
0.11498064 0.025837595 0.2059741
0.11293489 0.028273916 0.20740366
-1.3247893 -0.40369928 2.3635368
1.3512158 -0.34859204 1.6930757
-0.18363166 0.056961358 0.48677683
0.11385906 0.036554724 0.32972383
0.44431132 -0.092446186 1.1653738
0.52599198 -0.22747406 2.3403802
0.44419056 -0.34152514 2.4142542
0.33878547 -0.031754039 0.62330532
0.67624611 -0.3785221 2.1702657
-0.90300816 -0.21295378 1.21945
0.10831237 0.039266251 0.25175381
-0.32139432 0.050239716 0.49644566
0.083746731 0.059239946 0.32964754
0.11372346 0.031837635 0.20898056
-0.19861227 0.054633394 0.31205988
-0.19651252 0.056076914 0.29930544
0.16953158 0.051209968 0.21709204
0.10895836 0.048610047 0.2319293
0.12913698 0.036691599 0.23956251
0.29186785 -0.041550122 0.47434139
-0.11855763 0.055290289 0.43777227
0.11038297 0.031390831 0.18680573
0.11318988 0.031483568 0.20773649
-0.5802893 -0.051584058 1.0278935
0.08543098 0.056552999 0.39666557
-0.51511747 -0.05249197 0.96522999
0.10892904 0.041234154 0.23507547
0.11506939 0.056058057 0.33834076
0.10826975 0.04026451 0.23373032
0.10856748 0.043126784 0.23688364
0.12941808 0.036668755 0.24132109
0.12931776 0.029935159 0.19491196
0.12851489 0.037111416 0.23656178
-0.5113253 0.053124599 0.95773888
-0.8324582 -0.21140125 1.2125201
-0.064998865 0.073245898 0.39787006
0.58227307 -0.30215809 1.9773579
0.60196573 -0.34331891 2.0176692
-0.50026447 0.055435307 0.85021687
-0.85490078 -0.25720367 2.1635575
-0.92348248 -0.19139054 1.4404178
0.097885191 0.054997504 0.7210269
-0.50841314 0.053784695 0.71437454
0.650204 -0.26120171 2.0586982
-1.2622678 -0.4569093 2.5339918
-1.6231868 -0.48768634 2.8709693
-1.3379102 -0.27667215 2.4724956
0.35027748 -0.067490391 0.46014118
-0.12351805 0.037597463 0.77991056
0.49567658 -0.4389731 3.0458317
-0.89092773 -0.14762703 2.2196679
0.65478474 -0.39842942 1.9924293
-0.3262887 -0.38516438 2.4504747
-0.32321626 -0.37838247 2.5962996
-0.9188121 -0.23537192 1.195322
0.48664206 -0.13667899 1.5347376
0.12205523 0.029832462 0.20548391
-0.3320145 0.060950711 0.42823458
-1.5538406 -0.45399284 2.7145772
0.11715317 0.031616911 0.19127131
0.0723508 0.057726838 0.24486637
0.110138 0.04058937 0.23899508
0.1208747 0.032540306 0.20259809
0.11930341 0.025219098 0.21068287
0.009863317 0.057822689 0.30140114
0.31355923 -0.031266943 0.50096703
1.2807705 -0.12471836 1.5672383
-0.85071522 -0.26803231 1.2335553
0.31572115 -0.051951684 0.42119455
0.31712794 -0.035711341 0.47430038
0.090683103 0.056378528 0.4843688
-0.8528313 -0.27103612 1.2353506
0.17190361 0.043232337 0.20834923
0.12574506 0.0097704902 0.22127914
-1.3433621 -0.43362397 2.5576434
-0.18433547 0.057217486 0.41347313
-1.253325 -0.44345036 2.5804486
-0.3065002 -0.14771426 2.5064006
0.13791084 0.024803465 0.19790602
0.12798923 0.017595937 0.20905924
-0.20552367 0.058885191 0.35637045
0.11455476 0.022933159 0.24409723
0.28986502 -0.089689039 0.47554588
-0.12765419 0.059187688 0.29260349
-0.92803103 -0.10564291 2.2351761
-0.12874651 0.059916429 0.29868841
0.65209574 -0.22968072 1.8042121
0.37503749 -0.042728871 0.69628716
-0.29766089 -0.17241374 2.3408928
0.35122699 -0.24562392 2.6595016
-0.14702386 -0.50598615 3.5138445
-0.22324008 -0.19517696 2.2977824
0.15624064 0.045657065 0.80598736
0.12609661 0.009891808 0.22194147
0.33086652 -0.05556298 0.46647882
-0.99492735 -0.46085745 2.363781
-0.91846448 -0.21797115 1.2315474
-0.34349591 -0.41628718 2.5796018
0.28889179 -0.041718982 0.47886515
0.34034139 -0.055553108 0.46127939
0.3007499 -0.078764513 0.47064161
0.52813464 -0.14099526 2.0017042
0.086331189 0.058500588 0.52785206
0.10597509 0.040731326 0.22754049
0.38701457 -0.019449078 0.70294952
0.086640596 0.033162288 0.2495079
0.11034542 0.022204794 0.23381329
-0.21485299 0.049806103 0.37671185
-0.11509621 0.053589709 0.25630999
-0.11124533 0.12457538 0.85703039
-0.8495391 -0.38312715 2.4053397
-1.0561211 -0.099704064 1.2960567
-0.89098221 -0.25073719 1.2995677
0.12668031 0.021242727 0.20507431
-0.11332929 0.057708096 0.48656273
-0.047476172 0.054872096 0.37524223
-0.1182521 0.061366074 0.25990391
0.34325898 -0.079102084 0.4620409
-0.87092465 -0.3839933 3.9242144
-0.30977011 -0.20846188 2.5152278
-0.29849768 -0.17650288 2.3949609
0.56136543 -0.19024962 2.0934439
-0.10653937 0.059788652 0.31907606
-0.12306255 0.057292096 0.28357029
-0.56508428 0.046974499 0.76098204
-0.55349237 -0.22383642 3.055223
-0.21220195 -0.1872859 2.188869
0.10879958 0.054667149 0.23502254
-0.89785045 -0.48708934 2.3548284
-0.97682101 -0.4558847 2.3750958
0.15460807 -0.16103843 2.216403
0.14906496 0.032310404 0.20063543
0.94878703 -0.074767694 1.3142323
0.12792861 0.029255964 0.19675541
0.10933542 0.053413302 0.23255348
0.36504441 -0.044475399 0.68082333
-0.50584692 0.064532772 0.6595993
0.16603696 0.027780505 0.20498419
0.94274348 -0.072953165 1.3098283
0.11469507 0.022976266 0.24395084
0.44552547 -0.33866674 2.4074941
1.2032814 -0.056081682 1.5860305
0.52904731 -0.1389648 2.0070043
0.31221092 -0.034405597 0.46741962
0.349307 -0.055334322 0.46405697
0.13870865 0.025523221 0.19875193
0.53808504 -0.28347927 2.1922035
1.100421 -0.056587093 1.3054509
0.31190646 -0.049651451 0.46714878
-0.88833922 -0.13922286 1.1378455
0.15802687 0.032255381 0.19975138
0.30494004 -0.11276331 0.62299252
0.036275923 0.059209928 0.25004721
-0.18180287 0.058807574 0.62709904
0.58042294 -0.40092921 2.231492
-0.52007335 0.047153044 0.85481215
0.1662966 0.028200433 0.2065506
0.14799654 0.029422665 0.19922924
0.13638139 0.031956322 0.20364714
0.15920484 0.032371484 0.20101404
0.1112799 0.047297768 0.23843813
-0.13374168 0.062654287 0.31493664
-0.19496495 0.053737253 0.38882828
-0.16283065 0.051294461 0.45754194
-0.49153918 0.044616938 0.81511402
0.11885351 0.048716858 0.21123838
0.1184122 0.057778977 0.33476877
0.57632321 0.036290832 0.67241383
0.32372898 -0.063695155 0.48636293
-0.012014925 0.04772535 0.62590694
-0.97967833 -0.24446166 2.210042
0.096366107 0.058273159 0.27943993
0.083712935 0.055828448 0.38537502
-0.35772544 0.056147024 0.55030775
-0.19401085 0.049626406 0.26995373
0.14950621 0.029478554 0.20209932
-0.29639757 0.067134872 0.51149464
-0.4337545 0.047705024 0.71959448
0.11359692 0.050612636 0.34001493
0.43630308 -0.067799754 1.409081
0.25415486 0.0050953031 0.53004026
0.11436594 0.050978549 0.34444857
0.66796237 -0.41423523 2.1492238
1.1200907 -0.068783887 1.3454757
0.53733128 -0.19040042 1.9816895
-0.19563478 0.053841129 0.39036512
-1.0133743 -0.40099245 2.3269701
-0.20898014 0.048640121 0.38163757
0.31514102 -0.037633784 0.46892405
0.16482592 0.033951689 0.20229626
0.1528452 0.030454032 0.20880842
0.35684365 -0.072706617 1.626277
-0.1557104 0.043469161 0.25383663
0.19447958 0.020021617 0.5214901
0.040006459 0.050458826 0.66542006
0.28827357 0.049803216 0.33543873
0.30146843 -0.043992423 0.47162819
0.29063952 -0.090850689 0.47801828
0.11900169 0.029296046 0.2001195
0.076404989 0.019148467 0.11571884
-0.11703968 0.054787345 0.27127075
0.11679548 0.050199546 0.34884787
0.14152348 0.02964537 0.20054722
0.47728831 -0.086914442 1.7228489
0.48452979 -0.41551286 2.3213258
0.33252174 -0.047624625 0.46324921
0.12001032 0.012362694 0.2830019
0.32771969 -0.061384611 0.46871567
-0.1774286 0.047757678 0.49502039
0.43472558 0.006899599 0.97716808
-0.18434995 0.061420657 0.27500916
0.13957065 0.020445824 0.20217466
0.31843102 -0.064650171 0.47686768
0.11479318 0.036819793 0.2055397
-1.0881462 -0.44049385 2.3814607
1.1684511 -0.057226494 1.5309367
-0.55348748 0.044296678 0.87845469
0.11425543 0.019707642 0.21331453
0.11583316 0.042185612 0.35141039
0.12912989 0.028930906 0.19569111
0.95518857 -0.072971761 1.3222299
0.14332134 0.022667877 0.36032581
-1.384903 -0.42004547 2.4487023
0.31394792 -0.06181518 0.4669919
-0.40929872 0.045795824 1.0790153
0.34530979 -0.061892577 0.4596858
-1.4970222 0.36042535 2.1464076
-0.5670163 -0.050197095 1.0441175
-0.30606854 -0.27970934 2.636611
-0.061220586 0.060051858 0.58792925
0.27664614 -0.12457947 0.58264017
-0.81673414 -0.20608675 1.1913404
0.49859446 -0.27427435 2.1611228
1.3386045 -0.34563911 1.6770673
0.1130445 0.048817631 0.33662653
0.81696099 -0.20319828 1.5752835
-0.51524144 0.043670703 0.74559689
1.2212787 -0.064292669 1.6044254
-0.8385101 -0.22062689 1.2278562
0.063508153 -0.00021599233 0.14637756
0.33390617 -0.10525792 0.47396183
0.32896936 -0.088863842 0.46956825
-0.7685979 -0.38030902 2.2828922
0.27999097 -0.07185749 0.47832727
-0.68212706 -0.23038048 2.0945234
0.083594799 0.055979237 0.37542248
0.13885993 0.032266423 0.20102596
0.109622 0.022084719 0.23194599
-0.79171783 -0.18988171 4.2667146
0.11385882 0.030461513 0.33017826
0.30270815 -0.051485404 0.41441202
0.43787593 -0.060100503 1.4118028
0.11111367 0.021814782 0.20975113
0.9218716 0.0026272498 1.2989058
-0.76502937 -0.31659308 1.6792526
-0.94584376 -0.14388508 1.2231827
0.11153215 0.019245876 0.20865297
1.4907174 -0.088046573 2.1358833
-0.23182845 -0.17938665 2.2952456
-0.30823636 -0.36785334 2.642684
-0.31526142 -0.40938479 3.1945662
0.59200948 -0.013915438 1.6305795
0.57058924 -0.032958888 1.0100107
0.99404079 -0.3089855 2.1065087
-0.88602656 0.0079667456 1.3045392
0.57052571 -0.033012517 1.0215406
-0.23568815 -0.32296994 3.8377004
-0.16730934 -0.14150843 3.5397902
-0.35217071 -0.405586 2.615633
0.91804606 -0.16177511 2.0732923
-0.85994643 -0.44168824 2.3904929
-0.8558473 -0.39820763 2.4188347
-0.93663019 -0.25177863 2.6433177
1.13304 -0.33259284 1.6412559
1.0849974 -0.015083633 1.2920175
-0.62576717 -0.3596558 3.3142715
1.0382962 -0.014346369 1.2813754
0.96315116 -0.011659931 1.3112845
0.27093285 -0.28361106 4.1448951
-0.90920943 -0.35719442 2.2340784
-1.0521879 -0.43508619 2.3269753
-0.2007181 -0.5072841 3.7419066
-0.10827249 -0.52414423 3.5589957
0.27461129 -0.28771555 4.1986117
-1.0425158 -0.41867867 2.3925848
-0.9463523 -0.27121657 2.2026315
-1.2152224 -0.4038955 2.5524049
-0.11095518 -0.52611935 3.6090684
-0.97345048 -0.37675008 4.2191195
-1.0056448 -0.34647736 2.2739596
-0.18246335 -0.49147046 3.5473642
0.96787173 -0.011349548 1.3166156
-0.83383983 -0.41040212 2.3641577
-0.93685764 -0.25425851 2.6543751
-0.91179663 -0.26681778 2.2923656
-0.98397642 -0.45100713 2.3275013
-1.086762 -0.41765887 2.3366752
-1.0871522 -0.39079428 2.2977519
1.0382447 -0.061071508 1.3107677
-0.78314489 -0.23441941 2.4480314
-0.9067983 -0.34040067 2.242568
-0.83620018 -0.38799211 2.7438407
-1.1606977 -0.40155095 2.4104557
-0.8544957 -0.39800444 2.8231521
-0.56170422 -0.065173656 1.4771705
-1.0714917 -0.21401921 2.2394443
-0.72894663 0.0038061067 2.2260118
0.94191402 -0.051271342 1.3186765
-0.9021284 -0.47856486 2.3539743
0.086338818 -0.28788173 3.2145691
0.34528768 -0.062872343 0.46002722
-0.89249295 -0.35638541 3.4620366
0.31455535 -0.061446615 0.46722221
-0.88790125 -0.228333 1.2956395
-0.84661788 -0.42374456 2.3880515
-1.067286 -0.37792042 2.2815366
-0.99359077 -0.56598592 4.3328681
-1.0029271 -0.43021977 2.3058209
0.96778411 -0.056110702 1.3191848
0.96273977 -0.036511265 1.3122892
-0.85104865 -0.38823318 2.3604007
-0.56087846 0.047326084 1.5435271
-0.82403427 -0.23235404 3.8069744
1.0678849 -0.061278395 1.2973833
-0.19281274 0.057906628 0.39464617
1.0316381 -0.060862951 1.2981949
0.85481936 -0.010346111 1.3569417
0.90992457 -0.069112763 1.2629695
0.95204192 -0.27089989 1.7664046
1.085258 -0.015622944 1.2914953
-0.95803326 -0.38293007 3.9962883
-1.2980003 -0.46827227 2.613091
-0.94554323 -0.39834926 4.1981311
1.0476084 -0.012362909 1.2962713
-0.88003224 -0.27129996 1.2730155
-0.96965116 -0.45671716 2.3428383
-0.98544723 -0.2746343 1.475739
-0.92958409 -0.24826396 2.1957431
-0.3415727 -0.2258971 2.4730616
-0.80411988 -0.16117886 2.4306364
-0.95862252 -0.21541217 1.4830656
-0.91539484 -0.19655406 2.201756
-0.84758335 0.021140169 2.1218386
-0.78856045 -0.24494347 2.4567018
-0.51087695 0.043173678 0.68439436
-0.54528493 -0.048509113 1.4895024
-0.72769421 0.0037895143 2.2148323
0.91780013 -0.19879317 2.171443
-0.90358132 -0.251223 1.2007055
-0.89311689 -0.39065284 4.0113788
0.11215973 0.047968503 0.36591434
-0.59537762 -0.35213923 3.1870718
0.28832132 -0.041968085 0.4759407
0.15826035 0.031426646 0.20044851
-0.64776653 -0.04617729 1.7946239
1.045105 -0.29513478 2.2026219
-1.059154 -0.5623911 4.3683124
-0.57893842 -0.16769874 3.1152277
-0.86886889 -0.40425539 2.27002
1.1036937 -0.03701821 1.2827687
-0.18034965 0.054538116 0.42135429
-1.2855287 -0.46667337 2.5879431
-0.32028043 -0.3691065 2.5694828
-1.0509872 -0.43656147 2.3279953
-0.9456529 -0.23302507 1.2167339
0.83662027 -0.0036323443 1.1343989
0.91886133 -0.072266825 1.3139758
-0.96094841 -0.21733645 1.4857492
0.2726962 -0.052739426 0.46672869
-1.2870226 -0.46492338 2.590374
-0.052004576 0.055294596 0.52695465
0.33966261 -0.058745936 0.45073605
-0.83234257 -0.39108542 3.8965297
-0.61019224 -0.27292946 3.3304858
-0.86884755 -0.16753656 1.176477
-0.88445061 -0.25830474 2.222755
-0.18356991 0.00487151 0.93895864
0.090955496 0.057048596 0.47015762
-0.58615047 -0.34107411 3.1102381
-0.95570606 -0.24743411 2.2555847
-1.2199652 -0.10124237 2.333539
0.28523511 -0.061498888 0.47910738
0.1472196 0.03107653 0.19943619
-0.94603175 -0.21201122 1.4514318
-0.37508041 -0.42437276 2.6459212
-0.79303652 -0.39906168 2.3891377
-0.79934996 -0.056938268 3.801713
1.0319173 -0.33779007 1.8851724
-0.17926753 0.022903826 0.90527773
-0.95553213 -0.22932509 1.2594328
0.033340693 -0.15454862 0.68743849
0.78753227 -0.22251153 1.5483141
-0.69176537 -0.23893318 3.4740567
0.9696905 -0.31943467 1.7318349
0.72070724 -0.46144062 5.3762813
0.3485381 -0.068535738 0.45883274
-0.86691433 -0.060861863 3.3702164
0.94740289 -0.27037987 1.7570763
0.3255778 -0.057874493 0.45990992
0.27927965 -0.069003664 0.49706364
0.13238043 0.031930715 0.2042408
0.16586679 0.02740708 0.20520926
-0.062193215 0.057125486 0.5260005
-0.78469425 -0.39340439 2.3629894
-2.3962581 0.0094420463 3.0298333
-0.17895454 0.055052415 0.40953445
0.13922626 0.025408421 0.20045805
0.27017254 -0.16218677 3.1026216
-0.82842845 -0.20059469 2.9567399
-0.55011922 -0.10122416 1.4669209
0.17138422 0.051279977 0.21957779
-0.37320924 0.058092944 0.58829975
0.5421738 -0.38585648 2.1105309
0.12037915 0.032490313 0.20046329
-0.69836873 -0.17211348 3.7361913
-0.53440064 -0.075252973 1.8250194
0.312047 -0.050199784 0.46482325
-0.98765057 0.034355756 1.4400787
-1.3520851 -0.4485656 2.5524945
0.27797985 -0.096698038 0.5598321
-0.96835274 -0.2538203 1.4754114
-0.95303649 -0.47860777 2.3563876
1.1310747 -0.37498349 1.6840959
0.57691556 0.037914284 0.67417812
-0.90731043 -0.075410254 3.9440632
0.5521068 -0.38722464 2.1341772
-0.90174145 -0.27051565 1.2212844
-0.35972768 0.055152345 0.67358255
0.34234196 -0.06205558 0.46253061
-0.42723119 0.04786022 1.2723274
0.97151905 -0.015547983 1.3199034
-0.37088162 -0.38286299 3.3439856
-0.49452144 0.055550598 0.84368467
-0.75288981 -0.09993159 3.5923405
1.0879505 -0.016415399 1.2969184
-0.8696503 -0.33981612 2.3257885
-0.1890555 0.062483214 0.28383207
-1.3041658 -0.2662493 2.4387727
0.34545684 -0.065064855 0.46091127
0.31296027 -0.05698096 0.46995974
0.11464113 0.026687553 0.20594263
-0.77409571 -0.33708748 2.4337845
0.92230946 -0.071304873 1.3207402
-0.16990077 0.055322737 0.58998108
0.92141396 -0.072155811 1.319572
-0.89820868 -0.36705461 2.2578139
0.97474462 -0.21721748 1.7476215
-0.89970487 -0.15128857 2.2779298
-0.058724582 0.056154467 0.52508688
0.28735507 -0.041787297 0.47529697
1.6461477 -0.16061544 2.1279135
-0.20907408 0.053669281 0.96812105
-0.18192226 0.0556283 0.39550686
0.52793282 0.04285245 0.62035513
0.082802236 0.057761602 0.5066061
0.96883255 -0.032509752 1.3168049
0.31417042 -0.042146377 0.46847725
0.44098121 -0.078763448 1.4251003
0.9344278 -0.070265107 1.2356658
-0.30849463 -0.37769485 2.6403084
-0.30306917 -0.27989259 2.6300011
-0.97549289 -0.45722216 2.369235
0.55827063 -0.19502571 2.41292
0.46423584 -0.23454174 2.4243755
0.32792073 -0.061286792 0.46640158
0.13920939 0.025412519 0.19964886
0.32655352 -0.078594096 0.45775127
-1.0707285 -0.30314603 2.2696657
-0.51988894 -0.053528287 0.97718668
-0.61303037 -0.16074663 2.7870555
0.1173715 0.045385629 0.37865114
0.10548323 0.033812799 0.32212925
-0.5551334 0.036927298 0.68419266
-0.17152959 0.055537932 0.5906558
0.11241382 0.022346077 0.2388339
0.33095402 -0.047408231 0.46044683
0.32877195 -0.10362292 0.46565866
-0.36002868 0.0554091 0.67623615
