# .PCD v0.7 - Point Cloud Data file format
VERSION 0.7
FIELDS x y z
SIZE 4 4 4
TYPE F F F
COUNT 1 1 1
WIDTH 600
HEIGHT 1
VIEWPOINT 0 0 0 1 0 0 0
POINTS 600
DATA ascii
1.6240835 -0.11178983 2.7469709
0.98780888 -0.067002386 1.545583
-0.13551927 -0.19886151 2.8786581
-0.19530916 -0.38365838 3.1533329
-0.13137597 -0.19650537 2.8609889
-0.15841228 -0.38071847 3.1734407
2.1477854 0.36519897 3.9868309
-0.1379292 -0.0078285858 1.9914334
-0.19775432 -0.31549168 3.0743186
0.80847818 -0.031340197 2.0084856
-0.83712715 -0.0069321506 1.925544
-0.079392493 -0.34047163 4.2664261
-0.024801433 -0.1648193 4.1528931
-0.23776007 -0.41806602 3.0983341
-0.62683827 0.02525617 0.80785489
1.0210907 -0.18374869 2.6315181
0.75830549 -0.026010595 1.7739408
-0.79790527 -0.48498985 2.8829973
2.0105884 -0.094171248 3.036804
0.15403336 -0.083734326 2.4912221
-0.20232803 -0.37499467 2.9370782
0.92486125 -0.022759706 1.9646156
-0.80430299 -0.0790537 1.49733
-0.74913019 -0.45330057 2.9117291
1.1193829 -0.28157341 2.1239979
-0.75150508 -0.41437471 2.977318
0.1599853 0.04769741 0.71312213
-0.8184883 -0.012318864 1.4705813
0.026176274 -0.38617605 2.8536046
0.3433795 -0.008397121 1.0643947
0.27831256 -0.18203518 0.87735009
1.7197444 -0.076452069 2.1698167
0.15843576 0.019370317 0.7531116
0.21454287 0.046855919 0.35302091
0.30094063 -0.10241606 1.076452
0.1430704 0.043019839 0.85760283
-0.92011553 -0.052400447 1.6263053
0.35218221 -0.066361345 1.0022628
0.17454576 -0.16409883 1.0743687
-0.5186916 -0.40649703 4.1582489
0.16078395 0.047636896 0.7172277
0.35275847 -0.073987402 1.0100429
0.084167123 0.052588608 0.52209425
1.1478074 -0.032145135 1.7927134
2.4907494 -0.14539996 3.7924201
0.34918839 -0.070057787 0.99323297
-0.042437911 0.047774296 0.67922616
0.97928017 -0.08787071 1.7881496
1.1522546 -0.080052175 1.8500154
0.72056121 0.025087107 1.0579684
0.94956738 0.077099912 1.9882371
1.0207741 -0.028943367 1.8036425
-0.02180022 0.044282664 1.1565015
-0.80576545 -0.0821703 1.5072773
0.3118102 0.024953902 0.59763718
-0.82442826 -0.46956757 2.7926595
-0.85459632 -0.39714304 2.6246383
0.43789953 -0.30804509 4.6699286
-0.80326265 -0.36853442 2.7601941
-0.79485422 -0.46947727 3.074023
0.29500926 -0.089077227 1.0539172
-0.9314869 -0.44067618 2.8214877
-0.050958455 -0.54478192 4.4196444
1.342196 -0.32679066 2.2242796
0.43770885 -0.12801746 0.66091275
1.1531465 -0.083914556 1.9442933
0.03651756 -0.54283631 4.0627184
1.1167746 -0.033629544 1.8120749
0.44809467 -0.31665158 4.7873049
-0.87163001 -0.44277254 2.8013618
0.32791805 -0.021542169 1.1066816
-0.91083914 -0.42411199 2.8568518
-0.85474211 -0.28941804 2.785897
-1.0791759 -0.40901646 3.0376737
1.285351 -0.034137972 2.004235
0.033572495 -0.53994358 4.0643663
-0.63729864 -0.31739792 3.6439478
1.1912441 -0.032577306 1.7929075
-0.90189093 -0.35901862 2.8206494
1.1023643 -0.031236947 1.7866051
1.148911 -0.068997689 1.8060544
-1.4159546 -0.11509565 4.2119322
-0.037756264 -0.51134384 4.062356
-0.7228635 -0.42160034 2.8802121
-0.86297292 -0.2828587 3.4064071
0.99694461 -0.091201358 1.8345373
0.209714 0.025351809 0.83111978
-0.9761551 -0.40113911 2.8293374
-0.29559147 -0.39802298 2.9783547
0.21669853 0.047995534 0.35933471
-0.82579869 -0.029526442 1.543175
-0.674043 -0.26987618 2.7991259
-0.80886608 -0.35606161 2.8028624
0.76572889 -0.01262638 0.95481277
0.31718343 -0.10246465 1.11428
-0.97072083 -0.233933 2.797941
-1.0340984 -0.40340394 2.9018686
-0.75877744 -0.43143582 3.5160224
-0.47432649 -0.075655155 1.9343069
1.0110011 -0.073066108 1.7297719
0.21532762 0.048385188 0.350981
0.89863139 -0.23583922 1.9244058
0.37929696 0.014419504 1.0391166
0.3897844 -0.076707639 3.2229602
0.33848709 -0.052499793 0.9952457
-0.76014584 -0.38735321 1.6989782
1.3913746 -0.033565626 1.8449895
0.096013486 -0.25897086 4.2600565
-0.82422012 -0.045456961 1.4780576
1.1821167 -0.091846742 1.750468
-0.80874473 -0.26374528 2.6818144
-0.72979552 -0.52804548 4.3067722
0.45703763 -0.10852621 1.3479292
1.8436637 -0.77759486 5.4104595
1.0137336 -0.068624727 1.8438623
-0.86279696 -0.36526433 1.8603303
-1.0934825 -0.407011 3.0789907
-0.78061038 -0.4817594 2.8307316
0.2191897 -0.31026024 3.7574332
-0.20395982 0.050466117 0.41340923
0.54014391 -0.17260444 0.97672772
-0.8307417 0.0090055168 1.5014131
0.50864214 -0.16639739 0.89616799
-0.81890982 -0.28614759 1.8544133
0.14228731 0.018294197 0.76979947
0.31387043 0.021523774 0.60305476
1.0358162 -0.24047565 1.7757981
-0.47413194 0.030997198 1.2507136
-0.2020371 0.051866777 0.3099103
0.20926988 0.037977166 0.82002234
0.37669975 -0.076252162 0.98740888
0.089002728 0.043810859 0.65931678
0.15538275 -0.19315603 1.1665785
0.090607107 0.041744903 0.68302894
0.22824365 -0.020938873 1.0533831
-0.68482846 -0.34425172 3.6206744
-0.87176114 -0.36708054 1.8919656
-0.19539875 0.055658318 0.2804122
0.34733331 -0.075333618 1.0008323
-0.93543297 -0.15928361 1.7003977
1.1101954 -0.28243831 2.5896409
0.34258205 -0.053887755 0.99626327
0.15613842 0.019326137 0.74672914
-0.76855332 -0.26460662 3.0288937
-0.76173824 -0.4508166 3.0195158
-0.71551806 -0.29748902 3.1601365
-0.80672914 -0.081921645 1.4981611
-0.5013538 0.044714823 0.73195052
-0.1928882 0.051451243 0.54571462
-0.20710599 0.053772397 0.27102947
0.16852379 0.019288359 0.7379725
0.32145655 0.0086888 1.1261609
-0.81798011 -0.036538355 1.5195663
1.1327612 -0.28558224 1.9819329
-0.82384068 -0.27125108 2.6982896
-0.16380954 0.050918266 0.73796439
-0.18291169 0.04921503 0.56572032
-0.046040058 0.049953558 0.47528076
0.50772125 -0.033732764 1.5179513
-0.79362303 -0.56940615 4.7232304
0.41693938 0.03853859 0.69003654
0.36128086 0.036871895 0.45819306
-0.20770198 0.050927475 0.32815266
-0.82168394 -0.014642715 1.4752047
-0.82583016 -0.046113871 1.48156
-0.78180164 -0.032269031 1.4533761
-0.11525178 0.049077697 0.80674577
0.78746825 -0.089802034 1.7177336
-0.88152272 -0.33453715 1.9089148
1.0264475 -0.054342769 1.8185756
1.1558113 -0.032141298 1.8001192
-0.73414773 -0.39613673 2.8508494
-0.69416386 -0.38427943 2.8665736
-0.36056161 -0.027842343 2.3477995
-0.63698798 -0.21200538 3.2938249
-0.52534312 -0.19436699 3.3096426
0.73751146 0.026038138 1.0903599
0.21003115 0.044170052 0.78282857
-0.88620692 -0.36565921 2.8403628
0.38296789 -0.011759818 1.2880857
1.1199129 -0.07848385 1.7796962
-0.35790354 0.051806286 0.7574122
-0.62139922 -0.29392776 3.733567
-0.8368625 -0.26225135 1.7471044
-0.14352232 0.050337248 0.63376689
-0.66310602 -0.070974208 3.524358
0.51016074 -0.064157091 1.0250437
1.1169474 -0.02934096 1.8114021
-0.80367786 -0.19148299 1.7537038
-0.15985149 0.04461918 0.9074657
-0.82561094 -0.29081741 1.8781416
-0.18229336 0.055156127 0.46007657
1.0290837 -0.28929612 2.2653301
0.81388968 0.0088316277 1.4577868
-0.50607985 0.044692107 0.7413075
0.30266851 -0.0099690333 0.77838206
-0.78396088 -0.080336235 1.4656427
0.16309369 0.047317117 0.74055457
-0.65180808 -0.31155658 3.9502618
1.2270079 -0.30739698 2.1516736
1.157341 -0.033720091 1.8091595
0.30686468 -0.041025899 0.56385994
-0.75654846 -0.38414577 4.3061819
-0.83114666 -0.48074511 2.8397591
-0.41210699 0.051270392 0.7093842
0.025404274 0.048635729 0.73254657
-0.78677601 -0.163398 2.7447069
0.094100296 0.054852627 0.3522439
0.21509647 0.049797557 0.27572513
0.41507655 0.037778571 0.68709016
0.46465874 -0.13841572 0.66895652
-0.20322818 0.051213637 0.41222978
0.33497435 -0.051389106 1.0743086
-0.14816397 0.050723299 0.64373755
-0.90005332 -0.35181919 1.8189452
-0.63548988 -0.26670107 3.4010308
-0.59571987 -0.55179775 4.4500866
-0.67525989 -0.36340481 4.0687256
-0.65053481 0.0097719058 2.4036758
0.19475585 0.036903214 0.74923873
0.17536485 -0.15991393 1.1980174
-0.78579813 -0.034024842 1.4525664
-0.055419296 0.05629243 0.30005884
1.1163864 -0.029915169 1.8094389
-0.86693221 -0.47204879 2.9008453
-0.81595546 -0.25313148 2.6630991
-0.18727869 0.059080943 0.2825799
0.094904482 0.048848264 0.69260478
-0.49224818 0.055796795 0.70890546
0.20963514 0.040212512 0.34740138
-0.35575944 0.050973162 0.75605798
-0.78803176 -0.027984709 1.4752796
-0.1953389 -0.19784036 2.4043229
-0.88651305 -0.36694375 2.8401563
-0.055233896 0.056855924 0.30937648
-0.67266113 -0.17381161 2.8601563
0.35956514 -0.15373534 0.74027276
0.022081971 0.047034416 0.6482985
-0.41057378 0.029755661 1.9883707
-0.83702272 -0.085103504 1.5101426
-0.76565689 -0.39113656 1.7151845
0.21884096 0.049478799 0.35684466
-0.36147022 0.053818859 0.65272164
-0.88900644 -0.3909668 1.845577
-0.1969437 0.051258508 0.30053735
0.17481005 0.046470821 0.70054698
-0.21084428 0.054452073 0.27610826
0.17770052 0.04692746 0.71829629
-0.84635514 -0.21857494 1.938966
-0.91946834 -0.34236154 1.787607
2.0112782 -0.11379816 2.5124967
-0.84420961 -0.22061154 2.8572958
-0.80468875 -0.48380473 2.8908074
0.073857546 0.055796266 0.30639696
-0.49394566 -0.1326234 0.69043279
-0.50254267 -0.14367661 0.7173965
0.32313842 -0.114349 1.1678298
-0.10345453 0.049947765 0.65610719
0.21813858 0.040054977 0.41693735
1.147017 -0.031824082 1.7797301
0.06886524 -0.16505507 1.186682
-0.73774892 0.0054415166 2.6186488
-0.69011956 -0.26238403 3.0406892
-0.35702151 0.052379068 0.68841386
0.074008763 0.055939008 0.30114722
-0.46727502 0.030934703 1.2255833
-0.83062917 -0.26107353 1.7333181
-0.047282994 0.052118815 0.52953458
-0.44527447 -0.059199676 1.8757632
-0.6247254 -0.011667378 2.7396133
2.006074 -0.10926818 2.4121349
-0.1971119 0.060238667 0.91677833
-0.055549026 0.053389378 0.44075894
0.32227826 -0.13386279 0.72431922
-0.67444283 -0.38137627 4.1976891
-0.5978865 -0.20035025 3.5996473
0.07902801 0.051887274 0.41281128
-0.49024749 0.056300022 0.65386891
0.1797725 0.055498973 0.29343367
0.36059439 0.037240714 0.45705795
-0.21356285 0.05300476 0.30681872
0.074312747 0.056790385 0.31351495
0.42673683 -0.14171851 0.61828637
0.16051316 0.047153518 0.73226285
0.31360841 0.030433148 0.59009027
0.36824512 0.043749407 0.43679786
0.21602994 0.050343234 0.26579332
0.32055426 -0.0070723444 0.56490088
-0.79115802 0.032419354 1.0273745
0.33539921 -0.0080257356 0.60229111
0.26489204 0.02832811 0.52305675
-0.49994659 -0.14339688 0.71354079
-0.60719019 -0.145502 0.7990129
-0.18865925 0.051121771 0.53682733
-0.46134722 -0.12036968 0.68332601
0.29697925 -0.14620835 0.69627309
1.9931152 -0.10721999 2.3911722
0.16984624 0.045439307 0.68331456
1.2859032 0.032988414 1.929127
1.3302572 -0.032466456 1.7545917
0.15901405 0.01413545 0.59855652
-0.82362705 -0.29611844 2.6922562
-0.090456128 0.045586623 0.72974896
-0.68146688 -0.38456091 4.2283163
-0.88483232 -0.33772695 1.9131916
-0.14499253 0.051366363 0.64777589
-0.86910051 -0.38078701 1.7967341
3.0554633 -0.49155191 4.1076488
0.13533455 0.036949873 0.8831985
-0.79939073 0.032189172 1.0404379
-0.49398744 0.033406589 2.0427239
0.20576715 0.044285093 0.78240275
-0.82045227 0.033586401 1.0761797
0.13973081 0.037966792 0.90772748
0.14185822 0.034741335 0.9682014
-0.046577632 0.049320087 0.67651916
0.31398344 0.030274995 0.59007168
-0.48925358 0.0096675642 2.1653383
-0.62526327 -0.22749901 1.4746358
-0.65865093 -0.02987764 2.7846062
-0.49606425 0.005707074 2.206979
-0.79214054 -0.45454746 3.8104427
-0.45207256 -0.13093126 2.8014681
-0.6822533 -0.23045599 2.9166
-0.67405421 -0.02928637 3.8361876
-0.63013273 -0.28130993 3.9419844
-0.47890973 -0.39181989 3.9015477
-0.11180419 0.057740442 0.2865603
0.32286823 -0.055526592 1.0153282
0.30396849 0.039759867 0.46793342
1.7875152 -0.17778111 2.6285102
-0.20903939 0.051453583 0.40937233
-0.19522297 0.039455358 0.71989894
0.14051461 0.038270976 0.93091655
0.16142696 0.053665064 0.34491014
-0.11613816 0.056051616 0.38484263
-0.37233227 0.054802261 0.72475696
0.31088847 -0.12785134 0.70567679
1.1328561 -0.31372291 2.6859343
0.082492054 0.053863421 0.44190502
-0.056810349 0.05321065 0.42654181
-0.38700843 -0.1637992 3.1050355
0.26956511 0.030966692 0.6583693
-0.72570783 -0.37328872 1.6799018
-0.19966775 0.049471602 0.34258294
-0.18982774 0.03837024 0.6877625
0.34862065 -0.075813673 1.0056946
0.0339486 0.045600109 0.76815104
1.3377357 -0.030022569 1.5678203
-0.77804917 0.0097332001 1.4562585
0.021685243 0.048262805 0.66681647
0.31285423 -0.11051589 1.0981686
-0.064083815 0.058007412 0.31850004
0.78368407 0.025191208 1.0708206
-0.20695025 0.061541617 0.9120276
-0.19587773 0.054274358 0.34857655
1.114913 -0.07720504 1.7640412
-0.91393524 -0.33467007 1.7676361
0.080052316 0.051928751 0.42762685
-0.52246195 0.030608563 2.144727
-0.21092457 0.0520484 0.33527589
-0.81395286 0.011267133 1.5362012
1.3614457 -0.31251737 2.2622788
3.1501124 -0.43689936 4.2687607
0.23293501 0.049705949 0.87444234
0.31658107 -0.0307559 0.58890653
1.1499209 -0.24706832 2.6572192
-1.2687416 -0.24744055 1.9226539
1.5389452 -0.033668958 1.8171875
-0.093017757 0.047690585 0.77034593
-0.49767584 -0.16403016 0.76149201
1.9473643 -0.035185777 2.5294225
0.21979016 0.047516834 0.44825292
0.2183888 0.047205746 0.34795928
0.36780018 0.044052139 0.43534994
-0.19984341 0.043944098 0.38492894
-0.20497251 0.050898332 0.41702795
0.38346261 -0.011497132 0.44379234
-0.20597732 0.053568199 0.26776457
-0.17964739 0.04917524 0.54029918
0.38445222 0.035228685 0.59694457
-1.0944796 0.014684796 1.9271657
1.1342242 -0.05160857 1.7309887
-1.7665982 -0.36331788 2.7108543
0.22093642 0.050922789 0.37512684
0.30461574 -0.15021512 0.72061563
-0.4978531 -0.41733047 4.1586008
1.0901527 -0.0039452314 1.3408787
-0.85642534 -0.25251096 1.8285606
0.37735814 -0.082069479 0.97703671
0.33398569 -0.050963707 1.0557215
-0.10463983 0.050078191 0.65090442
-0.062735319 0.056697764 0.31029296
-0.055735767 0.057546154 0.31445694
0.193973 0.043402404 0.32791328
-0.18375707 0.049954712 0.57608223
0.23458797 0.04291315 0.66506553
-0.20101547 0.054089721 0.29472709
-0.18222648 0.055426203 0.45961261
0.17649585 0.057167202 0.43769526
0.083395302 0.050990932 0.53125072
-1.005528 -0.41246045 2.6851084
0.33274621 -0.16002911 0.71564746
-0.038655758 0.047251329 0.61196399
-1.0022397 -0.23443893 1.4024861
-0.20710772 -0.37875417 3.0217407
-1.0426924 0.014576929 1.8252757
-0.90299124 -0.297261 1.7246172
0.22981977 0.041901648 0.6500299
0.0633775 0.048752066 0.26173663
0.37514263 0.044727422 0.44273567
-0.16168255 0.05665173 0.75158811
0.16356575 0.052865691 0.39740276
-0.93116659 -0.44299242 2.8290651
0.36206996 0.033291481 0.62208104
1.8593552 -0.033705018 2.4005845
0.28008634 -0.073127858 0.91483855
0.2674889 -0.0020062029 0.7208817
0.38281715 -0.0098842457 0.82044864
-0.9258135 -0.30701414 1.773896
-0.016930342 0.043791056 1.1036894
0.59718639 0.012086727 1.5557187
1.0535371 -0.27728122 2.3229158
0.30828953 -0.075251363 1.0185716
-0.18261665 0.053222287 0.50098133
0.32946533 -0.057030171 1.0427873
-0.70376724 -0.38859162 3.2104185
-0.97614795 -0.31837767 1.7819407
0.15701342 0.066907644 0.3933413
-0.50843233 0.048275135 0.65112662
0.24626982 0.035854287 0.49960613
-0.18915194 0.059792764 0.2867434
-0.13760382 0.053713843 0.2697742
-0.056343198 0.053170402 0.43609691
-0.52364671 -0.12472301 0.73285747
-0.53352159 -0.12808552 0.76197314
0.23288828 0.045253895 0.54531598
-0.4943552 -0.1631225 0.72047448
0.14361602 0.052937113 0.41414189
-0.17545277 0.069597587 0.37011504
0.22940481 0.039080951 0.4267838
-0.067217022 0.062715635 0.26719189
0.14297581 0.060807277 0.30369401
-0.10702497 0.053738359 0.2486074
-0.16926247 0.066250809 0.36200786
-0.21196204 0.053450473 0.29509687
0.21229225 0.056565702 0.26526904
0.38362283 -0.11909241 0.97810531
-0.75816888 -0.14297909 1.1594417
0.17409474 0.05444964 0.25329828
-0.4819116 0.055074565 0.64196897
-0.51283604 0.057569839 0.74011111
-0.48436588 -0.12498786 0.72965074
-0.55153817 -0.13243359 0.78917003
-0.83360821 -0.21446806 1.4352992
-0.44993782 -0.11523222 0.66776443
0.32072073 -0.11660879 1.0042946
0.36631757 -0.1132366 0.93116736
-0.87162942 -0.16311082 1.7152359
-0.18880373 0.038527314 0.78606439
-0.37675983 0.055780575 0.72279477
-0.93238419 -0.30361632 1.6987488
1.2846529 -0.23256502 2.054311
-1.0935245 0.016314674 1.9251702
0.11594629 0.035430472 0.51824212
-0.9487409 -0.32550308 1.7597363
0.32301372 0.022592751 1.058183
-0.047433913 0.05305355 0.54182005
0.16163993 0.050265916 0.24089527
-0.85111326 -0.22053352 1.9510128
-0.76741105 -0.038263731 1.2131722
0.68953425 0.060845349 1.7707031
-0.7088992 -0.16401535 0.96663356
0.020991564 0.050206073 0.6929872
0.14762515 0.045905724 0.89948153
0.31901455 -0.036133684 0.57983804
-1.0175233 0.011659995 2.0130627
-0.86359614 -0.22379813 1.9824574
1.6310766 -0.049859926 2.2473814
-0.49094206 0.056240939 0.65551257
-0.7669329 -0.0396211 1.2116525
-1.1178284 -0.45686737 2.996537
0.31982249 -0.11378729 1.1248128
0.27625126 -0.21450767 1.4032662
0.45662051 -0.093894057 0.80609155
-0.72657961 -0.4171392 2.9146655
-0.017214775 0.039043382 0.94703269
0.368788 -0.070831545 0.97013593
1.1414747 -0.23507974 2.633713
0.13722575 0.0092647448 0.85597634
-0.81296235 -0.41752237 2.605581
1.4261031 -0.27362129 2.3168004
0.31514579 -0.093331523 1.1112196
-0.50036716 -0.097951166 3.2486379
-0.34907877 -0.22755772 2.8045266
-0.64299589 -0.39301413 4.2251463
3.8708451 -0.14228725 4.8997746
-0.44646543 -0.024614044 0.82578444
0.88605326 0.0029704273 1.4874303
0.21587932 0.049519107 0.30451632
-0.49043542 -0.1397557 0.6995914
-0.05853048 0.054656722 0.4341228
-0.51605433 -0.12234098 0.762007
-0.049899012 0.051808402 0.41130519
0.22725087 0.044824094 0.3445816
-0.045529902 0.048126608 0.63995337
-0.056596458 0.058966123 0.3249867
2.247314 -0.18170601 2.7213347
-0.11470246 0.055724621 0.37998748
-0.11168987 0.057962388 0.29845381
0.25328529 0.046828493 0.30381966
0.1819002 0.056224767 0.29708266
1.1472852 0.0027555823 1.4621165
-0.97986943 -0.32627609 1.8836348
0.16859156 0.053760655 0.28617358
-0.78330129 0.015691286 1.4755471
2.3520217 -0.36066207 3.0838234
-0.36155528 -0.046922684 2.7887461
1.4435349 -0.26178902 2.0378821
-0.39333916 -0.24864724 3.1775229
-0.94269532 -0.22996974 2.7308433
-0.64068252 -0.12326746 2.6348727
0.23059028 0.04724659 0.32589293
-0.77831775 -0.26779163 1.4384978
-0.80481356 -0.17868567 1.726115
-0.065540045 0.057576373 0.28551316
0.094255209 0.049060766 0.67428565
-0.49492347 -0.1294809 0.75519586
0.60404283 0.037969686 0.72026467
0.17205775 -0.15063456 1.1541727
-0.5046525 -0.14011252 0.73774028
0.21691251 0.050689664 0.2672925
-0.06786105 0.059514239 0.29777193
-0.3577801 0.010930851 0.52806044
1.6151128 -0.32825267 3.6654079
1.46172 -0.03290277 1.9456275
0.21680731 0.047345717 0.42648411
-0.68856376 -0.34428322 2.8787887
0.13950008 0.0090491138 0.86658311
0.22842371 0.045057759 0.34669471
-0.10228121 0.052496865 0.23522568
0.13545221 0.041633494 0.83975434
0.13885099 0.0090143792 0.86461473
0.25018239 0.025197288 0.50844431
0.57772309 -0.18662104 1.4848859
-0.50507039 -0.14432013 0.63649154
-0.50781399 0.045883577 0.74194455
-0.20404553 0.053244062 0.31204581
0.32417679 0.038302455 0.89527011
-0.3804639 0.058735035 0.54044247
-0.11760032 0.059836026 0.28482699
-0.78062695 -0.0867709 1.5021842
-0.46898407 -0.13505211 0.70475841
0.15006924 0.05834965 0.31415319
0.22983789 0.0393636 0.42760134
-0.76766127 -0.24132648 1.5272815
0.47598279 -0.12877646 0.63340545
0.11158425 0.041437626 0.97637868
-0.16166151 0.04490231 0.93062043
0.15250808 0.046280071 0.94279599
0.13648814 0.050974049 0.45272779
0.13874948 0.057804622 0.34719515
0.42018253 -0.039113931 1.1006768
-0.20175606 0.050321478 0.40904856
0.011545926 0.059546404 0.27013159
0.32208711 -0.068508603 1.0854695
0.48059392 -0.13018167 0.64137816
-0.79978544 -0.28081006 2.8376334
1.3768795 -0.35734487 2.2432477
-0.74284273 -0.37388411 4.2171021
0.2246905 0.044667184 0.35641336
0.15178728 0.056745812 0.42878938
0.45050544 -0.14763194 1.1537907
0.11551976 0.043449759 1.0146291
0.094424665 0.055982977 0.27591276
0.14109707 0.035719424 0.74294734
-0.099275351 0.05194572 0.25847363
0.44186682 -0.12828979 0.66736054
0.55715209 0.034993999 0.65237403
1.1530602 -0.018953897 1.4299557
0.00067004561 0.054965906 0.29618621
-0.14013529 -0.010167934 1.5468981
-0.91878146 -0.42843115 2.8420532
-0.71526796 0.016411453 1.3497641
0.46375513 -0.12089407 0.61415124
0.12266439 0.046303447 1.0231097
0.33664912 0.018415617 0.60231662
1.4894712 -0.23862028 1.9699719
-0.45458126 -0.36642012 3.6599739
-0.66944832 -0.30747065 4.2447653
-1.0304005 -0.25571921 1.7914908
-0.50745744 -0.13696176 0.71291232
-0.77880651 0.018108631 1.4682934
-0.19297469 0.0099709146 1.652909
0.3165586 -0.11478079 0.99570107
0.065674484 0.04998 0.26035714
-0.79628772 -0.083012111 1.4538615
0.74994308 0.028159706 0.9536922
0.24153948 0.036122926 0.48919082
-0.20457298 0.051308651 0.47403932
