# .PCD v0.7 - Point Cloud Data file format
VERSION 0.7
FIELDS x y z
SIZE 4 4 4
TYPE F F F
COUNT 1 1 1
WIDTH 645
HEIGHT 1
VIEWPOINT 0 0 0 1 0 0 0
POINTS 645
DATA ascii
1.9139566 -0.086761594 2.3918133
1.5564461 -0.10134906 2.4286728
-0.18114063 -0.1872829 2.5605044
-0.18450585 -0.18701257 2.5838366
-0.25189033 -0.37363172 2.8919702
-0.2283332 -0.38821149 3.1394091
-0.25368485 -0.30677795 2.8510809
-0.15528664 -0.32843795 4.0270782
-0.094030589 -0.14963824 3.8109503
-0.29450241 -0.40903232 2.8442941
0.65799546 -0.054339286 2.7448368
-0.85321081 -0.47587126 2.611732
0.11097589 -0.073053554 2.1861162
1.0537024 -0.32794234 1.7896705
0.93264747 -0.027429197 1.6701221
-0.23029497 -0.3368884 2.3247981
1.1223785 -0.23460166 1.8682919
-0.80092013 -0.40099558 2.670661
-0.88042283 -0.077107817 1.2824631
-0.84750831 -0.2467847 2.7664623
1.9237332 -0.07548517 2.576663
0.66252613 -0.016505811 2.2447705
1.5254389 -0.31448701 2.5889359
-0.029973477 -0.43713596 3.1191726
0.14455727 0.025687972 0.45906305
2.8803499 -0.1593421 4.5507073
0.68768144 -0.011509914 0.93371534
1.1156909 -0.02495091 1.5239415
-0.58715832 -0.38786909 3.8290834
0.15041998 0.054358885 0.45492315
0.33276644 -0.066309541 0.71761751
1.0697236 -0.024223659 1.516623
0.18495432 0.041617081 0.47565031
1.0908709 -0.069589987 1.5131893
0.99168134 -0.020409215 1.5400376
2.2166405 -0.747751 4.0720391
-0.87594557 -0.45776591 2.5048733
-0.90167868 -0.47775733 2.6179795
0.35619047 -0.29273191 4.3797126
-0.85554218 -0.35910347 2.4815588
0.27599624 -0.081607699 0.76866627
-0.99572122 -0.4361293 2.5758529
-0.12582657 -0.52284366 4.065186
1.3011146 -0.31868127 1.9578409
-0.033871502 -0.52772588 3.7704244
1.0733808 -0.024586994 1.5187182
0.36414853 -0.30021498 4.4894128
0.28260508 -0.018206418 0.69965076
-0.96636569 -0.41490722 2.579648
-1.1416955 -0.40235108 2.769608
-0.036480159 -0.53084421 3.8296642
-0.84526992 -0.36497003 4.2440901
1.1507535 -0.025124002 1.5083623
-0.95305812 -0.34897542 2.5308981
0.28100935 -0.078959286 0.71260977
1.0635058 -0.023016829 1.5022922
-0.10826859 -0.49812388 3.787488
-0.78215373 -0.41483903 2.6267495
-0.86104584 -0.25318357 2.8404937
-0.37575874 -0.40387863 2.9060974
-0.84429669 -0.020758748 1.2297802
-0.73215497 -0.26202232 2.5500436
-0.77028263 -0.39456978 2.9876661
0.29634508 -0.039331686 0.76371336
-0.81443107 0.017742433 2.2971916
-1.0268881 -0.22360949 2.5234227
-1.1061219 -0.40170109 2.6716084
-0.8016597 -0.40662646 3.1226468
-0.52012098 -0.068769738 1.7043738
0.02269569 -0.24411528 3.9723887
-1.0917056 -0.33682799 2.6427631
-0.84648466 0.02136492 1.1794095
-0.86147273 -0.54919761 4.3574214
-0.53567886 0.039769743 1.3431978
0.44260946 -0.10252155 1.1194005
0.97482407 -0.060820598 1.5585766
0.35962179 -0.083950788 0.69007444
-1.1580622 -0.40190879 2.8164001
-0.85457885 -0.48387784 2.630312
0.15396097 -0.29642048 3.4674191
-0.4254891 0.045959786 0.9670167
-0.83756232 0.017951351 1.1629677
0.15407518 0.025394019 0.44567013
0.32698563 -0.067444265 0.70789528
-0.97126091 -0.15050881 1.4142003
0.32238451 -0.046568189 0.70225906
0.14192018 0.025564305 0.45183706
-0.87147784 -0.30292875 1.4920444
-0.79678023 -0.24374481 2.6342912
-0.80901229 -0.43580249 2.7039804
-0.79751468 -0.29137552 2.9891114
0.15457585 0.025529919 0.44497871
0.33028749 0.02779601 0.68973351
1.1074594 -0.26351023 1.7284064
0.13968977 -0.18939297 0.92755413
-0.16999379 0.056120001 0.4165411
-0.8872782 -0.561014 4.4982352
-0.95147872 -0.43350109 2.5688648
0.076659471 0.051465146 0.35375547
0.36097053 -0.0052420087 0.72863102
-0.81418943 -0.023285408 1.1720877
-0.90925407 -0.32164475 1.5990729
0.98861539 -0.045461956 1.5354309
-0.79340947 -0.38920191 2.597795
-0.79136848 0.0099450909 1.2616649
-0.75903201 -0.32749802 2.4496522
-0.72796261 -0.20976077 3.1839533
-0.70691383 -0.22150032 3.8239264
-0.95959079 -0.36256319 2.6263323
1.0927972 -0.070690006 1.5187016
-0.87577713 -0.25548717 1.4700952
-0.84526193 -0.18392406 1.4845371
1.0000776 -0.063780114 1.5262394
-0.89555788 -0.3583014 2.6450214
0.99832225 -0.043333244 1.5498915
1.2124122 -0.30842155 1.9415574
0.15180758 -0.16320832 0.86738825
-1.2608134 -0.47869778 2.936018
-0.71510673 -0.56946164 4.4668584
-0.8337146 -0.39090693 4.3145571
0.18188152 0.043449402 0.46680784
-0.84472585 -0.27230394 1.5267005
-0.92157006 -0.46220911 2.6197486
0.95289588 -0.20257513 1.845324
-1.2621802 -0.4345946 2.7693801
-0.81642151 -0.018632162 1.1844497
0.69602513 -0.14597608 1.2398334
-0.28420749 -0.22775029 2.6744332
0.27092227 -0.077921972 0.72313738
-0.28429171 0.055481188 0.91367054
-0.81272733 -0.070564166 1.1501961
-0.84818554 -0.074592113 1.1820631
-0.80424619 -0.024182234 1.1962242
0.16319165 0.052794747 0.42185163
-0.89720166 -0.21245627 1.6850243
-0.96056569 -0.33602375 1.5101538
-0.87536037 -0.20432152 2.4964833
-0.11306813 0.056022651 0.35890055
-0.7947129 0.017209288 2.3682008
-0.76355743 -0.26137584 2.8475065
-0.79642391 -0.45428005 2.537786
-0.49081966 0.039259277 0.94179058
-1.2640041 -0.46045381 3.036149
-0.87695789 -0.25489032 1.4724627
-0.79342234 -0.38968065 4.1940761
-0.67573059 -0.19186752 3.4051871
-0.86297917 -0.14259584 1.4105821
0.34790483 0.045846701 0.52161407
0.14913365 0.053681597 0.45326614
-0.37266937 0.059271015 0.47853661
-0.81557095 -0.22878282 1.3937917
0.16191229 0.05291668 0.42019987
-0.80209923 -0.39305609 4.2319283
-0.86975491 -0.23342942 1.4373674
0.12195954 0.042900074 0.60728073
0.092501789 0.050481703 0.70048285
0.13947049 0.053840283 0.44500637
0.12370721 0.043169286 0.61270857
-0.055840582 0.054646894 0.36184549
-0.76531553 -0.29466364 4.0668592
-0.55624235 -0.38201886 3.6779504
0.30195031 -0.048114914 0.72084904
0.12241194 0.043710038 0.62194538
0.16654363 0.025399981 0.44576502
-0.8838706 -0.02358951 1.2178764
-0.47458211 -0.16065834 3.0734382
0.32821712 -0.0681995 0.7138257
0.55338526 -0.099943906 0.66585302
0.010549158 0.05374407 0.36325645
0.29848215 -0.1047533 0.83701849
-0.92194164 -0.42256948 2.470068
1.0944139 -0.070327625 1.5142231
1.3247792 -0.30444062 2.0047479
0.1947442 0.051678665 0.48531055
-0.85475647 -0.29003671 1.5440435
-0.10806468 0.055387985 0.50198889
1.9401817 -0.02798513 2.3297715
1.1270689 -0.045615714 1.5020056
-0.55224824 -0.38747782 3.7145534
0.35865536 -0.069740117 0.70391512
-0.11578378 0.056986827 0.36680174
-0.92300892 -0.33870438 1.602973
-0.19289199 0.056314442 0.28469491
0.22218379 0.048940174 0.3785181
-0.87801731 -0.27172831 2.496758
-1.2249734 -0.46709937 2.8474331
-0.2663227 -0.37553859 2.8272996
-1.0909668 0.025637165 1.5556893
-0.96877325 -0.29996896 1.4971213
0.12003288 0.050950542 0.47105455
-0.99757504 -0.43838438 2.5870085
-0.82507384 -0.4694159 2.6241789
0.11800274 0.049391657 0.45116091
1.7387613 -0.021681387 2.0269799
-0.032957464 0.048697967 0.74867582
-0.75851452 -0.37289011 2.9075112
-0.9967339 -0.3047244 1.4635754
-1.0146431 -0.23638897 1.4138446
-0.2154499 0.04807784 0.55653048
-0.98813128 -0.31732386 1.4783783
0.28780279 -0.059922244 0.71892214
0.0094727576 0.054732386 0.37458372
0.53953803 -0.29868758 2.5082097
-1.2284391 -0.46703249 2.8557496
0.23158005 -0.18949676 0.99267006
-0.78555393 -0.41051736 2.6582174
-0.034244329 0.047188558 0.6925416
0.35100445 -0.064584643 0.68825054
1.3776051 -0.26470575 2.0397387
-0.05750975 0.055724308 0.37148666
-0.14850923 0.049793959 0.84035015
1.4107045 -0.25619453 1.7825146
-0.46067056 -0.24522679 2.9957995
-0.84095716 -0.17044 1.4438777
0.079543322 0.05349002 0.360641
0.15132657 -0.14317177 0.86556149
0.12434354 0.015852675 0.57834864
0.28852752 0.043035455 0.55020523
0.096437424 0.048574798 0.70758057
0.4294323 -0.033425096 0.90747929
-0.84143746 -0.26542529 2.5103359
1.3160398 -0.34273759 1.9386187
-0.87191188 -0.38481838 4.2392354
0.13035682 0.042861871 0.47082186
-0.9847821 -0.42358217 2.5993366
-0.76775408 0.024997361 1.1114154
-0.54127789 -0.36661205 3.5461655
-0.83044302 -0.074984238 1.1755414
-0.97859395 -0.29966548 1.4361095
-0.48279962 -0.051147003 1.1912022
0.080760032 0.054067619 0.36480331
0.30005094 -0.068908334 0.72710228
0.12307045 0.022254884 0.45512581
0.15535757 0.025732288 0.44547606
-1.0201544 -0.25976071 1.4519072
0.30433968 -0.044127245 0.74589539
0.14237538 0.05544918 0.27785635
0.26861504 -0.022859219 0.72688246
0.16601017 0.053497262 0.42739344
-0.32255796 -0.43251166 2.9257441
0.2946761 0.043432184 0.56323338
-0.73144603 -0.39804065 2.6095343
0.33278397 -0.13046609 0.7124424
-0.11672112 0.057268403 0.36776304
-0.16454336 0.041772991 1.1130109
-0.90859413 -0.22788189 1.4952922
0.1897603 0.055491 0.33376217
0.049153298 -0.15496333 0.89882851
-0.99345601 -0.2717292 1.5004768
-0.72357821 -0.057941165 3.2815776
0.48344436 0.03605175 0.93777227
0.14213178 0.054913588 0.47192049
-1.0267587 -0.29924309 1.571631
0.76156294 -0.015497714 0.90751982
0.15632865 0.054516293 0.42884064
0.15078142 0.054155543 0.46566248
0.63939881 -0.44409999 2.3399034
1.1542872 -0.33865041 1.9386292
-0.90817785 -0.28840977 1.4676609
-0.10512158 0.054234616 0.49048138
-0.12403831 0.054585382 0.47967911
0.6355387 -0.36218295 4.1800628
-0.19164976 0.055822529 0.27737427
0.36262575 -0.075223148 0.70556498
0.22687969 0.046765983 0.38731527
-0.85318911 -0.062082041 1.1858726
-1.018787 -0.21559806 1.5725894
1.1114928 -0.024297033 1.51825
0.33368388 -0.16003077 0.99661589
-0.70584238 -0.058135059 3.1844459
-0.19946548 0.04880327 0.43588638
0.33505377 -0.1172941 0.70078659
0.12854251 0.042294018 0.46295452
-0.97684765 -0.33188134 1.5102453
0.30845407 -0.092817381 0.70340633
-0.54137647 -0.38259459 3.6604633
0.33737931 -0.065184444 0.70042944
0.28983614 -0.073139295 0.72555161
-0.74366558 -0.067406714 1.1304379
0.14117882 0.027298078 0.45059109
0.19018081 0.051485419 0.46738625
-0.93496585 -0.34218374 1.5331421
0.18813911 0.055752635 0.27339792
0.23860726 0.035312567 0.36509371
-0.85949719 -0.25785717 1.5274515
1.180673 -0.3014546 1.8867846
0.34534732 0.030681159 0.72640133
-0.765185 -0.33940497 2.694562
0.16604421 0.024578672 0.43970108
-1.0351309 -0.19039939 1.4683461
-1.2029634 -0.44276208 2.711297
-0.81926668 -0.077868268 1.2294126
0.015884429 0.055670999 0.3762908
-0.4422892 -0.20189303 2.8036318
-0.74875367 -0.40586185 2.6885948
-1.0167236 -0.29896191 1.4935527
-0.86489248 -0.30283824 1.5070176
0.2383478 0.043576449 0.33560324
0.14953086 0.020285605 0.45487404
1.1626406 -0.34139839 1.9573622
0.23449007 0.045652218 0.40092754
0.39296034 0.047997363 0.73160887
-0.18261632 0.058809169 0.32949042
0.72777522 -0.424784 2.3158178
-0.19155595 0.057017203 0.28917861
0.081816703 0.054737724 0.36701536
-0.12885097 0.040843718 1.0606112
0.26639691 -0.13128254 2.5778894
1.8847413 -0.41608402 2.8744173
1.8410835 -0.2735202 2.2727218
1.5074762 -0.30467725 1.8141947
0.18639424 0.046445552 0.48160505
0.23952433 0.046428371 0.40998983
-0.35609242 0.053632941 0.84456015
0.15152487 0.025823765 0.43058729
-1.0583911 -0.24486949 1.484005
0.15313736 -0.16536975 0.89025784
0.59145248 -0.40160039 2.3775725
0.11718747 0.05066023 0.46715117
0.61857545 -0.4242568 2.3657985
-0.059325725 0.056936495 0.37680721
1.2418236 -0.27881297 1.9447775
1.384122 -0.33505824 2.2367988
0.12781259 0.043045327 0.6286521
-0.49322018 0.040238589 0.94482374
0.21824929 0.051111951 0.32853079
1.9045072 -0.30796632 2.3238688
0.54656971 -0.17748691 2.3507767
-0.20930669 0.046052538 0.57203341
-0.18856964 0.059672527 0.29102492
0.55571461 -0.18363078 2.3971119
-0.15898266 0.03879026 1.2170801
0.011084586 0.052497588 0.4761982
-0.5112735 -0.084659055 2.1751947
0.22575435 0.046581022 0.4829545
1.8984003 -0.055493597 2.380455
-0.059800357 0.057307284 0.3736949
0.051696032 -0.18739651 0.92420721
-0.83782136 -0.18195963 1.4708877
1.2025368 -0.31452608 1.9627776
-0.99471557 -0.015287802 1.5686827
1.6149999 -0.28882968 1.9975853
-1.0281261 -0.30443981 2.5454874
-1.0547531 -0.29280326 1.5482082
0.28848317 0.039997056 0.38704777
0.1836243 0.056133311 0.29175854
0.70716047 -0.46065265 2.2480474
0.12150696 0.052047864 0.48601484
-1.2884594 -0.44817191 2.8061075
0.23910573 0.046429671 0.40998602
-1.0387112 -0.23950602 1.4514875
-0.1937646 0.056465782 0.28161621
1.4985021 -0.3726961 2.2738609
0.14783195 0.055905811 0.27292037
-0.055244714 0.05942104 0.25679588
0.2303718 0.044775773 0.53554153
-0.89927244 -0.48088521 2.6126728
-0.15650114 0.058115613 0.3493762
-0.82775545 -0.080833286 1.2469749
0.13986477 0.05728947 0.32166338
0.24082848 0.035414636 0.35968113
-0.30547616 -0.15697132 2.4897394
-0.78963459 -0.081459358 3.9900227
0.20279947 0.0035558119 0.5778718
-0.36335155 0.05826214 0.46312666
-0.17106089 0.053349264 0.45479107
-0.75482595 0.0031938106 1.1091852
1.269683 -0.22530057 1.9715738
-0.40008333 0.064297155 0.4994278
0.18872377 0.055294923 0.33182621
-0.86924005 -0.27189088 1.4810343
0.18332532 0.045074001 0.47227144
0.0080098808 0.055248775 0.36655998
1.1120926 -0.341732 2.034039
-0.16867903 0.056339487 0.4158721
0.69299746 0.01810718 1.249536
-0.16816744 0.052321456 0.6122098
-0.3311691 0.049323373 0.89855528
0.34023848 -0.050545041 0.8373704
-0.11682853 0.057259224 0.36546803
0.17162994 0.053505249 0.23946238
0.1735405 0.054961219 0.34737825
-0.11821911 0.052079417 0.45665264
1.3954931 -0.41055453 1.9619637
-1.0706674 -0.19825222 1.5219207
-0.1923326 0.053749472 0.36207438
0.14335641 0.055904061 0.27934074
0.44125512 -0.037362117 0.94365025
0.32318369 0.046327248 0.58689451
0.33335993 -0.1126194 0.73646164
0.046056122 -0.15102942 0.86146069
0.35621706 0.029501073 0.75102043
0.30387208 -0.12302436 0.66364908
-0.95848048 -0.27438983 1.444828
1.1003454 -0.027537856 1.9996939
0.34328219 -0.065760687 0.67635632
1.4292308 -0.32685345 1.92905
-0.39363036 -0.058896732 2.7317901
-0.2639173 -0.33749866 3.0122981
1.9650644 -0.053713355 2.2626872
-0.46016267 0.049700551 1.0690932
-0.14314684 0.044478714 0.53032732
-0.88457227 -0.33114991 2.3601189
0.56663251 -0.022868503 2.8035293
0.5907954 -0.32749683 2.3405328
-1.0607246 -0.27201152 1.5226698
1.4046289 -0.42286876 1.9551702
-1.0543665 -0.23246305 1.470407
0.18637487 0.054680329 0.32268715
-0.83653808 -0.015192147 1.1972313
-0.22508785 0.049158279 0.45325136
-0.14029506 0.043023247 0.50334883
-0.051087052 0.05671677 0.36597681
1.1200448 -0.025889266 1.5299673
-0.80934286 -0.33809775 2.5536499
0.34898278 -0.062258329 0.6847949
0.12456587 0.022731928 0.46123028
0.24380502 0.046139542 0.34812164
0.33053371 -0.12991221 0.70816231
0.79440856 0.054159872 1.4004583
0.023586482 0.054255802 0.50298166
-0.12133881 0.055387016 0.46734095
-0.19935307 0.055361643 0.26984572
1.3897769 -0.40519255 1.892405
0.22790506 0.044758618 0.52836132
-0.056123286 0.060513586 0.26200008
0.016955882 0.056394167 0.37537384
-0.95095003 -0.16280599 1.4294415
-0.19223627 0.047669619 0.41831207
1.1406473 -0.39049569 1.9307795
-1.0390128 -0.253227 2.5037417
-1.2425958 -0.26640525 2.6941328
1.1831936 -0.35248476 1.8993096
0.46749714 0.036517862 0.9090395
-0.17408034 0.055928454 0.51495886
1.2144371 -0.23266317 1.9308634
0.082301706 0.055583216 0.38531542
0.0087355673 0.05434113 0.36560869
1.0295088 -0.01698694 1.612278
-0.34372136 -0.38643631 2.7817545
-0.12121251 0.055878103 0.46793556
0.36174884 -0.07173717 0.71039391
0.52501333 0.029144809 0.79440832
0.016147822 0.054788142 0.36649609
-0.11474559 0.056180354 0.49126434
-0.85010064 0.037038751 1.2101011
-1.076975 -0.21787022 1.4807363
-0.81887019 -0.073229566 1.1343751
-1.0077591 -0.21323682 1.5529113
0.11281094 0.034215063 0.45865393
-0.73444939 -0.28907281 3.9218445
0.12456462 0.021391695 0.45851326
1.1197621 -0.25800422 1.8201909
-0.75156701 -0.35691592 2.815279
0.94787741 -0.079982758 1.5449758
-0.93799341 -0.46625161 2.679605
-0.015054256 0.057316676 0.37829638
1.4029577 -0.42543203 1.949883
0.099394232 0.049398936 0.66501427
-0.14973655 0.049059365 0.81968307
1.2858691 -0.23030744 1.9731898
-0.17658398 0.063214079 0.33976364
1.1030048 -0.071274146 1.5318589
0.50075722 0.030265978 0.78649235
-0.32825729 0.049588833 0.81691694
-0.52796304 -0.33588749 2.6158133
0.015834183 0.054468945 0.36278629
0.80866373 0.014678724 1.222084
0.67455804 0.01941926 1.2685542
0.42507222 0.032324106 0.814188
1.1455274 -0.39426997 1.9365358
0.95901883 -0.081559733 1.5647421
0.010417432 0.053218812 0.48348522
0.079344958 -0.17624679 0.96407652
-0.8575877 -0.15663476 2.5687461
-0.10235712 0.060195703 0.27153683
-0.8948797 -0.25965098 1.504055
0.85469687 0.012160242 1.1494045
-0.14897141 0.059550617 0.35962057
-0.85649216 -0.035666976 1.1942105
1.1691667 -0.35288745 1.8987074
-0.06547609 0.061280057 0.2658236
-0.12745878 0.061418947 0.34188843
0.13093075 0.043784056 0.47411728
1.5226113 -0.27520546 1.9235368
0.99316132 -0.081416681 1.5275707
0.14087197 0.026238108 0.4521265
0.0076645911 0.053760022 0.35254335
1.0609225 -0.086325392 1.6186366
0.026951581 0.057422623 0.52436781
0.15245298 0.055460569 0.37634468
0.071572095 0.055687122 0.24144888
0.30385223 -0.047906067 0.72725153
1.6778526 -0.16806693 2.3242493
-0.16650322 0.043146357 1.0800247
0.17593601 0.022057058 0.45668364
1.09153 -0.36166826 1.781426
0.3359088 0.017253544 0.80355787
-0.11373469 0.057332464 0.47071505
-0.15115634 -0.047650848 0.98748922
0.30876026 -0.0062920377 0.78573465
-0.81247962 -0.20300405 1.3581409
0.74424553 0.011546899 1.1431212
1.2403868 -0.28043163 1.9320178
0.31149295 -0.084126756 0.70902586
-0.15582779 0.046815529 0.58974648
0.22601154 0.048051994 0.41650152
0.1653606 0.052967541 0.42262125
0.57402587 0.038318329 0.90655613
1.0736176 -0.36555359 1.8141546
0.073890775 0.057009906 0.24914575
-0.025768846 0.058077559 0.3575778
0.21099326 0.054348938 0.36956596
0.093442529 0.050218195 0.7098074
1.0050482 -0.041759852 1.5575285
0.14997098 0.054464366 0.36818171
0.24078891 0.035825081 0.36899233
0.73457372 -0.49390894 2.3739438
1.177992 -0.047603805 1.5535808
-0.79806328 -0.041014094 1.1526132
-0.49162635 0.039205052 0.94396639
0.07163015 0.048607759 0.3249824
0.71984017 -0.12687868 1.0893493
-0.86464906 -0.25645512 2.435082
-0.92752421 -0.33566904 1.6225619
-0.10600242 0.055146173 0.50170803
0.22898844 0.037452668 0.44158316
-0.95637572 -0.16657977 1.4400964
-1.0541409 -0.22483246 1.4607968
0.32740417 -0.048252519 0.71041059
0.15302238 -0.16549747 0.89106035
1.216037 -0.36578122 1.9779568
-0.76666582 -0.26669934 3.4783583
1.8318149 -0.2941528 2.2378035
0.21738812 0.058951717 0.27696204
0.37259391 0.030455381 0.78657675
0.34498385 0.036842793 0.6439414
-0.20185623 0.052474752 0.32064342
0.32390699 0.036903396 0.81234598
-1.2918391 -0.3964873 2.939816
0.35583183 -0.071109608 0.6998744
-0.46394476 0.048948348 1.0649352
0.65790951 -0.054781403 1.0640759
1.4679656 -0.41871971 1.8597956
1.1778704 -0.34826249 1.8963456
0.85461485 0.011409067 1.1455264
1.0041968 -0.082515106 1.535769
0.30662385 0.03035469 0.66040945
0.0083160698 0.057811357 0.26983857
1.1386255 -0.047022317 1.4988418
-0.24971065 -0.38112596 2.8649445
-0.23524281 -0.27198824 2.7247705
-0.16344675 0.054204762 0.39057446
0.22159848 0.050901644 0.31723428
1.5988678 -0.2608774 2.4117198
1.0934756 -0.33136696 1.9105797
-0.10857287 0.056580544 0.3620019
1.345452 -0.25663808 2.119822
-0.93144906 -0.46525896 2.6602845
0.23618463 0.045980744 0.40313148
0.57606792 -0.19445135 2.4950619
0.146772 0.053675227 0.35766506
-0.97951198 -0.29641032 1.4848509
0.50253773 -0.23671408 2.5878654
0.33859709 -0.066683039 0.70413494
0.13134322 0.053778004 0.25989079
-0.518906 0.012625422 1.2461061
-0.89768922 -0.22601636 1.4770966
1.0630236 -0.070282131 1.5332541
0.24592826 0.040073387 0.39352226
0.075472862 0.056070298 0.30402708
-0.15932104 0.055751503 0.32613564
2.1571193 -0.0785494 2.4539504
0.63159835 -0.44088477 2.319098
1.5811673 -0.47124028 2.294095
0.15794596 0.05193558 0.44068289
-0.35990486 0.057552386 0.46289015
0.15033236 0.020338086 0.45501614
0.15032324 0.047040045 0.93246078
0.21565834 0.050998472 0.28609538
0.24144307 0.043446317 0.45123959
0.13322446 0.056008644 0.30422163
1.3232393 -0.29635584 1.9739842
0.142391 0.014476797 0.4309659
1.1827806 -0.35402039 1.6914754
1.1754959 -0.21315779 1.8634262
1.050788 -0.41695976 2.0017214
0.12223777 0.017167713 0.4892683
0.17302945 0.021532387 0.44724941
1.0023494 -0.062832236 1.5966558
0.14798865 0.019160522 0.44972801
-0.52041721 0.019825283 0.64104843
-3.7118847 -0.070485324 4.9411683
1.9006935 -0.27486143 2.3337893
-0.037044019 0.046054468 0.35480595
1.5962211 -0.26481014 2.4078641
-0.12427923 0.060753301 0.39228535
1.4730287 -0.42123982 1.8662624
-1.0478172 -0.27727813 1.5210204
1.1133939 -0.4186877 1.9519329
1.1132476 -0.3379201 1.9542689
1.2066697 -0.35350803 2.0363498
0.16193917 0.052508961 0.45448637
1.3671116 -0.3126047 2.0713291
-0.15725502 0.041880395 1.0747252
-0.27167532 0.058756758 0.56959343
1.5601828 -0.424115 1.9568458
-0.93775284 0.029503815 1.4764638
-1.0055691 -0.16965912 1.4040284
-0.90419173 -0.053643186 1.3223262
-1.0495734 -0.24404688 1.4684234
0.36764124 -0.075966269 0.71319437
-0.83116019 -0.26257852 1.51226
0.10231867 0.031311005 0.412395
1.1948944 -0.35233065 2.0124664
2.175766 -0.056430515 2.5231981
0.32766774 -0.12809864 0.6946063
1.5477608 -0.32953504 1.8859286
-0.18569937 0.059655465 0.33767605
0.10470256 0.032659702 0.425035
0.27948657 -0.08004424 0.78984737
0.31504801 -0.058552776 0.64712143
1.5108838 -0.30651879 1.8235803
0.21356145 0.053184494 0.32139444
-0.89245713 -0.052322503 1.3064818
-0.51916313 0.019651014 0.63895082
0.12548521 0.04278148 0.62086868
0.92721903 -0.043832738 1.609201
-0.18399844 0.059244618 0.33360434
-1.0550964 -0.17745766 1.4814062
-0.3254365 0.052345224 0.40615034
-0.13811263 0.044271115 1.1691265
-0.49637088 -0.057508606 1.2394066
0.12057599 0.022873662 0.44548655
-0.59718955 -0.17046925 3.315383
1.5138626 -0.38286972 1.8904548
-0.21955785 0.047777478 0.38244295
1.136633 -0.044438902 1.491941
0.30766848 0.04226933 0.40119886
1.3887873 -0.41450214 2.0014057
-0.16409931 0.057247266 0.30156827
0.16569528 0.0070010833 0.45225525
-0.9707278 0.016796306 1.5639291
1.8689896 -0.057213839 2.2220283
1.0561993 -0.34967071 1.9125013
