# .PCD v0.7 - Point Cloud Data file format
VERSION 0.7
FIELDS x y z
SIZE 4 4 4
TYPE F F F
COUNT 1 1 1
WIDTH 580
HEIGHT 1
VIEWPOINT 0 0 0 1 0 0 0
POINTS 580
DATA ascii
1.6289818 -0.12027229 2.7725546
0.99222839 -0.072187528 1.5797307
-0.12980589 -0.20390172 2.9168298
-0.18919089 -0.38901913 3.1880939
-0.1254327 -0.20135649 2.8953097
-0.15103611 -0.383928 3.1795757
-0.13296953 -0.011244524 2.0225995
-0.19325808 -0.32204312 3.1316817
0.62968612 -0.053669233 1.5777895
1.1334499 -0.24763389 2.3074429
-0.069192857 -0.34548807 4.2623281
-0.016057223 -0.17191504 4.1931744
-0.23221543 -0.42369986 3.1377738
1.027258 -0.19094785 2.6636827
-0.19744977 -0.38094527 2.9820817
1.1959645 -0.25365713 1.9541547
1.152957 -0.3746112 2.3124297
-0.74412096 -0.4569962 2.9470599
0.98686528 -0.080554038 1.2361233
-0.74672794 -0.41851348 3.0155551
-0.86107838 -0.089129403 1.6469486
0.16178903 0.04539597 0.74526811
-0.81292689 -0.013218138 1.4976885
1.5354389 -0.073819652 2.0189359
0.70802748 -0.032674294 2.5348399
1.2127973 -0.35874078 2.1701453
0.03134194 -0.38250086 2.8049309
0.34482357 -0.01079281 1.0875456
1.7260917 -0.084139884 2.2009828
0.21593234 0.044983551 0.38653803
0.30333641 -0.10558517 1.1087739
0.14345792 0.04005431 0.86425519
-0.79076397 -0.046035815 1.2968152
0.35466304 -0.069630116 1.0353301
0.17206821 -0.16305383 1.0668929
-0.50901008 -0.41182268 4.1822395
0.16245809 0.045309801 0.74802041
-1.0571676 -0.26095593 2.9634106
0.35507509 -0.077250496 1.0421717
-0.59097624 -0.095933661 2.6827862
0.085580975 0.050840411 0.55562496
1.1255814 -0.039580312 1.8596733
1.1518668 -0.037779238 1.8224375
0.20167878 0.032791361 0.80293584
0.35149536 -0.073333129 1.0255125
-0.04092595 0.04613775 0.7175777
1.0033236 -0.095699176 1.8715694
0.72338092 0.021041565 1.0893614
1.0282757 -0.035037842 1.8418782
-0.019287914 0.041833933 1.197892
-0.80280757 -0.083557323 1.5417283
0.31334165 0.022193018 0.62928414
-0.81406975 -0.46970093 2.8021414
-0.84351444 -0.49090242 2.9385955
-0.85683441 -0.40371048 2.6864936
1.036386 -0.032735247 1.8597481
0.44771352 -0.31670403 4.701148
-0.79649413 -0.37105694 2.7872155
0.29617551 -0.091678843 1.0787809
-0.92482805 -0.44301692 2.8497307
-0.042693228 -0.55184925 4.4495316
1.3367815 -0.33295748 2.2318876
1.1400573 -0.088739842 1.9335682
0.044249445 -0.54991549 4.0928736
1.125348 -0.040232789 1.8517396
0.45791438 -0.32544208 4.8163748
0.32940081 -0.023090471 1.1320932
-1.0767518 -0.41294122 3.0827858
0.041582495 -0.54809421 4.1060038
-0.61817074 -0.31629804 3.5870788
1.1953341 -0.038640786 1.8226607
-0.84328794 -0.23385961 1.9491584
0.74627292 0.02665196 0.96943164
1.1086959 -0.037784938 1.8214142
1.1679355 -0.079188332 1.87029
-0.029422373 -0.51756519 4.0880213
-0.71831536 -0.42561841 2.9176466
-0.86507857 -0.28932303 3.4843953
0.088372797 0.052187201 0.57445788
-0.86366498 -0.46214432 2.8686326
1.000824 -0.097233072 1.8642657
-0.23171428 0.052262787 0.31078625
1.2622955 -0.038381893 1.9804032
-0.97049832 -0.4037936 2.8617666
0.32087776 -0.071602464 1.1698644
0.28389826 -0.027994867 0.93363166
-0.86681008 -0.34335452 2.1880682
-0.66727936 -0.27283019 2.8259618
0.46360216 -0.11933519 0.71995521
0.32005569 -0.10593078 1.1486027
-0.96402478 -0.23663162 2.8283179
-1.0267118 -0.40524232 2.9289577
-0.74975276 -0.43475664 3.5370862
-0.46953794 -0.078290805 1.9638755
-0.18565914 0.058078863 0.31330466
-0.21054032 0.053206339 0.31187463
0.21586367 0.046436064 0.381284
0.8709178 -0.23147942 1.8778245
0.38728693 0.011683282 1.0912063
0.39884189 -0.084931597 3.2894518
0.33978239 -0.055300537 1.0223825
-0.75689447 -0.38881275 1.7312262
1.3955359 -0.040238548 1.8742182
0.10487536 -0.26634684 4.2876024
-0.82197487 -0.046603795 1.5142491
1.1905655 -0.098365203 1.7889526
-0.80939746 -0.2687985 2.7397759
0.13078448 0.025195561 0.86614299
-0.51741672 0.057928279 0.75685477
-0.71335363 -0.52807158 4.2813072
1.4863437 -0.06423822 1.8781865
1.8570039 -0.79597789 5.4414759
-0.86294889 -0.36851737 1.9030168
-0.77529001 -0.48505265 2.8633564
0.22697547 -0.31765443 3.7931526
-0.20291898 0.049467817 0.44640136
-0.82671785 0.0079233684 1.5339639
-0.80974615 -0.28578249 1.8724878
1.4301021 -0.051418301 1.819072
0.14396259 0.015957057 0.80019736
-0.20231649 0.051129401 0.34603286
-0.18260691 0.047484167 0.60142303
0.16887918 0.016563063 0.76488996
0.37784484 -0.079211056 1.0151155
0.1571199 -0.1956111 1.1932089
-0.92311561 -0.41625443 2.7855413
0.22970977 -0.023747135 1.079376
-0.67682028 -0.34871575 3.6490457
-0.86747086 -0.36854723 1.9232352
0.35496369 -0.12815835 1.0149882
-0.80413938 0.008187741 1.4808342
-0.19639561 0.05522918 0.31849122
0.30828759 0.020191964 0.617347
0.34880897 -0.078315988 1.0295913
-0.93125999 -0.16048643 1.7328036
0.4392775 -0.1177402 0.76222014
0.34358349 -0.056824226 1.0229661
-0.83948815 -0.088379219 1.5991299
-0.78949964 -0.23527239 1.8095458
0.15875605 0.017067194 0.78452325
-0.82736969 -0.31246379 1.7999928
-0.76317751 -0.26783434 3.0652149
-0.76240361 -0.45859188 3.0822546
-0.70799005 -0.30144638 3.1884696
-0.80500472 -0.08323209 1.5355618
-0.49891946 0.043895684 0.76394582
-0.55573201 0.064137116 0.69554353
-0.19144246 0.050131995 0.57817197
-0.20657274 0.053030867 0.30450583
0.35063359 0.021057755 0.64383388
0.32715568 -0.10635182 0.61086631
0.17061761 0.016980957 0.77201629
0.34511605 0.018551501 0.98582482
-0.8216238 -0.038658772 1.5691755
1.0712688 -0.27486727 1.8776429
-0.82185388 -0.27553862 2.74598
-0.15988597 0.048711833 0.75633931
-0.18054661 0.047648214 0.59434962
-0.78268051 -0.57431722 4.7441721
0.43484274 -0.1703309 0.73259044
0.41877034 0.035780005 0.72167802
0.36753395 0.041331038 0.46248746
1.0358292 -0.079166353 1.8560593
-0.81518078 -0.015819151 1.5018666
-0.82343924 -0.047364611 1.5173452
-0.054539174 0.054533254 0.32095313
-0.7791183 -0.03354444 1.4883945
0.88493133 -0.068774462 1.7718761
-0.1134046 0.047332704 0.84062982
-0.87400639 -0.33462131 1.9316385
1.029049 -0.060189921 1.8453572
-0.054686099 0.052704148 0.49478054
1.1597288 -0.038415235 1.8296316
-0.72867239 -0.39957097 2.8836386
0.14115456 0.013965607 0.80239797
0.35724857 -0.090299129 0.61716199
-0.29117134 -0.023571972 1.9644787
-0.50636005 0.0298029 2.23896
-0.62237 -0.21337216 3.2789991
-0.50726748 -0.19298342 3.2475889
-0.23254511 0.0524031 0.31076598
0.74683607 0.022209074 1.1326659
0.21196768 0.041624442 0.81474137
-0.87884951 -0.3682293 2.8666551
1.1242652 -0.084368438 1.8102958
-0.20710441 0.043749448 0.44963336
-0.61138403 -0.29771271 3.7501051
-0.83159566 -0.26311085 1.7758687
-0.89303148 -0.36415619 1.8396304
-0.14290377 0.049084269 0.67299104
-0.64942336 -0.075441703 3.5185935
0.55079877 -0.075650334 1.1603696
1.1230327 -0.035543296 1.8450077
1.0428008 -0.078559116 1.841131
-0.15595075 0.042419266 0.9269731
-0.8214314 -0.29254124 1.9102638
-0.83108914 -0.37044707 2.9428313
1.0369911 -0.05722433 1.8557456
-0.18111321 0.053995721 0.49294591
1.0319711 -0.29541078 2.2909887
-0.8200109 -0.16546038 1.7087815
0.30679145 -0.01277959 0.8176229
-0.7788738 -0.081282258 1.4947188
0.16579536 0.045197397 0.77775359
-0.63722706 -0.31368965 3.9361699
1.2316825 -0.31426257 2.1818068
1.1604381 -0.039626326 1.8371379
0.30787387 -0.043345984 0.59467697
-0.74855685 -0.39014831 4.3442135
-0.82723296 -0.48474061 2.8784039
0.026451081 0.045650199 0.7305491
-0.78443944 -0.16754027 2.7927587
0.41623673 0.034922443 0.71714187
0.46798435 -0.14207357 0.70394158
-0.18772307 0.058469623 0.31799126
-0.20243463 0.050352022 0.44613481
0.33575472 -0.054428566 1.0993969
-0.1480644 0.049596053 0.68557143
-0.89832067 -0.35410303 1.8563564
-1.1166415 -0.4559654 3.0251906
-0.58421135 -0.55503714 4.4568949
-0.66095972 -0.36553481 4.0591707
0.17821339 -0.16339123 1.2336829
-0.23416564 0.052525438 0.31431317
-0.74406278 0.0032275356 1.7756317
-0.7835176 -0.035100151 1.4884212
-0.053672254 0.054303691 0.32219481
1.117357 -0.035559949 1.833349
-0.79538953 -0.27899897 1.8204577
-0.86374331 -0.47635692 2.9430263
1.4452455 -0.059284609 1.8159034
-0.97109318 -0.36331168 2.4797137
-0.81464195 -0.38939446 2.7192872
-0.18660894 0.058245152 0.31574535
1.5409993 -0.058038894 1.8409336
0.096995205 0.046841301 0.72836471
-0.28333607 -0.026956607 1.6288617
0.18768886 0.037523109 0.74492383
-0.49029544 0.054992881 0.74192786
0.21059915 0.038379297 0.37916541
-0.96478021 -0.1647978 1.1876304
-0.67113793 0.028038219 2.5782444
0.60663319 0.021487553 1.2022307
-0.78557098 -0.029631931 1.5108831
1.130695 -0.1432419 2.1903775
-0.18327895 -0.19550595 2.3281987
-0.87662756 -0.36807385 2.8584273
1.4923561 -0.076406106 1.7763598
-0.054571956 0.055912785 0.34436631
-0.67229867 -0.17947811 2.9229729
0.35826263 -0.15604132 0.76486421
0.43149903 -0.0088100545 1.3403957
0.023477942 0.044851534 0.67180943
-0.40271625 0.025465498 2.00266
-0.77020597 -0.39682555 1.7681024
0.2196168 0.047594849 0.38805056
-0.36022517 0.052841105 0.68679547
-0.89620316 -0.39726463 1.9041283
1.4463396 -0.061840247 1.8093822
-0.19905207 0.051113229 0.34106612
0.17747328 0.044462144 0.73726058
0.17819312 0.044160776 0.74305463
-0.83782184 -0.21907313 1.9600065
-0.91839397 -0.34458381 1.8260758
1.9988112 -0.12037441 2.5149314
-0.795295 -0.48585939 2.9108274
0.075098544 0.054531999 0.34064817
-0.48794964 -0.15955535 0.74893212
-0.53092706 -0.12716942 0.72483993
-0.53942132 -0.12650736 0.72592425
0.27396551 -0.010149505 0.98971057
-0.50021374 -0.14419636 0.74876142
0.32770815 -0.11843671 1.2085526
-0.1013827 0.048174612 0.68456674
1.1412529 -0.038587857 1.7921717
-0.50188172 -0.16742671 0.76367402
0.071598142 -0.16869847 1.2262247
-0.72813499 0.0022034682 2.6370122
-0.68611193 -0.26634178 3.0839212
0.87209749 0.022593407 1.1605961
1.1643175 -0.035066124 1.7806218
0.073831528 0.053755905 0.32606697
-0.46385118 0.029042605 1.2569592
-0.82227075 -0.26060721 1.753967
-0.045986682 0.050697207 0.56396484
-0.78228724 -0.033958856 1.5394833
-0.4354808 -0.061119545 1.8783543
-0.61993301 -0.015200328 2.7795746
2.0169036 -0.11846814 2.4481342
0.082192689 -0.21300493 1.5045359
0.30148271 -0.1453733 1.1110237
2.818475 -0.44314381 3.8231604
-0.053709894 0.051236026 0.46384668
-0.81869006 -0.25809631 1.7458317
0.32029787 -0.13531916 0.74626851
-0.64405203 -0.01005872 2.6810091
-0.66360486 -0.38566318 4.2132025
-0.58912802 -0.20471875 3.6237833
0.08002165 0.05020811 0.4440062
-0.48478726 0.055167317 0.68083119
-0.49685499 0.057932682 0.63172388
0.24451616 0.044582479 0.28907299
0.1799579 0.053654611 0.32360744
0.36068746 0.034783557 0.48660541
0.33695498 -0.16435118 0.73670268
-0.21258709 0.05220199 0.33946705
-0.50088859 -0.1447363 0.75046754
0.075116605 0.055226028 0.34480238
0.43842986 -0.14793597 0.66904473
0.28972259 0.02717481 0.62980962
0.16270569 0.045006804 0.7664125
0.31487837 0.028172592 0.62116551
0.36505422 0.041114442 0.46072984
0.21731827 0.048731431 0.29845452
-0.35747513 0.050956324 0.80121255
-0.097602814 0.055410855 0.26614761
-0.10124317 0.05695343 0.25576115
-0.22878 0.048543874 0.45824242
0.48755321 -0.12625206 0.63408089
-0.8174839 0.031703632 1.1049001
0.24827483 0.024495132 0.50753188
-0.58863878 -0.14204969 0.80599189
-0.18553415 0.049491644 0.56307459
0.29587552 -0.14760332 0.72064328
1.9835559 -0.1147566 2.3998153
0.17110994 0.043070089 0.71286035
1.2446291 0.025030497 1.8787372
1.323651 -0.038326036 1.7683232
-0.80741155 -0.29732811 2.6856229
-0.087168902 0.043238565 0.74580121
-0.67098856 -0.38883141 4.2454853
-0.88557708 -0.34119946 1.9575865
-0.13718924 0.048347875 0.63409662
-0.85966372 -0.37917441 1.8155363
-0.82719028 -0.24207355 1.7466838
0.13749114 0.034627691 0.91597581
-0.80731416 0.032918863 1.0920379
-0.49015459 0.03091016 2.080117
0.30746737 -0.10440752 0.98915267
0.20813379 0.041739561 0.81633973
0.14200446 0.035697885 0.94122148
0.13817707 0.031611182 0.94831491
1.3458214 -0.034540813 1.6059568
-0.044472367 0.047140129 0.69890475
0.31682417 0.028016675 0.62508535
-0.33572766 -0.11309341 1.1402781
-0.48099467 0.0066730492 2.1793182
-0.77195847 -0.45196727 3.7764618
-0.43953171 -0.13259985 2.7829645
-0.66370928 -0.22790413 2.8748724
1.7050669 -0.066068202 1.9842799
-0.65831375 -0.034026351 3.8210161
-0.54554236 0.010073289 2.6035078
-0.62210834 -0.28690332 3.9746215
-0.46762249 -0.39465931 3.9028838
-0.11060855 0.05653147 0.3179028
1.573347 -0.039282907 1.9962428
-0.063509792 0.059124857 0.28436971
0.32844332 -0.059349168 1.0589964
0.30175623 0.037253764 0.49304128
0.16100129 0.056058742 0.24744463
1.8373929 -0.19252537 2.72842
1.8042284 -0.39096329 2.2548592
-0.20812771 0.050503418 0.44267511
-0.19710788 0.038777813 0.77163768
0.14388046 0.036036246 0.97316718
-0.54069304 0.060660664 0.78780913
-0.53361225 -0.14948499 0.66338563
0.16369489 0.052359745 0.38042665
-0.11461267 0.054712456 0.41538668
-0.37707362 0.057533428 0.56638122
0.31468984 -0.13136257 0.74367118
0.64445758 0.033876494 0.75702882
1.1354924 -0.31986171 2.7079284
0.082665056 0.051510833 0.46595287
-0.055160463 0.051409394 0.45318985
-0.82186723 -0.55494386 4.6347885
-0.37689045 -0.16758229 3.1078784
0.26989028 0.02854941 0.68614888
-0.71484149 -0.37133148 1.6926887
0.35040548 -0.07878013 1.035701
-0.78375626 -0.15558654 1.1533377
0.035702735 0.043497857 0.79853749
1.3293319 -0.035150412 1.5807521
-0.76732063 0.0077854283 1.4727151
-0.81949639 -0.2422577 1.7166293
0.023383588 0.046467785 0.70165563
0.12862489 0.05388714 0.25769615
0.31227896 -0.11259894 1.1173499
0.79265976 0.021132067 1.1113546
0.47925404 -0.12089859 0.61864352
-0.19477412 0.053366341 0.38107252
1.119558 -0.082948163 1.7953947
-0.91430235 -0.33773911 1.8093688
-0.84507346 -0.32882878 1.8631532
0.080615312 0.049799137 0.45378375
-0.74156785 -0.4146682 2.7721808
0.33970842 -0.14183798 0.68822074
-0.20936319 0.051000498 0.36647582
-0.81562984 0.0080321729 1.5835745
1.367062 -0.31991118 2.293534
-0.8308723 0.016232111 1.0247409
0.17339012 0.044632174 0.73199964
0.12979564 0.054292098 0.26198459
-0.41554829 -0.098566577 0.59733748
1.146243 -0.25378463 2.6627219
-1.2940778 -0.25110698 2.0070107
1.5536919 -0.041253086 1.8611906
2.0238204 -0.17266104 2.4650595
0.4330062 -0.10627548 0.50394154
-0.091046661 0.045926366 0.80247235
-0.49907842 -0.16582118 0.79958177
0.21913341 0.045293096 0.47539449
-0.19719061 0.05636666 0.30859518
0.22097352 0.045916393 0.38307357
-0.20923361 0.044696975 0.44494224
-0.2047461 0.050114535 0.45233297
0.12928757 0.055295933 0.23705387
-0.20372155 0.052458175 0.29778886
-0.23368707 0.052981772 0.31226492
-0.48028401 -0.15905729 0.76690936
-0.90256858 -0.35468885 1.8669403
0.17244729 0.053688854 0.45152259
-1.0775599 0.013141539 1.9377687
1.1435192 -0.05774888 1.7697957
0.068477899 0.052251711 0.21631312
-0.21061471 0.051216338 0.36911893
0.58860469 -0.034067873 1.476207
-0.2207751 0.051939286 0.27681351
1.0513594 -0.30208874 2.3413146
0.22275344 0.049077801 0.40842772
0.30762377 -0.15355451 0.75669169
0.28023508 0.025917798 0.61075354
-0.48312435 -0.41792825 4.1318312
0.33041188 -0.052906405 1.0658143
-0.10212216 0.048101053 0.67672706
-0.87825453 -0.3484945 1.9142282
-0.061490059 0.055322692 0.34073663
-0.029814273 0.054525614 0.2460506
-0.054959893 0.056601241 0.34857464
0.18931863 0.040451467 0.34629798
-0.18126222 0.048446976 0.60460925
1.420424 -0.054159228 1.8358185
-0.20017669 0.053176463 0.32746673
-0.18166086 0.054602303 0.49465919
-1.0991778 -0.004381597 1.9685042
-0.20588741 0.055569049 0.44260788
-0.12146869 0.057497658 0.27629328
0.17163 0.05358243 0.45044041
-0.48198619 -0.14759995 0.66783595
0.08472082 0.049147725 0.56281757
0.30570689 -0.12877849 0.71844411
-0.84966385 -0.08925271 1.5965593
-0.98066568 -0.40710431 2.660517
0.33108464 -0.16105884 0.7389276
-0.20241007 -0.38642761 3.0760386
-1.0363921 0.013705127 1.8557513
0.18171975 0.054211926 0.32783294
-0.89160693 -0.29535645 1.7405202
0.23418018 0.039909862 0.69132113
0.066449791 0.049309693 0.30908585
0.37517759 0.042224579 0.47243333
0.16848972 0.05308719 0.25679994
1.6346291 -0.038015384 2.1101501
-0.92479002 -0.4455567 2.8587325
-0.01850903 0.058585301 0.26414371
-0.91218817 -0.30485356 1.7856634
-1.3709557 -0.23461707 1.7230804
-0.31645903 -0.075610206 0.43292141
0.58767235 0.0071855672 1.5483797
0.31934896 -0.13552187 1.0469525
0.073386997 0.05785156 0.27856779
1.0755234 -0.28835642 2.3974578
0.29563776 -0.074570909 0.99235797
-0.18146381 0.052137095 0.53437448
0.12739465 0.053479772 0.26779485
0.33851972 -0.061141256 1.0990593
-0.71714902 -0.001451727 2.5792239
-0.68788457 -0.38699821 3.1911113
-0.95497 -0.3139154 1.7802775
0.17854866 0.055977345 0.24799824
-0.19801769 0.051058251 0.34206939
-0.36531338 0.043773085 0.63730216
0.22104135 0.046397388 0.43408084
-0.19539091 0.052323755 0.35884261
0.25590143 0.034270085 0.55080676
0.73145115 0.022547944 1.0947483
-0.2045072 0.053036619 0.33138704
-0.20866677 0.054569643 0.26143241
-0.017140627 0.055035133 0.24308348
-0.18624607 0.058407053 0.31527138
-0.72211206 0.083374888 0.90534139
-0.085748762 0.054778419 0.24301624
-0.14578494 0.05806601 0.34965777
-0.14541218 0.055689007 0.32607412
0.010824531 0.055441339 0.24277782
-0.051950663 0.04873066 0.43486834
-0.20997462 0.054839842 0.26345658
-0.53053069 -0.12851989 0.79264903
0.32582036 0.016928967 0.65627933
-0.19343516 0.054474808 0.30938745
-0.49287239 -0.1638511 0.75321651
-0.062831372 0.056718435 0.25779462
-0.094205111 0.046929382 0.24301434
0.22525701 0.044964314 0.51377797
0.21497211 0.049278691 0.26558781
0.14605722 0.05801329 0.28351378
0.11155304 0.055677325 0.2552104
-0.064873159 0.060244858 0.29153991
0.25556526 0.032791711 0.66956544
0.15094909 0.062067039 0.35463452
0.011472374 0.058233559 0.25872159
-0.17293271 0.067279354 0.41669297
-0.20262584 0.043745749 0.4510479
-0.096647829 0.048149519 0.25107932
-0.17370448 0.06704466 0.40991402
-0.11143097 0.062919199 0.292027
0.12955692 0.05422103 0.26295543
0.65258169 0.034391098 0.76913476
0.01823619 0.059052959 0.26048422
0.18009898 0.05480383 0.25740886
-0.00013265014 0.057703443 0.27898669
-0.20738915 0.051618569 0.32073879
0.2279425 0.049259648 0.41627383
0.34933582 0.015916098 0.86599517
-0.74756396 -0.14416863 1.1788895
-0.48511943 0.054816902 0.68292356
-0.5323416 -0.1765532 0.79700398
-0.56867599 -0.11835966 0.84864497
-0.46977887 -0.12284705 0.74095178
-0.5573616 -0.13516892 0.83444571
-0.21176484 0.053267688 0.60363436
-0.13848779 0.023886599 0.56968069
-0.4800671 -0.12510307 0.75587058
0.3225635 -0.11956759 1.0344841
0.24403492 0.045353927 0.88574672
-0.86930001 -0.16478167 1.7516115
-0.18286893 0.036248289 0.79905581
-0.18879673 0.051191404 0.39653587
-0.72018528 -0.20979364 1.1453302
-0.94617486 -0.30925611 1.759124
-1.0879244 0.015064817 1.9572599
0.10548112 0.030615184 0.48583746
-0.94205642 -0.32603711 1.7866547
1.378062 -0.30662808 1.8762281
0.35009924 0.01813481 1.1848552
-0.92310226 -0.18980244 1.3956673
0.46572968 -0.15805328 0.70787311
-0.046196669 0.051855758 0.57852054
-0.25650164 0.056834884 0.3483367
-0.98653722 -0.39103755 2.0408905
-0.86381853 -0.22723295 2.0281723
-0.76630366 -0.039434087 1.2498953
0.72191775 0.056174766 1.8868787
0.02221331 0.04720322 0.70282388
0.1446692 0.04215771 0.88769269
1.1802222 -0.062235434 1.826494
-1.0114733 0.009339001 2.0441477
-0.85351419 -0.22432767 1.998183
-0.48868409 0.0550576 0.68814874
-0.75536156 -0.039940733 1.2281506
-1.1050706 -0.45688111 3.0102632
0.55459774 -0.11783449 0.82840848
-0.53701401 -0.02302153 0.78823972
0.29171517 -0.22785307 1.5157497
0.45041469 -0.095766917 0.81870294
-0.72218275 -0.42085534 2.9516861
0.38231376 -0.076569691 1.0458562
1.1434041 -0.24138759 2.6535356
0.13668272 0.0069688298 0.88065839
-0.80941987 0.0031481497 1.6471207
-0.78337884 -0.4081499 2.5402973
-0.96492589 -0.22318278 1.3433964
0.20425871 0.010182783 0.82837892
0.43763676 -0.13618411 0.69958901
0.62074149 -0.10253738 0.7790215
1.4222932 -0.27895883 2.3275902
-0.48513243 -0.098656908 3.2395232
-0.34300503 -0.23132338 2.8244274
-0.63235092 -0.39742118 4.2455559
