# .PCD v0.7 - Point Cloud Data file format
VERSION 0.7
FIELDS x y z
SIZE 4 4 4
TYPE F F F
COUNT 1 1 1
WIDTH 590
HEIGHT 1
VIEWPOINT 0 0 0 1 0 0 0
POINTS 590
DATA ascii
0.21909416 0.049352143 0.45789075
-0.92673874 0.020738136 1.1895921
-0.67795753 -0.16631547 1.0355051
-0.74819016 -0.18852225 1.0586209
2.5092473 -0.12077287 4.0932779
-0.71971136 -0.16354088 1.0604031
0.65373021 -0.011361219 0.83351898
-0.54345292 0.049020927 0.78958321
2.618428 -0.13790399 4.0463381
-0.26737189 -0.30020604 1.5799251
-0.22566821 -0.32704285 2.0376277
-0.67570508 -0.16564594 1.0314558
-0.68994945 -0.21487303 0.99357438
-0.27228701 -0.26204354 1.5843422
-0.31778279 -0.19934489 1.5713577
-0.44614181 -0.0027145408 1.7458906
0.39425761 -0.19611251 2.1980844
-0.54264104 0.0028738528 1.1537597
-0.30750296 -0.37438703 1.6708591
0.4242948 -0.16799654 1.4926374
0.64990121 -0.0077630579 0.95507717
0.3799884 -0.12924662 4.1522703
-0.26793399 -0.21858288 1.6103618
-0.18636248 -0.31530556 2.1056802
-0.27046624 -0.2586914 1.5802948
-0.20679791 -0.32144827 2.1057553
-0.19579725 -0.31242901 2.0330107
0.44732234 -0.21181054 4.2080221
-0.74473155 -0.1852376 1.0555015
0.74715 -0.046296325 1.1597166
0.27301997 0.043900151 1.1489298
-0.73134035 -0.22673632 1.0586653
-0.52319658 -0.057973262 1.1463678
0.24613424 -0.15625121 1.3115168
-0.53414977 -0.035653267 1.1526334
0.65250134 -0.0071722046 0.96029568
-0.2833862 -0.42771032 2.1655886
-0.24372409 -0.3340897 1.5828896
-0.27659851 -0.19572687 1.5455213
-0.54258418 0.0018096082 1.1534915
-0.29796487 -0.26244339 1.5226896
-0.92520648 -0.12971596 1.2406363
0.23291324 -0.026359532 1.8565507
-0.5530256 0.03111062 1.1679475
-0.93811798 -0.0068991594 1.1984115
-0.40918925 0.062789142 0.65459609
0.68999994 0.010338532 1.2877877
-0.55112487 0.030480742 1.1637931
0.55963981 -0.092500359 3.2593267
0.5022707 -0.16870858 2.185256
-0.2929427 -0.25630131 1.5325785
-0.31755325 -0.23358186 1.4061708
0.47844747 -0.22326322 4.5664682
-0.19894029 -0.29911411 2.4595134
-0.21483935 -0.27309024 2.1962004
0.83254534 -0.054760594 1.0851495
0.48186758 -0.42057872 5.0483332
-0.19429068 -0.27555379 2.1991506
-0.56082433 0.020771958 1.0971713
-0.54004836 0.0040431134 1.1393185
-0.1758495 -0.23882507 2.2728209
0.58743727 0.042974286 0.857692
0.34083402 -0.16511674 1.3841343
-0.64428824 -0.13722804 1.0184505
-0.44453767 -0.18458432 1.2976148
0.33372113 0.047067918 0.48398995
-0.38985324 -0.16470037 2.6762307
0.50074404 -0.23283909 4.7922459
-0.45420015 0.013829677 1.6712623
0.55042797 -0.26807335 4.0589991
-0.15630513 0.043258674 1.1501536
-0.64645457 -0.13764164 1.0222013
0.30045232 0.043332942 0.38689256
-0.37672877 0.032207578 2.0199845
-0.2644752 -0.22137664 1.9361444
-0.60290116 0.051979631 1.0433927
-0.54080403 0.048918307 0.79265475
-0.45445877 0.021318763 1.6724291
0.071948737 0.055076443 0.43077898
-0.46900597 0.018605506 1.6089547
-0.64590937 -0.13680311 1.0204487
-0.23014505 -0.23222913 1.7364056
-0.62562782 -0.17728218 1.0294981
-0.54351944 0.04745885 0.78346634
0.00082525238 0.058845345 0.35675073
-0.29628766 -0.24671899 1.589772
-0.57627213 -0.044275966 0.78469014
0.46838355 -0.18414426 1.0005593
-0.61318374 -0.16032003 1.0208108
0.42732859 -0.17055126 1.5062554
0.44608721 0.0024031848 2.3878582
-0.95116043 -0.29049116 1.4025354
-0.45286295 -0.03872272 2.4045088
-0.6004107 0.051147547 1.0432928
-0.67617267 -0.16573535 1.0362871
-0.57431722 -0.16215472 0.99844337
-0.96500802 -0.018435001 1.1972361
-0.11331908 0.059791949 0.32587135
-0.45320967 0.0095789162 1.6245193
-0.61674583 -0.16089149 1.0266483
-0.59989429 -0.12406372 1.0437629
0.27670446 -0.23914911 1.4989688
-0.4414598 -0.18516001 1.3028626
-0.90787894 -0.17018569 1.3108277
-0.56642526 -0.023397386 0.77525902
-0.71309662 -0.18393651 1.0286777
0.052413058 0.047082417 1.0488546
0.55928832 -0.21570641 3.2745659
-0.26379052 -0.38258624 2.1866634
-0.13647434 -0.19805546 1.8924868
0.48648509 -0.21060672 4.6526461
0.22095478 0.056841146 0.51480055
-0.12314005 0.062095627 0.3175633
0.89159441 -0.17866331 1.0917678
-0.67860693 -0.19562955 1.0399325
0.13862616 0.059349369 0.34824538
0.22560516 0.054884832 0.6531446
-0.3856515 0.059036288 0.87158251
-0.64381051 -0.13686831 1.0270514
0.076325044 0.05906269 0.45558667
-0.3542479 0.054151487 1.1038468
0.13559844 0.056334909 0.4546051
0.54704368 -0.17539848 1.8853908
-0.36190793 0.05501226 1.1281483
-0.55824459 -0.034658834 0.78006983
-0.92415327 -0.16907947 1.1889293
-0.46463683 0.024069753 1.2984614
-1.4266033 0.12129848 2.074434
-0.504296 -0.12213229 1.7486413
-0.50422949 -0.12228838 1.7524078
-0.91727448 -0.1766147 1.2461455
-0.32398406 0.026597481 1.8902981
0.05092011 0.047327552 1.0306261
-0.27108043 -0.22819082 1.9998002
-0.71138042 -0.15676601 1.0484388
-0.36602226 -0.085377008 2.2815361
-0.92453414 -0.21341284 1.1841996
-0.24653418 0.053445697 0.5042448
-0.38234314 0.058237392 0.86818504
-0.89587992 0.020001911 1.1753633
-0.91456354 -0.21386771 1.2408967
-0.95760989 -0.013402667 1.2810235
-0.91117048 -0.21034363 1.1892462
0.1412808 0.059612799 0.3698858
0.13535969 0.056645222 0.45175266
-0.48318455 -0.18687873 1.1559272
-0.66385126 -0.18802628 1.0158324
-0.49951473 -0.11947833 1.7336104
0.15283681 0.054016221 0.61391115
-0.36894965 0.05577543 1.1537099
-0.52606547 0.020705052 1.1357503
0.96741807 -0.078292102 2.2675683
-0.4506115 -0.18603793 1.3118179
-0.38798597 -0.18140532 1.2180891
0.29465881 0.037675831 0.46213555
-0.32217273 -0.19842219 1.5868075
-0.71436954 -0.089520738 2.40888
0.32261035 -0.1969358 1.3488362
0.34241015 -0.1858874 1.5134332
-0.17641144 0.054938998 1.4222972
0.065968975 0.047417872 1.164983
-0.2206759 -0.37221742 2.5159009
0.45454189 -0.36676913 4.3791533
-0.61531752 -0.16062517 1.0271244
-0.918733 -0.17076911 1.2525291
0.36484712 -0.1621303 0.87695456
-0.61868924 -0.17704454 1.0216241
0.26309124 0.047744349 0.51514912
-0.13506486 0.060867399 0.32373273
1.5453655 -0.1463654 2.0277121
-0.47289708 -0.21245874 1.0444698
0.2903254 0.048029456 0.49028993
0.33570203 0.0064454768 0.76626301
-0.93571317 -0.0070053153 1.1959827
-0.72557145 -0.16936928 1.0507183
-0.187286 0.053786032 0.57695031
-0.50767797 0.053525623 0.69615579
0.43934634 -0.15771057 1.3826358
0.14002515 0.055161443 0.65628052
-0.075474203 0.025677457 0.36471999
0.28074142 -0.24260451 1.5293186
-0.72047997 -0.090225652 2.4296443
0.27680263 -0.23209877 1.4820426
-0.41976985 -0.00070936978 2.3101497
-0.25801313 -0.14465366 2.2779942
-0.1678573 -0.086277694 1.4042022
-0.55047667 0.024210081 1.1335442
0.44967872 0.021706564 1.4822056
-0.50835037 0.075093731 1.5767505
-0.38969252 -0.19989699 1.5121214
0.20720378 0.05689735 0.53796601
-0.44555166 -0.1232231 1.7402539
-0.74272424 -0.09643963 2.3169029
0.19623384 0.058042143 0.34424889
-0.37032816 -0.21079253 0.963871
-0.18381284 0.057177994 0.3288728
-0.439293 -0.0023573451 1.6839724
-0.72036386 -0.091776028 2.4281332
-0.16022561 0.046235416 1.2350423
0.28574324 -0.24795581 1.5674026
0.22911541 -0.20059809 2.1898904
-0.27318922 -0.23462622 2.03898
-0.069480509 0.058751255 0.44579029
0.28251332 0.046591137 0.47045755
-0.50465846 -0.19943705 1.2288935
-0.5065406 0.0051440252 1.5556233
-0.3697857 0.03269814 1.9665065
-0.40694875 -0.018642049 3.3507349
-0.40272114 -0.093211383 3.2621815
0.13072482 0.053846132 0.43294883
-0.57912815 -0.034819309 0.77805281
-0.32077768 -0.18840566 1.5470781
-0.46633151 -0.23251419 1.6649396
-0.72392273 -0.18802035 1.0449598
-0.57940209 -0.034527369 0.77900362
-0.058387581 0.054628801 0.4770658
-0.54983759 0.031605914 1.1612017
0.44651228 0.022605129 1.470902
-0.51604283 0.015269637 1.4699936
-0.1903968 -0.37974176 1.6196399
0.2025933 0.057002086 0.39227796
0.65630049 -0.0059512537 0.75658488
-0.90161562 -0.015766367 1.197367
0.36029997 -0.01542145 1.4412949
1.4997987 -0.11494413 1.9873655
-0.40215194 -0.15868329 1.5390472
-0.55255306 -0.00053582713 1.3786571
0.23437783 0.05402049 0.63112378
0.23513763 0.055296749 0.70612574
-0.55830431 0.060176626 1.2117901
-0.18311982 0.061378796 0.38324535
0.70183945 -0.0019308291 1.2454913
0.13508862 0.057000473 0.44552445
-0.4968752 0.043847386 1.0946729
0.052903634 0.057249468 0.41137767
-0.17848994 0.059783794 0.36681187
-0.19331451 0.049605377 1.089968
-0.25123787 0.054279245 0.51328373
-0.38635528 -0.16415596 2.6391275
-0.35803023 0.054301132 0.97540808
0.14668897 0.055893682 0.60744643
-0.0060751475 0.061703283 0.35172319
-0.4243516 -0.17182407 1.5748248
0.32391086 0.025181754 0.72876191
-0.057356287 0.056608018 0.52359223
-0.32216325 -0.29793453 1.5695603
0.43289536 -0.1667764 2.4723456
0.68561041 0.025409168 1.2861733
0.37579367 -0.16706207 0.90834689
-0.18318105 0.05681058 0.32412958
-0.1155621 0.031356372 0.67132473
-0.48304912 0.05063118 1.1693201
-0.13618417 0.06326925 0.31650937
0.002955731 0.059180904 0.34651148
0.32422137 -0.14962077 1.3280795
0.46570179 0.013264848 1.5319312
0.42538488 -0.16739725 1.4943492
-0.45417944 0.012922636 1.6827216
-0.56262261 -0.18696235 3.3645184
-0.10699806 -0.13102379 1.7676995
0.44994023 -0.3445867 4.7848654
-0.057827804 0.056259722 0.51293874
-0.3359172 -0.29817623 1.647831
-0.34621838 -0.33062428 1.6244178
-0.51163834 -0.20864907 0.96425796
-0.33661935 -0.19884205 1.6378875
-0.52238977 -0.058739457 1.1431346
-0.27457231 -0.22508238 1.6503847
-0.40591976 0.062763542 0.65002227
0.20428875 0.051797923 0.62538576
-0.53467047 -0.22720852 1.6762192
-0.06955266 0.060351372 0.47269273
-0.53193825 0.063253574 0.67463565
0.66012251 -0.0060582906 0.76316142
0.68809277 -0.0012434889 1.2165821
0.35156605 0.039620053 0.72625637
0.35101879 -0.25521672 1.9225559
-0.17953251 0.054907873 0.34485936
0.1830955 -0.029225353 1.0098014
0.37543961 0.046410687 0.48168826
-0.29355544 -0.2437457 1.5461261
-0.082015708 0.067563832 0.36162424
0.45734456 -0.17407377 1.3561199
-0.59585035 -0.18275221 0.98847795
-0.41826239 -0.16949371 1.6160524
-0.38240215 0.058574826 0.86983633
0.54262406 0.039372176 0.80642176
0.66763818 0.02639812 1.2671723
-0.11288005 0.059995767 0.33101726
-1.1856968 0.079023443 1.5215838
0.21156453 0.058448475 0.55542374
0.3100127 -0.13945569 0.70335579
0.26145914 -0.20444585 1.069061
-0.54142785 0.00045661069 1.1531034
0.27510592 0.044823542 0.45269728
0.26438457 0.047455244 1.0658057
-1.1871417 -0.3568562 1.6662297
0.17251907 -0.017346602 2.0527947
-0.5741396 -0.044994239 0.78203106
0.35657272 0.045272682 0.51546526
-1.0264312 -0.30264908 1.3137066
0.43969873 0.02322541 1.4457352
-0.55529898 0.012063463 1.379178
-0.55918121 0.0068291016 1.3775043
-0.53819823 0.0059333043 1.1423981
-0.19009338 0.056580167 0.26313865
0.53124654 0.035612471 0.88532066
0.077580556 0.05941138 0.44835067
0.34176388 0.022926763 0.71680331
-0.38603052 0.058551427 0.74776435
-0.060842928 0.06012902 0.44708657
-0.17296438 0.059551157 0.31625521
0.12563579 0.058784623 0.31502414
-0.19763257 0.056506734 0.26083601
-0.065434277 0.059601713 0.30202711
-0.20465052 0.055384893 0.44739604
-0.063352332 0.057277925 0.35646737
0.43106341 0.036561497 1.1757114
-0.52166498 0.048824448 0.97786379
0.06736353 0.060038663 0.30918646
-0.19059704 0.051820051 0.52059388
-0.11730216 0.057164479 0.35118747
-0.55932271 0.030582329 1.1872616
0.50237501 -0.041897368 0.72534347
-0.20172177 0.053813674 0.43968797
0.31689641 0.024492703 0.71155643
0.31567082 0.049614087 0.47091556
0.31165701 0.048532024 0.4918766
-0.18469739 0.058098622 0.29560995
0.21790598 0.055232905 0.47387838
0.34215662 0.050379463 0.39956677
-0.52560723 0.02170538 1.3453925
-0.40987882 0.063326627 0.65359116
0.34960321 0.045663662 0.50259376
-0.17974152 0.056039512 0.33121836
-0.0042353459 0.057155151 0.31886923
-0.92436773 -0.21048424 1.1850197
-0.19198431 0.047428183 0.91913605
-0.031385411 0.057620276 0.3494494
-0.6865024 -0.19828916 1.053067
0.21305493 0.052687362 0.45918846
-0.56786674 -0.12659746 1.0342786
-0.51587439 -0.10788739 1.1369841
0.27196476 -0.0062667355 1.2385452
-0.53472412 -0.2307664 1.6933689
-0.4189246 -0.18959904 1.2090566
-0.42812079 -0.19802113 1.5941188
0.38601536 -0.20123357 1.3630054
-0.1758009 0.054978944 1.0342441
-0.33814701 -0.25372273 1.5361691
-0.450789 0.00091053918 1.7198517
-0.059997354 0.058683936 0.73136592
0.20439018 0.057276893 0.3969878
0.3567307 -0.14847779 1.4006634
-0.66659188 -0.15949634 1.0539989
-0.052881692 0.053175021 0.65473294
-0.62128234 -0.20752217 1.0123708
-0.0033565946 0.053458199 0.29522467
-0.26737931 -0.25421998 1.558327
0.44078282 0.0028679669 1.5796483
-0.24952514 -0.31240073 2.3601553
-0.21458416 -0.31124893 1.7996418
0.57016307 0.038013335 0.76810598
-0.18089037 0.054297164 1.3619621
-0.6807602 -0.084448472 2.2779086
-0.27040112 -0.21917175 1.6031945
0.24827529 -0.030636914 3.0825541
0.27023622 0.047925614 0.51142144
0.45923206 0.041268457 0.83572698
0.096780404 0.056512404 0.3762815
0.067821473 0.061416768 0.31980813
0.26595521 0.047569465 0.4942131
-0.23978446 0.054547444 0.40410364
-0.36312893 0.055853266 0.69719553
-0.12076142 0.062346801 0.31875873
-0.52432609 0.061965663 0.78433585
0.00083487853 0.056479588 0.35382164
0.19457729 0.057849623 0.34049606
-0.56566244 -0.1255852 1.0273347
0.31880534 -0.25431293 1.7841458
-0.19034909 0.056646857 0.26428688
-0.18216634 0.054871656 0.44859767
-0.60128212 0.051134355 1.043869
-0.17878558 0.060128938 0.37194204
-0.24682285 0.069288433 0.33294499
0.48790321 0.041515246 0.89878035
-0.56498486 -0.034542404 0.79093623
0.21666037 0.059684064 0.56223941
0.20906587 0.059563525 0.31367683
0.15482764 0.053631764 0.63428688
0.44504166 0.0395693 0.85353756
-0.42892498 -0.22675584 0.99077821
0.349929 0.050496049 0.43382168
0.62933689 -0.11162306 0.99507546
0.066999093 0.060436185 0.31401956
0.61964589 0.04424547 0.83707523
-0.55369759 -0.00018345378 1.3832312
0.65243757 -0.0061940514 0.95946908
0.31352839 0.056021668 0.39037287
-0.24486239 0.068428099 0.50128961
-0.36111805 0.05554112 0.98389125
0.63220686 -0.11231163 1.0007079
-0.49497989 -0.19496353 1.1175046
-0.11327912 0.060900878 0.33398771
0.5982393 -0.10625416 0.93611884
-0.12509531 0.064021632 0.33061445
-0.16036516 0.048149917 1.2494736
-0.71409798 -0.22158065 1.0689037
0.36257884 0.046362188 0.52536631
0.22167768 0.057137039 0.51555443
-0.18118088 -0.25402975 2.3741329
-0.19519852 0.055327103 0.41063428
-0.1856754 0.05313047 0.57095194
0.15786329 0.056493096 0.70397735
0.35361052 0.039151479 0.72827482
-0.48887631 -0.19820166 1.233685
-0.068884283 0.057740919 0.43094468
-0.29324275 -0.23882423 1.440603
0.29985204 0.053965844 0.36962485
-0.24854003 -0.28414303 1.6506157
0.20277852 0.089955345 0.46053314
0.35458657 0.018771049 0.74597001
0.22191319 0.058030564 0.54508972
0.3949106 0.036263801 0.75529718
-0.54347581 0.0060153464 1.9594483
-0.11854398 0.062103719 0.28951871
0.31889307 0.049200013 0.4653523
0.35306245 0.0062893135 2.0673568
0.41833413 -0.24488856 2.1416385
0.42940906 0.037030376 0.622612
-0.25579754 -0.34072512 1.6346595
0.379639 0.019774476 1.6271818
-0.25736079 0.054960836 0.56803012
0.15082499 0.054978963 0.67016697
0.08931613 0.053292956 0.67645931
-0.51672107 0.014947519 1.4679189
1.0137373 -0.049615007 1.6409895
0.096998572 0.05419698 0.78045082
-0.069301769 0.056651209 0.40121031
0.61780852 -0.1092515 0.97257042
-0.51105976 0.058718439 0.76513219
0.22041753 -0.19894287 1.0082812
-0.52198291 0.061817035 0.78779435
-0.55548966 -0.15706782 1.0416255
0.33196327 -0.12430505 0.72201848
0.35169697 -0.15749149 1.4611096
-0.16720903 0.049956225 0.83652306
-0.42612615 -0.22241813 1.233763
-0.19723099 0.060473341 0.30856729
0.14972571 0.053999797 0.66780806
-0.27796075 -0.26290137 1.5668626
0.63123977 -0.12018593 3.364301
-0.26987582 -0.39796326 2.2178154
0.25056747 0.04449803 0.47093391
-0.56183159 -0.12600522 1.0249634
0.33156762 0.04665944 0.4832387
0.07246162 0.056223199 0.41061807
-0.18729091 0.053267434 0.5751121
0.42416587 -0.023481682 1.7981815
-0.19127955 0.054973789 0.51666999
-0.16798054 0.060404975 0.38618088
-0.070455506 0.06469959 0.30789757
-0.13877785 0.063521311 0.28125536
-0.1306431 0.061244566 0.30828142
-0.0063037686 0.052293818 0.25375581
-0.11922394 0.064460546 0.35775912
0.083998039 0.060930856 0.58342028
0.31924954 0.037680779 0.49495935
0.12076284 0.057613868 0.45262527
-0.56071007 0.052381858 1.0604861
-0.18301202 0.059532408 0.5229907
-0.045570638 0.046028547 0.5612824
0.68484527 -0.16290592 1.0249438
-0.19526085 0.054701906 0.42589235
0.92239767 -0.14356096 1.0634837
0.21699309 0.057583589 0.54408312
-0.40805063 0.010615449 2.098897
-0.89888799 -0.26614606 1.159482
-0.29753834 0.064058155 0.59912705
-0.60211319 0.059934381 1.0324657
0.19046913 0.061475586 0.30792284
0.39962518 0.021959603 1.7131748
0.70606554 0.026913691 1.395643
-0.065736651 0.060796831 0.31299531
0.1256098 0.05493762 0.24867666
0.114815 0.053544279 0.26505423
-0.20125504 0.05683846 0.25395191
0.40249017 -0.18095255 1.6839168
-0.12813172 0.059745912 0.30153227
0.41809762 0.019376241 1.4535737
-0.55930877 0.046491113 1.0580153
0.56674755 -0.10742176 0.88950443
-0.12475283 0.059690043 0.36694503
-0.044332374 0.064891882 0.30387938
0.20717396 0.057384055 0.54161954
-0.22685705 0.054909427 0.36645114
-0.24036922 0.050715365 0.34380853
-1.0427918 -0.31357569 1.4544394
-0.22892071 -0.28052413 2.1095648
1.6234064 -0.28991506 4.471797
-0.47062746 0.051371504 0.99740028
0.36361155 0.046503849 0.52576423
-0.02950168 0.058211055 0.37491298
-0.092369825 0.060879949 0.41606021
0.092118204 0.059452403 0.40576863
0.21693602 0.051148105 0.46559119
0.36183426 0.035616912 0.74632668
0.41333929 -0.12204768 1.4733675
-0.55955237 0.0009429194 1.3692329
-0.92455733 -0.16752478 1.1954186
0.36144534 0.01837776 0.76365328
-0.57151306 0.056724139 1.0253813
0.29322833 -0.26202294 1.6348946
-0.75416607 -0.080127433 2.0529466
0.02312639 0.06095447 0.41381192
0.13930872 0.060104746 0.27529454
-0.47734454 -0.11709926 1.6445291
-0.18944682 0.056340266 0.26245487
-0.24225737 0.051114604 0.34724092
0.073303789 0.065439358 0.34619236
0.31882539 0.050849769 0.5258894
-0.048431981 0.061591152 0.27713811
0.32140937 0.0474228 0.37344623
0.33051589 0.02353966 0.44261622
-0.18035729 0.05425249 0.43798351
0.34945592 0.041175172 0.52090859
0.8782503 -0.072488263 1.3569086
0.35732034 0.041155264 0.73827386
-0.30804929 -0.33502737 1.6678748
0.13008469 0.059092574 0.3011812
0.68302423 0.0092931287 1.2699587
0.86723232 -0.13150991 1.6104879
0.36666372 0.045891844 0.4905653
-0.061576489 -0.16591656 0.92506552
0.49864924 -0.16578606 2.1585433
0.20954961 0.059588406 0.26013005
0.70136952 -0.044651147 3.0621712
0.20368932 0.056762751 0.39126992
0.13895035 0.058469802 0.46435404
0.21408089 0.032654453 1.283983
-0.18475316 0.052770797 0.72444224
-0.13312264 0.062056649 0.31687772
-0.06709218 0.055163141 0.25833178
-0.12352264 0.059694078 0.38181698
-0.75127411 -0.078449577 2.0445795
-0.15435176 0.06064529 0.26391828
-0.062186029 0.058356076 0.42462587
0.23093517 -0.17182712 0.80774498
-0.027321074 0.048351627 0.28486228
0.46040946 0.0077098841 1.5490413
-0.17657012 0.04675933 0.36670673
0.066415504 0.059240695 0.30471361
0.28652859 -0.19794187 1.3636644
-0.43637887 0.0052193673 1.5770369
-0.19054988 0.053845137 0.84633589
-0.19221272 0.054327343 0.40253806
-0.18751158 0.05309191 0.83074188
-0.57314938 -0.045917731 0.78646469
-0.47134283 -0.14201345 0.72653079
0.79777563 -0.080473274 1.1359868
0.34963796 -0.1476507 0.77532792
0.37190792 0.053395249 0.46405864
-0.50469106 -0.1217287 1.7510498
0.42678729 0.036635976 1.171982
0.37117437 0.044051439 0.59949493
-0.55452627 -0.088538691 2.2988319
0.0015635453 0.059894409 0.38903522
0.37026414 0.053758457 0.46174121
0.56895399 0.03572803 0.93757224
0.69436574 -0.013394848 0.84589791
0.1216452 0.051111441 0.30888128
-0.25370327 -0.33143863 1.5892732
0.4876264 0.019615194 0.92023277
-0.48919639 -0.11637704 1.6932809
0.45215404 0.037430756 0.82528043
-0.56378055 -0.081822067 2.1478288
-0.11890438 0.05622229 0.32344294
-0.7449072 -0.085483432 2.2144673
0.54481673 -0.09780404 2.5769217
-0.53809494 0.030467838 1.1338584
-0.23216192 0.067227185 0.81171107
0.34812367 0.05057916 0.42866755
0.14548692 0.06094281 0.38644207
-0.083750829 0.025347829 0.3159287
-0.39155242 0.060581271 0.62323356
0.88693786 -0.13471173 1.5076547
-0.29826832 -0.22826718 1.1160896
-0.18626496 0.060995106 0.36485934
-0.8166467 -0.17583379 1.674607
0.13617098 0.054281894 0.63838148
