# .PCD v0.7 - Point Cloud Data file format
VERSION 0.7
FIELDS x y z
SIZE 4 4 4
TYPE F F F
COUNT 1 1 1
WIDTH 507
HEIGHT 1
VIEWPOINT 0 0 0 1 0 0 0
POINTS 507
DATA ascii
2.2097745 -0.09561976 3.3651478
1.7445351 -0.070074312 2.0834186
0.13173801 -0.20823056 3.6380188
0.11152411 -0.020667776 1.9009674
0.13136429 -0.20850578 3.6925752
0.092730582 -0.38679698 3.8932078
-0.36589652 -0.24385408 1.5347717
0.1343255 -0.21099794 3.7805874
0.31199563 -0.19131228 2.1822107
0.13219202 -0.19219658 3.7050726
-0.50603807 -0.069718018 1.2141852
0.80923432 -0.060250133 1.3596914
0.12336755 -0.37337568 3.7416341
0.05579102 -0.023937028 3.2865207
0.084351063 -0.34190318 4.1428833
-0.88064706 -0.073345505 1.1745458
-0.37724715 -0.23065177 1.7713168
-0.41589665 -0.15270019 1.739238
0.38804305 -0.095116131 2.4705441
-0.87587821 -0.07019373 1.1346736
0.33817524 -0.10733134 0.55326629
-0.47792166 0.043628346 1.0022733
1.3215123 -0.33340251 3.3520596
-0.6278339 -0.023501452 2.7582233
0.79292852 -0.058470599 2.3747003
0.22980279 0.033850282 1.3717501
0.2242583 0.039018549 1.3246174
0.25507629 -0.26206735 1.3745601
0.34241009 -0.17878297 5.1344547
0.047914624 -0.42883921 3.9365633
0.045612216 -0.44978738 4.1358595
0.28924155 0.025592346 1.5872638
0.98585153 -0.075616159 3.8267481
-0.29345179 -0.29961428 3.5239408
-0.50760055 -0.48130515 3.6124947
0.64709187 0.033787981 1.0367565
-0.77581269 -0.047371045 1.6646836
2.2555628 -0.10596641 3.6829412
0.25020796 -0.32955089 2.9529002
-0.74141908 -0.064856328 1.5181644
0.38987899 -0.095267706 3.3354447
0.69774592 0.028156543 1.2228534
0.9700923 -0.26510948 1.5238888
0.33546495 0.038033877 0.52912235
-0.60976207 -0.42581785 3.5274589
0.0070633888 -0.12929305 2.376651
-0.67609936 -0.18710843 1.3907127
-0.51315713 -0.075154178 1.2419844
-0.42902499 -0.22261325 1.0298069
-0.76811785 -0.047955386 1.6268833
1.3257347 -0.22784832 3.0046432
0.26618737 -0.30064148 1.4163854
0.73357594 -0.028043978 2.427263
1.1458378 -0.07433515 2.1038101
-0.46448135 -0.45565003 3.6836102
1.0497661 -0.26776877 1.472966
1.0703079 -0.29301864 1.5856817
0.82272828 -0.037899032 1.3305461
0.21977878 -0.24425474 1.3892815
-0.76301128 -0.074356996 1.4833376
1.0038717 -0.18238825 1.5392697
0.33255565 -0.16628557 1.5741718
0.81131077 -0.067600973 2.3762877
-0.50305676 0.043565534 0.97114372
0.23352981 0.052032568 0.59822106
1.1899886 -0.23906943 1.679445
0.42742628 -0.12306889 1.5441406
0.08795777 0.055987976 0.48677135
-0.89355934 -0.074900933 2.2129838
0.34614503 0.020400276 0.55012989
1.1012454 -0.20904949 1.6236045
0.98699856 -0.19689921 1.5062354
1.0873204 -0.24446791 1.6233995
1.1797128 -0.23921111 1.6515648
-0.80658829 -0.096708693 1.5510442
0.97956139 -0.17878571 1.3382928
1.3270817 -0.28666174 2.6448672
-0.65958935 -0.14882565 1.5262306
0.25596541 -0.20901003 1.3139193
0.37668556 -0.052649722 1.9337566
-0.49748898 -0.44730052 4.0708199
0.27763319 0.0063567441 1.6923845
0.56727642 -0.025492914 2.1373637
0.49916697 -0.13868445 0.97430873
1.1789727 -0.23718637 1.6464446
0.3684302 0.020310754 0.98631835
0.30522233 -0.15294755 0.91422963
0.80133194 -0.039351597 1.2906787
-0.48416966 0.046657737 0.97349048
0.23575664 0.053110171 0.60000062
0.24272567 -0.012160309 1.7420337
0.46076059 -0.23019934 1.8865645
-0.84947741 -0.084875345 1.5890448
-0.51388037 0.023718297 0.69529796
0.25964224 -0.21017653 1.3235817
0.19854099 -0.23600677 1.4050035
-0.047870547 0.057639219 0.43685222
-0.69547522 -0.10578028 2.5495722
1.064749 -0.28815463 1.5707171
0.34938192 0.034386989 0.54169011
-0.35802245 0.053399015 0.77236986
1.1023345 -0.34902471 1.5536482
0.27846903 -0.19821399 0.94320416
-0.26008391 -0.14113522 1.7031085
0.26565796 -0.17564097 1.490875
0.26230836 0.034869678 1.5641935
-0.054455817 0.057984501 0.39740968
-0.53712487 0.026009489 0.71026063
-0.52533489 -0.10156918 0.64781308
-0.7263974 -0.080151238 1.4862697
0.15497476 0.056429222 0.40788484
-0.83726919 -0.08408349 1.5537813
0.24769133 -0.26020864 1.4662693
0.30320406 -0.24934128 1.7335775
0.38843125 0.023678504 1.006876
-0.3506946 -0.20912316 1.3001087
-0.42800623 -0.16633791 1.071784
0.22866303 0.053855009 0.47745109
0.52437264 0.043200858 0.63371038
0.99640369 -0.16450441 1.3600605
0.40007991 0.016656002 1.1016293
-0.45246178 -0.25702691 2.1945355
0.27406329 -0.2900745 1.3817484
0.24561948 -0.1831556 1.4022584
-0.64616716 -0.16894403 1.2743657
0.15753874 0.057257891 0.41625738
1.1881156 -0.041521855 1.6131976
0.26649922 -0.15423578 1.4552805
-0.04586184 0.057652038 0.44718099
1.3644005 -0.050625533 1.9159353
0.38631201 -0.16187486 1.3393714
0.21792001 0.056452181 0.35375142
0.3506003 -0.003853634 0.54578853
0.34094203 0.039983816 0.54122543
1.1967347 -0.26276895 1.5555308
0.27858162 -0.26633498 1.4135106
0.26133859 -0.16315922 1.4388206
0.35066533 0.040791947 0.76188684
-0.19151086 0.043006286 0.67396951
0.35517263 0.041692615 0.7727735
1.2595292 -0.25654897 1.6921017
0.25115395 -0.1312235 1.6509702
0.33995908 0.039492831 0.55075932
0.4462986 -0.021277312 1.4998839
0.43041176 -0.12343908 1.5330312
1.0655402 -0.28556877 1.5662644
0.48338121 -0.15073195 1.2523656
-0.10279334 -0.10518872 1.2084658
0.16874754 -0.22427073 1.9716289
-0.66655517 -0.18088341 1.3661487
0.077142239 0.059662238 0.25852561
1.1939478 -0.24020109 1.5997117
0.26748449 -0.26998541 1.312521
1.3925065 -0.10447603 3.5305893
0.23226565 0.052166432 0.59224677
0.21222383 -0.21455792 1.4021842
-0.033314407 0.051491525 0.63172579
0.37078601 -0.2890296 1.9035742
-0.34146416 -0.19635907 1.2447505
0.13620564 0.059292685 0.27445984
-0.56454897 0.026728705 0.80132532
0.97223777 -0.19339448 1.4828942
-0.51505446 0.044038642 0.6457746
-0.50884795 0.044680104 0.79082942
0.27870905 -0.19685844 0.93815851
0.55692589 0.027722405 0.87134147
1.2596158 -0.15828794 1.5257347
0.99894971 -0.16510552 1.3673198
-0.52235121 0.027265765 1.10956
1.6497452 -0.46319637 2.8507445
0.43970245 0.0012700111 1.5521843
1.1716459 -0.23640448 1.5723131
0.28048313 0.029807543 1.141546
-0.74026215 -0.064737387 1.4280927
0.44226313 -0.14500237 1.8584812
1.1705294 -0.2718924 1.7333601
1.8468394 -0.073793255 2.7703764
0.21594077 -0.21121156 1.4014609
0.79126763 -0.081766471 1.2956178
1.9089624 -0.078737311 2.8689339
0.20203102 -0.17989829 1.7859457
0.97965318 -0.27235705 1.5381744
0.29595441 0.035016615 1.2256193
-0.090973258 0.058335856 0.410285
0.42883313 -0.11585181 1.898484
-0.37127459 -0.23878017 1.5669568
-0.67400163 -0.18222463 1.3786216
0.22262752 -0.20513117 2.2372334
-0.35515755 0.053281087 0.76699233
-0.11549032 0.058966205 0.30850244
1.0438185 -0.1647065 1.339349
0.21197608 0.057156369 0.30649424
0.34955364 0.016506834 0.55416179
0.36859959 -0.13370687 0.57737827
0.22076249 0.056965712 0.29691434
-0.0534181 0.061067306 0.27219009
1.0075219 -0.16653952 1.3268766
1.028128 -0.19076872 1.4227641
0.27751052 0.042101227 0.4307251
0.23864114 -0.24525329 1.3848009
-0.52661985 -0.0865288 0.64782214
-0.55245274 -0.1265223 0.75632572
0.39185256 -0.011011004 1.2626529
0.087484837 0.056151897 0.48962498
0.79617524 -0.071673296 1.3456295
-0.16475815 0.053314574 0.78638053
0.11487764 0.048146121 0.85791039
0.28595054 -0.18505546 1.465256
-0.036670178 0.053153064 0.66328859
-0.25321543 -0.15380698 1.2174435
1.6986417 -0.06250865 2.4613669
-0.55238354 0.018070608 0.70672274
-0.51314789 0.043865994 0.6431129
0.08400476 0.057149209 0.38126874
0.34458333 0.020300001 0.54455042
-0.087477624 0.057368606 0.37868571
0.083566397 0.057012685 0.38229513
1.1354479 -0.16888231 1.4394484
0.34459096 0.019978195 0.54606938
0.2236551 0.053347014 0.46486688
0.34224749 0.015877366 0.53161001
0.341102 0.040444896 0.54049563
0.47481859 0.037404198 0.62387013
0.22966236 0.054034673 0.47995806
0.30808383 0.045125529 0.73471427
0.47563601 0.03725427 0.62471056
-0.10517016 0.058948457 0.37609744
0.22663617 0.053624097 0.47000647
1.0568752 -0.1941717 1.3214843
-0.2654264 0.054175153 0.8078618
1.0179374 -0.13452196 1.4253345
-0.089899778 0.058458712 0.38813925
1.0635887 -0.27910593 1.592726
0.17320406 0.057584591 0.60898662
-0.74837011 -0.06758672 1.4544151
-0.35965079 0.054745704 0.6897521
-0.55115563 -0.12583455 0.75547242
1.05566 -0.050097838 1.375428
0.4356215 -0.081683353 1.5923245
0.28429371 -0.21539903 1.2439661
0.27564192 -0.058886357 0.68503642
-0.56352091 0.026419166 0.80128932
0.2410537 -0.20984074 1.0401287
-0.85486901 -0.048574723 1.859256
0.1408025 0.043035585 1.1231973
0.41094625 -0.04670088 1.4233937
0.45891011 -0.074412115 1.7597163
0.24587828 0.050884299 0.70677376
-0.68339097 -0.11408523 1.5952504
-0.37403119 -0.17142874 1.6199095
-0.070485353 0.051223181 0.68641329
1.3403282 -0.073009923 1.8245208
0.21991622 0.057056468 0.29540682
0.21793354 0.057467394 0.37684464
-0.78344762 -0.076190136 1.3772655
0.49341017 -0.11702382 0.92350698
-0.060513467 0.059795607 0.26573133
0.12046713 0.052853208 0.22666526
-0.3598451 0.053876244 0.76519608
0.63449717 0.032856487 1.4116364
-0.21489269 0.053148512 0.31551909
0.13114613 0.034536876 1.6156609
-0.051440537 0.063109539 0.57300854
0.68305355 0.034138586 1.5268333
-0.19339997 0.054694101 0.3782115
0.28113991 -0.1578021 1.4535697
-0.43102014 -0.17676473 1.3171268
-0.13356292 0.061104421 0.28254604
0.29837495 0.038716227 0.73271728
0.15742579 0.057132132 0.4143362
1.1915333 -0.20177335 1.5395968
1.0588107 -0.17379794 1.3519022
0.38381684 -0.11989374 0.59441423
0.33953947 -0.11708381 0.56218171
-0.11706865 0.058811557 0.30904841
0.23017913 0.054047894 0.4803586
0.26669896 -0.19230309 1.0463409
-0.1936579 0.050093468 0.43078041
-0.16333267 0.056940876 0.40328097
1.4806205 -0.18344235 2.1005495
0.03191191 0.03893131 1.3516767
0.23995262 -0.26621038 1.3626082
-0.38418865 -0.30811334 1.6390402
1.1728122 -0.23801234 1.6431315
-0.57390881 -0.11454009 0.75715876
1.6859452 -0.085185468 2.3757732
0.27258861 -0.15586689 1.4921825
-0.049804389 0.060863331 0.28020573
0.062320858 0.043255959 0.27341747
0.33483154 -0.11508956 0.55270839
-0.029079914 0.052931335 0.73302436
0.074846596 0.051228613 0.33371496
0.80489165 -0.025003999 1.9018581
0.0300726 0.035227582 1.2086611
1.2024558 -0.24526843 1.6128051
0.33893538 0.017092265 0.55644393
0.4919129 0.040049545 0.64355874
0.2318657 0.051511083 0.43252158
-0.16587341 0.050973874 0.76570606
-0.054476708 0.057416268 0.3872683
-0.041073471 0.055428412 0.46927929
0.11264604 0.058726531 0.33411336
0.32089072 -0.13479608 0.64046502
0.34075963 0.02022513 0.56112099
1.0318589 -0.16215292 1.4928176
0.64779413 0.0092435274 0.77621245
-0.046674073 0.057592764 0.25742722
-0.17169142 0.060169242 0.29891753
0.24866706 -0.18362772 0.98716569
0.25296855 0.035318833 1.5043242
0.45352054 0.018015325 1.4503276
0.36532944 -0.10680904 0.96339321
-0.029845059 0.044907369 0.53395677
1.0641348 -0.14212215 1.4788272
-0.51677477 -0.14221814 0.75550771
-0.081233799 -0.24551129 2.7194083
0.46161872 -0.075070791 1.7791398
-0.50880295 0.044700097 0.97608256
-0.052423775 0.060564093 0.26711679
0.2004236 -0.22827715 1.274946
0.3529526 -0.16813514 0.9218719
1.0693942 -0.11057987 1.2904716
1.0659659 -0.26279882 1.5455668
-0.10744974 0.056991655 0.32984757
0.25704503 0.054477081 0.50291967
0.27195311 0.036569439 1.6273496
0.23593128 0.052700896 0.44118381
-0.50075704 0.053357452 0.68657947
2.3270602 -0.062427439 2.8351228
0.23722905 -0.19430009 1.2847931
-0.66187239 -0.17788517 1.3490055
0.99205357 -0.25873065 1.5216506
0.21425483 0.058006063 0.30933905
0.21824789 0.057294108 0.35322189
1.078356 -0.15990683 1.3491333
0.41883117 -0.16781601 2.0011175
-0.04482469 0.057477951 0.44843984
0.24139136 -0.23932344 2.4673307
0.86199808 -0.028383028 1.0534596
-0.1284999 0.058746893 0.32377219
1.0343457 -0.17736754 1.4889891
-0.51741362 0.023926124 1.0027807
0.077916563 0.060486466 0.26425385
-0.32801479 0.063979298 0.4816196
-0.54915547 0.023002263 0.80412054
-0.17493942 0.061125584 0.30637836
0.47950369 -0.08473774 1.8482382
-0.076146662 0.051259037 0.6873188
-0.55818784 0.026662918 0.79431748
-0.19651273 0.055644207 0.38715386
-0.21736979 0.051794369 0.39740133
-0.091427445 0.06038275 0.4017837
-0.14933753 0.056796268 0.29010677
-0.83944166 -0.086033449 1.2617307
0.88014436 0.024518495 1.7180498
0.22229695 0.05793041 0.36240959
0.26076776 -0.16796958 1.3166366
-0.80514824 -0.075695001 1.4355474
-0.5509842 0.039382808 0.90831923
1.0281973 -0.19350094 1.2196419
0.47106236 0.03687169 0.61718369
0.29899746 -0.18707514 1.4515188
-0.10459912 0.058745459 0.36895514
-0.48985732 -0.01114437 1.19502
1.0358329 -0.10630915 1.2504852
-0.51887339 0.02284744 0.66758871
0.85331476 0.024046073 1.6553576
0.30496734 -0.22966748 1.3421452
0.12486711 0.054056916 0.25119734
-0.42812377 -0.23145869 1.1811354
0.41871667 -0.13256818 1.7200882
1.1122903 -0.086117648 1.2775207
-0.1261214 -0.039022416 1.1009128
-0.42840368 -0.19025856 1.2272143
-0.13320899 0.061200507 0.28167534
1.1486928 -0.17404759 1.4496353
0.53034025 0.04371611 0.6556983
1.0584837 -0.14850309 1.333348
-0.055767328 0.058578234 0.39648557
-0.54981911 -0.11007086 0.7200129
0.47609413 0.041126292 0.57358623
0.38366401 0.021358799 1.0318117
0.29180682 0.02591628 1.6029589
1.3261062 -0.041359924 2.649677
0.38478833 0.019797407 1.0355203
0.37490231 -0.13582668 0.99518824
0.28327477 -0.29766992 1.4182262
-0.3508625 -0.027374528 1.334456
1.2365984 -0.25998724 1.570061
0.33255726 -0.11276581 0.54754186
1.3535069 -0.037280627 2.6136887
0.084250927 0.054081529 0.45871139
-0.34876031 -0.15120798 1.0183511
0.42916012 -0.10289577 1.9073579
0.28737551 0.039344851 0.78088975
0.33750606 0.014886901 0.53199029
1.4038675 -0.080011055 1.8217909
0.2526505 -0.16916779 1.4421394
-0.51328111 0.036564715 0.84296775
0.36746585 0.040507644 0.60061193
0.24876839 0.053411335 0.48713779
-0.62334937 -0.10518738 1.4431498
0.33558327 -0.1253199 0.56583738
-0.15835571 0.055255942 0.38647747
0.3153221 -0.18839175 0.89714551
-0.67128301 -0.14892325 1.4332876
0.27502465 -0.1733937 1.3643034
0.44390655 0.038158521 0.53996229
0.28415555 -0.21353474 1.2464478
0.5803479 0.043703973 0.66885471
0.42266124 0.027998986 1.0606232
4.7665 -0.19826865 7.8031874
0.42006934 -0.026005741 1.4986718
0.32713729 -0.09156917 0.52726912
-0.67526048 -0.16940427 1.4933836
0.36489576 0.042591132 0.79838538
0.31882823 -0.11965927 0.55282354
0.085178226 0.046708953 0.54931402
0.085099846 0.058095746 0.38305569
0.29422969 -0.17071885 1.617348
-0.03848666 0.054262642 0.66473937
-0.75521046 -0.084087014 1.4575031
-0.07405296 0.059495632 0.25475597
-0.50041771 0.012129623 1.1943679
-0.090362906 0.048372038 0.61154556
-0.54694635 0.023835644 0.70884442
-0.55628812 0.028972227 1.1867197
-0.15719157 0.055149809 0.3868556
-0.74783301 -0.18267116 1.3407164
0.24212652 -0.2032631 1.4189413
0.47611815 -0.12302699 2.1037309
0.29463243 -0.17623469 1.5129769
-0.14080486 0.059949547 0.28776598
0.21659249 0.056635838 0.35987377
0.10569224 0.053920005 0.740973
0.10426083 0.052945323 0.72450542
0.071375489 0.060600869 0.26826978
-0.12078589 0.058079064 0.34043455
0.49858236 -0.13567555 0.97156429
-1.191062 -0.44818899 2.85133
0.25028288 0.051997378 0.72171497
0.52156174 -0.1467962 1.0470488
0.50018734 -0.13630593 0.97221613
0.44954431 -0.12739626 1.6199734
1.0790687 -0.23181745 1.2935905
0.047199041 0.015123144 0.35154724
-0.010325342 0.050208814 1.0026419
-0.56838381 -0.17955235 1.6961372
0.31082946 0.023856312 1.6441114
-0.48155892 0.019534037 0.75874662
0.0019144714 0.052774627 0.54517698
0.23350811 0.058120981 0.45880365
0.51250458 0.042813137 0.62366605
-0.39867538 -0.22223553 1.1467826
0.27938575 0.043183539 0.44845152
-0.12210384 0.05881314 0.34527254
-0.807675 -0.068050973 1.3358123
0.31796867 -0.11442212 0.54334426
0.35767621 0.095256567 0.53976989
0.27496916 -0.26247251 1.3868835
1.0908902 -0.17939693 1.5820591
-0.49338233 -0.16894379 0.79676127
-0.54448873 0.024425533 1.0691574
-0.42583817 0.010173935 1.144834
0.31415945 -0.055394121 1.150367
0.3093012 -0.18000221 0.9624815
0.33351481 -0.050690934 1.3351369
0.023320705 0.059520703 0.33954573
0.56922811 0.039294809 0.84127235
0.055893183 0.033924621 1.5024273
0.93550056 -0.20085323 1.4776003
0.20195502 -0.23278251 1.4118781
1.0893165 -0.12526315 1.3601625
-0.74313968 -0.082227848 1.396724
-0.044712037 0.055446055 0.41887188
-0.41165847 -0.17860481 1.1894495
-0.15470845 0.0581421 0.29501677
-0.51428854 -0.15336132 0.98038197
-0.52335608 0.027583087 0.83240247
-0.37241614 0.055756211 0.80091739
0.95077282 0.013488291 2.0043433
-0.48525566 0.040240243 0.90396786
0.0063624382 0.054601118 0.57950091
0.2612583 0.050898042 0.32010984
-0.21495882 0.030492723 0.69702601
0.29751468 0.050225213 0.3511157
0.30557328 0.045006935 0.7287395
0.33930373 0.026144627 0.55913424
1.3423358 -0.084325328 2.6263425
1.1212676 -0.22666302 1.4933999
-0.70163065 -0.32937416 3.4239051
1.1029301 -0.25643098 1.6214054
0.24604911 0.050686453 0.31827855
-0.53581202 0.024130074 1.0539708
0.27712148 0.035879031 0.68004036
-0.13560683 0.061818987 0.28810024
-0.46185344 -0.15700549 2.1881049
-0.48072004 0.054324307 0.78332424
-0.32186729 -0.29664996 2.3239629
-0.55096662 -0.1781539 1.2458494
-0.6110009 -0.19136256 1.3342452
-0.69999969 -0.16093853 1.500838
1.1373849 -0.16671184 1.4486787
0.2642287 -0.26163617 1.2841597
-0.044997841 0.058884405 0.46140456
-0.67238164 -0.13120887 1.464103
-0.62116235 -0.1810559 1.1906211
