# .PCD v0.7 - Point Cloud Data file format
VERSION 0.7
FIELDS x y z
SIZE 4 4 4
TYPE F F F
COUNT 1 1 1
WIDTH 573
HEIGHT 1
VIEWPOINT 0 0 0 1 0 0 0
POINTS 573
DATA ascii
0.3613832 -0.11950397 1.0071956
0.96257401 -0.046112172 1.3063551
0.61558884 0.0049857553 1.3615688
0.1735175 -0.025956942 2.6331606
1.4931442 -0.096613504 2.4897079
1.9075893 -0.10820361 3.512135
-0.56835544 0.0046675336 0.77683079
-0.55913794 -0.034772292 0.7737695
-0.2699137 -0.30196401 1.7506799
0.39152217 -0.16309221 1.1430064
0.32331195 -0.1506003 4.6828775
-0.30086857 -0.21508203 1.2200454
3.3282993 -0.31331292 4.6747136
-0.24127343 -0.32348281 1.8176647
-0.26124474 -0.25306639 1.4262794
-0.24975908 -0.32080904 1.7535304
0.35617235 -0.21388897 3.9696474
-0.24354163 -0.34368911 1.7912666
0.24860939 -0.17525777 1.294295
0.23363614 -0.026449325 2.2841835
-0.5598048 -0.034888618 0.77636373
-0.31300977 -0.19504742 1.18815
-0.56819087 0.0039478913 0.7763983
-0.57708168 0.032528218 0.78560221
0.65714371 0.017193221 0.93177426
0.46363547 -0.1690177 1.9056605
0.37124458 -0.22198814 4.2157393
-0.24175778 -0.24686509 1.5095605
0.36254677 -0.41834545 4.6803055
-0.27179384 -0.33191788 1.6867999
-0.24935499 -0.2561557 2.1511574
-0.43702474 -0.16458052 2.2098527
0.38516352 -0.22880214 4.3944926
-0.49496153 0.015125938 1.3070437
-0.18181705 0.046249032 0.7786659
-0.49601671 0.021986946 1.311036
-0.27329636 -0.23365152 1.4002787
-0.32475051 -0.239557 1.1779
0.38628218 0.011014602 2.0329075
0.45609751 -0.19965754 2.6961532
-0.31188124 -0.38250506 1.8182067
0.37745753 -0.20913938 4.3052678
-0.38106894 0.056307994 0.7391597
-0.38131806 0.056506813 0.73417962
-0.54044807 0.019951448 1.0682648
0.31449956 -0.16205475 1.0516831
-0.5451833 -0.12185986 1.381178
-0.37950197 0.028334748 1.5892657
-0.41348499 -0.083032764 1.8741876
-0.53797054 -0.11862982 1.3539118
-0.56704223 0.032057993 0.78969395
0.92626524 -0.072411165 1.9610926
-0.11265559 -0.11340911 0.61510766
-0.19714749 0.055472016 0.95456922
-0.25501612 -0.3404876 1.9105607
0.36390999 -0.38167441 4.2297888
0.7020244 0.024138717 1.2556795
0.69657147 0.023183791 1.2474793
-0.46481368 0.010606796 1.5593058
-0.33169588 -0.15612905 2.0994287
-0.38453904 -0.17082988 2.4644265
-0.48346767 -0.036161877 2.5336838
-0.78334892 -0.098719455 1.8949369
-0.18064579 0.047613621 0.80320466
-0.43145642 -0.19299302 2.0440764
0.2574285 -0.2862193 2.9737544
-0.28564861 -0.20725051 1.4067873
-0.54098642 0.0061353222 1.1761683
-0.49406466 -0.021180103 3.0392857
-0.55140215 -0.1107027 3.4674773
-0.36166951 -0.19043887 1.2079989
-0.55266523 0.016233917 1.1037194
-0.56091249 0.023946723 1.0326709
-0.44378445 -0.158546 1.1934923
-0.38169393 0.05700827 0.60924923
-0.46107426 -0.17111216 1.2071239
0.6540795 0.031828657 0.93400848
0.39214399 -0.1625827 1.1426274
-0.49093023 0.013144248 1.3002251
-0.27012774 -0.23626474 1.6225525
0.33756289 -0.34211141 4.4356031
-0.28225371 -0.18289918 2.288516
-0.55148131 -0.057610996 0.77624452
0.34543073 -0.2800687 1.831807
0.64058816 0.033107385 0.92566955
0.14167371 -0.018011851 2.1077447
-0.55862969 0.022420065 0.97583807
-0.54573143 -0.10788064 0.77208292
-0.48348179 0.0034832563 1.3196417
-0.072023384 0.059810713 0.31917441
-0.30270585 -0.25335309 1.194106
-0.28556222 -0.29214811 1.837092
-0.22974893 -0.29099393 1.7374567
0.18527272 -0.029607201 2.9338856
0.6805383 0.024641605 1.1182951
-0.44578001 -0.15947501 1.2014948
0.32698399 -0.29608241 1.7866391
-0.20129049 -0.20183396 1.8175558
0.14516944 0.059453875 0.29740822
-0.57637984 0.00075161085 0.98463809
-0.38365999 0.057611927 0.6130749
-0.17885426 0.048366413 0.80802119
-0.29206738 -0.17025234 2.4109359
-0.34606978 -0.25308436 1.1714917
-0.53960818 0.0056236703 1.4140257
0.34016842 0.010464104 1.9944195
0.34825012 -0.22810763 1.6526517
0.072475545 0.05705367 0.29743612
-0.55330896 0.016700851 1.1011316
-0.31715333 -0.26471835 1.2214311
1.1684303 -0.052231088 3.2673087
0.44053808 -0.018547649 1.7661618
0.2971577 0.037607353 0.35918581
-0.5107404 0.015017305 1.2550291
-0.4476786 0.01138989 1.6789929
-0.4135153 -0.22830695 1.1646684
-0.53794205 0.057136677 0.7159549
0.48906356 -0.15389851 1.5924643
-0.80982709 -0.084783629 1.6958514
-0.54063189 -0.12151874 1.3597883
0.3038868 -0.19589207 1.0382749
0.15604192 0.056575712 0.44724119
0.50013804 -0.17787111 2.0811801
0.2276935 0.038019486 1.280135
-0.19772685 0.055590976 0.34531343
0.30585817 -0.24744689 1.9975642
-0.76993084 -0.080353484 1.5843412
-0.51722747 0.0091801174 1.3667518
-0.19929633 0.05398963 0.43513072
0.39105493 0.040952452 0.79112566
-0.57186747 0.031930149 0.77775061
-0.84904283 -0.1758461 1.2808923
0.12293669 0.059337094 0.28374469
-0.55429524 -0.13795531 1.3825547
-0.5477404 -0.10844972 0.77631223
-0.47366443 -0.20065409 0.90864193
-0.1894303 0.054856047 0.7068857
-0.46779886 -0.16623414 1.2682234
0.6613099 0.0071985144 0.87406385
-0.53149086 0.047192574 0.74430144
-0.50229025 -0.19873112 0.89232647
0.51321787 -0.18377149 2.1188068
0.31128654 0.039255317 0.37325799
-0.42529032 -0.22138213 1.2779227
0.40204251 -0.15096003 1.0100163
0.36933938 0.039541259 0.70235145
-0.30612025 -0.37414593 1.7767409
-0.10558728 0.055043004 0.65887654
-0.054154493 0.056121651 0.57460916
0.1563915 0.046866596 0.67156422
0.31271827 -0.17655917 1.0827984
-0.55733001 0.047070116 0.71167672
0.040081106 0.053055972 0.8069917
-0.23355591 -0.2312555 1.9920198
0.31581214 0.025437253 0.39141953
-0.28276509 -0.19866884 1.3589503
-0.31536964 -0.19695723 1.199299
0.60174966 -0.12373804 1.5355181
-0.39205226 -0.19589956 3.1511011
0.1993055 -0.41943264 4.4092193
0.3134113 0.037749175 0.3921541
0.31655872 0.0031517446 0.38408577
0.31615153 0.038804717 0.38273966
0.32457051 0.034836993 0.38538778
-0.5106734 0.053029105 0.81865919
0.23271126 0.052549865 0.28961885
0.12389617 0.059383377 0.28486741
-0.21841529 0.054412398 0.34570277
0.45711347 -0.17476068 1.1981536
0.16944554 0.052226573 0.75481737
0.39651728 -0.16563012 1.1623269
0.92322987 -0.080137499 2.7365685
0.40132701 0.026762102 1.1647946
0.20689288 0.057109363 0.44082749
0.25454989 -0.21708366 1.0736686
0.31628683 0.0341832 0.39151394
0.30832851 -0.1470814 1.0286366
-0.48221621 -0.049587332 1.3047415
-0.040568925 0.052575357 0.60639584
0.53738379 -0.16103171 1.9243935
-0.37604004 -0.22668552 1.2066118
-0.42233613 -0.22042678 1.2680167
-0.056565709 0.055907756 0.3892206
-0.56791592 -0.17823902 1.4748372
0.3158229 -0.17490231 1.7463928
1.5249137 -0.36726674 4.0611925
-0.28976938 -0.37650988 1.8304099
0.15132752 0.045481861 0.64350355
1.5036079 -0.33773187 3.76968
-0.46737668 -0.11888937 1.2945946
-0.48521236 -0.06956698 1.3242892
-0.40055001 -0.035236523 3.0483537
0.61280763 -0.36759982 5.6104832
-0.29279706 -0.20499614 1.3365248
-0.1927875 0.061772898 0.26255333
-0.053461619 0.056269757 0.55553091
0.38668039 -0.11502326 0.57530701
0.4424811 0.0354954 0.79764593
-0.41484618 0.031495247 1.5877446
-0.4661459 0.036206707 1.2827271
-0.21147695 0.054980062 0.27835023
0.3266401 0.024167126 0.38028777
0.32290456 -0.1413286 1.031381
0.16756019 0.052570559 0.74470794
0.12821183 0.042045154 1.0168766
0.44990215 -0.17933221 1.9727744
-0.43380323 0.025461838 1.4914254
0.34790057 0.030209789 1.0905586
0.30280259 0.03468379 1.8104945
-0.037059851 0.056590106 0.87561977
0.32408959 0.035734341 0.38020432
-0.45245466 -0.1910388 1.0769376
0.24197507 0.049548388 0.60754955
-0.4769896 -0.12138278 1.3300489
0.30870542 -0.21361096 1.0611669
0.30942383 -0.052152477 1.2965235
-0.43666276 -0.13113008 1.1141707
0.32222691 -0.46229073 4.7476139
0.30885306 -0.46139598 4.6385503
0.23987636 0.049548864 0.60009396
-0.023360483 0.049306855 0.82904017
-0.21531272 0.046300635 0.63016808
0.90715122 -0.029863903 2.0276508
0.23259559 0.052854009 0.28998506
1.0845988 -0.26596683 2.0388103
0.36890656 0.043341354 0.67461812
-0.22738451 -0.31679863 1.7284552
-0.50102472 0.053529792 0.64920104
0.077341102 0.05620078 0.3939811
-0.29462862 -0.25508642 1.5329427
-0.33421835 -0.28830975 1.7660619
0.25392419 0.0478791 0.83894122
-0.46401891 -0.11874434 1.2905716
-0.51360166 -0.23119998 1.3172022
-0.37558675 -0.003206009 1.6102535
-0.57843018 0.035111737 0.79136693
-0.61612022 -0.056301519 2.1423764
-0.46886453 -0.28100994 1.3205692
-0.33979562 0.086744525 0.65480649
0.25339237 0.048627906 0.83837283
0.99241978 -0.29951909 2.4889841
0.41000751 0.012960202 2.2022429
0.33168998 -0.20723629 1.0481802
0.3328273 -0.20673351 1.0486399
-0.35150746 0.052464642 0.60581887
-0.19809186 0.053897448 0.43139422
0.22888926 0.05296202 0.39075792
-0.035665594 0.05484309 0.8491503
0.1836217 0.051749997 0.67107642
-0.54390597 0.01807013 1.1743556
-0.1184331 0.059332713 0.31934631
0.3176941 0.0055652168 0.37990534
1.4632181 -0.19996043 3.8540487
0.02310086 0.052884839 0.63623941
-0.53646243 -0.18499373 0.86110151
-0.48597303 -0.18311675 0.9570502
-0.30495194 -0.22088262 1.2462171
-0.3702029 -0.20102461 1.2549948
0.38252169 0.041337006 0.64114535
0.21529812 0.059681736 0.25992405
-0.08234515 0.046833042 0.65550506
-0.51148218 -0.19843929 1.2414962
0.15559959 0.052474976 0.59381711
-0.37814236 0.056347337 0.73281181
-0.21190515 0.055150531 0.2798506
-0.22001064 0.053611614 0.45110476
0.21444458 0.059476607 0.25827014
0.57644773 0.023681168 1.5366699
-0.73318231 0.082301013 0.96557105
0.81730288 -0.14446117 1.076933
-0.31857446 -0.23592609 1.1553761
-0.19822195 0.056359515 0.34548438
0.40874034 -0.31377947 2.1523657
0.50932819 -0.15178902 1.2408427
-0.58137238 0.022344094 0.71726143
-0.19816998 0.048092879 0.61329615
-0.53747576 -0.11774457 1.3526965
0.44007421 -0.1758015 1.905116
-0.37790677 -0.22779214 1.2148112
0.79837704 -0.17986853 2.3002763
-0.49199995 0.014685276 1.3035754
-0.52560157 -0.180638 0.84318578
-0.58874792 0.023994751 0.96543944
-0.31335381 -0.19528797 1.1963538
0.42081878 -0.12885226 2.8385382
-0.034721084 -0.17549059 2.1288056
0.33493084 -0.13626653 1.7100188
0.23168412 0.053638138 0.3967787
0.19913897 0.056222603 0.73540986
0.49167871 -0.20505355 1.452268
-0.18958241 0.05495394 0.69137537
0.6137864 -0.16302902 2.8177123
-0.19272959 0.056531236 0.54337728
0.17914397 -0.054461226 1.9399167
-0.25903329 -0.48099774 4.0843692
0.3259806 0.0082954839 0.39103782
0.36476344 0.047765352 0.53290594
0.14626482 0.059723765 0.30063236
0.31969106 0.0076152589 0.38232768
-0.19112977 0.060512975 0.30154026
0.31769288 0.046708994 0.54177153
-0.217042 0.054334 0.343876
0.30409145 -0.19483437 1.0363659
-0.85152829 -0.18547219 1.5129083
0.2396161 0.05286967 0.70024955
0.34361327 -0.1934665 1.0041665
0.21821064 0.058874384 0.29802954
-0.56631118 0.04829073 0.72718132
-0.063721813 0.05973804 0.3090862
-0.20036492 0.052501015 0.52153432
-0.57924318 0.033604037 0.71655905
-0.54434192 0.035546858 0.94864166
-0.20704749 0.050402969 0.41143668
0.24489293 0.048115876 0.63825619
-0.44341299 -0.26600873 1.2418047
-0.19685563 0.053580113 0.42763531
-0.073235847 0.06087064 0.321895
0.71776664 0.022698637 1.5743278
-0.057980143 0.05882749 0.42690313
0.074891455 0.058573574 0.29894269
-0.559183 -0.16203915 0.91973412
-0.52163321 -0.1674467 1.3396345
0.57969117 -0.1934094 1.5911824
-0.41186705 -0.21448585 1.2330962
0.27911136 -0.22722653 1.2163547
0.81128788 -0.046904363 2.046689
0.29978666 -0.15428115 1.1542658
-0.19368777 0.052546773 0.5990411
-0.057382651 0.057154439 0.4078151
-0.2558696 -0.28242096 1.3343397
0.59464908 -0.078378186 2.3034525
-0.49578997 -0.045150988 1.7224284
-0.056310363 0.057469241 0.56757152
-0.039357923 0.053883042 0.64291131
-0.49206433 -0.17805654 0.93132722
-0.25561294 -0.28196138 1.3287665
-0.28662032 -0.26421139 1.1979841
-0.11583554 0.055128753 0.82174408
-0.52399778 -0.17487939 1.3654073
1.262427 -0.040836781 3.1545525
0.3334097 -0.24450457 2.479135
0.58089298 -0.092259139 2.5355177
-1.7199382 -0.20257993 3.9351139
0.91861844 -0.11702207 2.5076833
0.23084304 -0.26134789 1.1712431
0.57267481 -0.10313157 3.6328483
-0.4354234 -0.10140207 3.3345304
0.38001788 0.040765494 0.63706577
0.2038357 0.056505464 0.42830241
0.31853727 -0.050317116 0.37767851
-0.19856432 0.048593581 0.61623561
0.12967026 0.060753204 0.28768218
0.24604973 0.05165004 0.35100663
0.32792366 0.034066491 0.39010847
-0.40126532 0.061330058 0.49685776
-0.065658234 0.062101059 0.32268226
0.38628694 -0.20471595 0.9575237
-0.069884129 0.058070347 0.29721916
-0.52638215 0.032616928 0.71090543
-0.53142118 0.047603011 0.74486649
0.31939429 -0.05033727 0.37775695
-0.47109148 -0.15700607 0.71076286
0.15700138 0.058773212 0.25818479
-0.19575331 0.05387415 0.54714358
0.32450083 0.039737888 0.39102876
-0.055646859 0.057109304 0.4145292
0.079914413 0.058296368 0.41758931
0.32416672 0.03595832 0.37929547
0.17274109 0.055833951 0.64007509
0.031090207 0.057471223 0.26189101
0.31957635 -0.050505318 0.37802565
-0.19182295 0.057673804 0.75938475
-0.38958988 0.05853942 0.62337363
-0.46080884 -0.18666917 0.89486277
-0.55825198 0.031638425 0.8303777
0.24595305 0.051464252 0.35070598
0.32461119 -0.0075788815 0.37933552
0.21893534 0.059235603 0.299353
0.27991667 0.042596713 0.58705461
-0.21254775 0.055307407 0.28093421
-0.072669052 0.060285792 0.31352985
0.32901517 0.024762541 0.38346756
0.2941311 -0.20421925 1.0046262
0.24807346 0.05158047 0.35509408
0.60114956 0.030503582 1.1328067
0.24692327 0.051995572 0.36538374
-0.84359944 -0.17999136 1.4228431
0.07623487 0.062882386 0.34717643
-0.47335657 -0.18631621 1.158197
-0.05492612 0.055262662 0.39571941
0.44369474 0.037173994 0.80192912
0.32827628 -0.081890076 0.38474238
-0.89760411 -0.1798304 1.2204918
-0.48825398 -0.21031147 1.2066265
-0.51546419 -0.16572738 1.3152958
0.74014044 -0.0249482 1.4796897
0.78826964 -0.045716383 1.9859711
-0.20496586 0.044696704 0.41504538
0.46381995 -0.12263968 1.6104916
0.33244842 -0.16001545 1.1319953
-0.55617779 -0.035697117 0.7690047
-0.057466038 0.058200784 0.57599771
-0.22869265 0.059990019 0.36165369
0.70715654 0.019075263 1.56034
0.31655487 -0.049885303 0.37507284
1.0985718 -0.27646011 2.1026812
-0.51789141 -0.18738703 0.89470804
-0.080778994 0.04812561 0.69024527
-0.4477438 0.013000044 1.6887864
0.042560302 0.053068221 0.786672
1.3913912 -0.058338672 3.377749
-0.087472491 0.051625073 0.74837887
-0.55500114 -0.063532636 1.4465131
1.1830148 -0.1057478 1.3870469
-0.51517737 -0.18407319 0.91726696
-0.29763293 -0.21855223 1.7207574
-0.50279713 -0.21616594 1.2471157
0.43733981 -0.051763833 1.9852961
0.68168801 0.026309785 1.1623923
-0.3119351 -0.2253907 1.2808222
-0.27666271 -0.38203731 1.7949444
0.39011869 0.028053235 1.1238719
-0.34710106 -0.25722662 2.026031
1.7948728 -0.28475079 4.3083854
-0.4033258 -0.18248172 1.2553085
0.30064562 -0.37946257 4.0813556
-0.26283979 -0.21315661 1.8441089
2.5507281 -0.59811294 6.8635416
-0.68673253 -0.084414564 2.6526852
-0.55033267 0.0038738307 0.75741541
-0.23272589 -0.41376495 3.697793
-0.19210491 -0.42088154 4.1228328
-0.23558456 -0.33898482 1.7491273
-0.31122789 -0.37033486 3.3950853
0.16237965 -0.13574763 2.7317972
-0.21462601 0.056007043 0.28415787
0.65927827 0.034008343 0.94519937
0.31391978 0.018766625 0.37880719
0.084956281 0.052134853 0.50022233
0.075389974 0.058606043 0.30123365
-0.20430765 0.058629207 0.26006949
-0.11695793 0.058813788 0.31501853
-0.77771401 0.08843071 0.94987714
0.007337831 0.059577145 0.271402
0.36331418 0.047453374 0.52777994
0.37721387 0.048412815 0.54819643
0.33563238 -0.070434302 0.39054573
-0.50329608 0.053023629 0.77623594
0.070736773 0.058448188 0.31796348
0.27698547 0.042401232 0.65906703
0.32088947 -0.011015454 0.38291061
-0.38183758 -0.22808215 1.1478158
-0.55685699 0.033130467 0.75274408
0.3189531 0.018448204 0.3840059
0.031140216 0.060466044 0.28766549
-0.19437179 0.061902173 0.30836713
-0.44351348 -0.16517095 0.90448821
0.44974822 0.036787461 0.8349241
-0.52197742 -0.17521495 0.79391968
-0.19956478 0.053015415 0.39948404
-0.23575121 0.044915706 0.51991212
-0.043295063 0.059828192 0.31375992
0.52814889 -0.17487256 1.1386508
0.31984898 0.0090694334 0.38814175
-0.20008323 0.055034593 0.36347711
0.32974151 -0.0085052457 0.38593781
0.31453031 0.0031727608 0.38096201
0.32571074 0.018981906 0.39406168
0.68601567 0.017164476 1.1209081
0.37664354 0.040713571 0.72291768
0.34659061 -0.12286731 0.73773348
-0.21442306 0.055582792 0.28376424
0.32287529 0.0051315911 0.37983453
-0.85429251 -0.18321727 1.366944
0.15709418 0.057298183 0.44600999
-0.20608616 0.058835864 0.26298559
0.23991394 0.0563173 0.32590473
-0.21624959 0.053288542 0.27078021
0.37759402 0.04076986 0.72740257
0.2310681 0.05335696 0.3963362
-0.20099974 0.05096532 0.46496904
0.2786223 0.050540686 0.54612362
-0.21308741 0.051167533 0.51514018
-0.20135969 0.054063886 0.37168682
-0.21377245 0.053718623 0.32774913
0.27617019 0.041931611 0.65670502
-0.22079971 0.056251943 0.30404603
-0.20822948 0.055108368 0.42069137
0.32777214 -0.0084702503 0.38317263
0.23238426 0.053563602 0.3996166
-0.30643481 -0.25603417 1.177071
-0.44873843 -0.2687979 1.2584444
0.48636591 -0.22878054 1.0913807
0.4024497 0.0057649016 1.1320025
0.27518854 -0.23842809 1.0747899
-0.17532209 0.050433293 0.69068277
-0.10415683 0.054786526 0.63137805
-0.49500105 0.038710371 1.1421219
-0.50177538 -0.17448711 0.89901483
-0.1876851 0.050337836 0.66738546
0.44581503 -0.2122054 0.98941219
0.44808879 0.036790356 0.82957947
1.4365381 -0.14168321 1.7357961
0.32758045 0.02429379 0.38103926
-0.52775168 -0.18903542 0.94198859
-0.72264713 0.034532141 1.4443523
-0.41568157 -0.23207381 1.1792647
-0.43163231 -0.22753647 1.1670393
0.43843397 -0.19655836 1.0209686
0.49633464 -0.20979813 1.3382937
0.69707382 0.021566059 1.2585107
-0.49978051 -0.20228972 1.258967
-0.40485248 -0.14319958 1.1801063
0.5588643 -0.22325523 1.2463499
0.081464641 0.059030883 0.41724837
0.63837624 -0.037726328 1.2574159
0.67045093 -0.011499835 1.2202193
0.44750699 -0.18731664 1.1315356
0.52923936 -0.1819934 1.2134875
0.41781765 -0.17547594 1.0507659
0.38712302 0.022864483 1.1209108
-0.23380074 0.055417605 0.45612037
0.079191022 0.057383545 0.40942371
-0.13588336 0.037510041 0.60449207
-0.11513738 0.055733889 0.81643379
0.14416942 0.059027053 0.27150238
0.32615253 0.008413909 0.39168942
-0.3578783 -0.1689896 1.2830602
0.22308302 -0.0033053383 0.99586189
-0.13822639 0.036416434 0.30436957
-0.51732409 -0.17605944 0.83327711
-0.10507215 0.055323232 0.65181935
-0.43073538 -0.16044991 1.5240096
0.24679416 -0.24915841 1.3080035
-0.19620767 0.052378364 0.38968384
0.80083776 -0.048297331 2.0214243
0.80643797 0.019152066 1.8075436
-0.46215603 0.03243586 1.3168222
-0.31273457 -0.1955153 1.1940979
-0.41267604 -0.087962121 1.8738393
-0.44759652 0.010404132 1.6787153
1.4588064 -0.25216368 2.9831581
0.66724789 0.034671575 0.97923362
0.52655786 -0.15056556 1.0957888
0.36903653 -0.0073061679 2.105619
-0.59576023 -0.055480443 2.0923309
0.39490652 0.026490342 1.1377307
1.4028641 -0.24180439 2.8584347
-0.31734872 -0.19489783 1.2976412
1.1851937 -0.034775384 2.9863067
1.4132088 -0.29708806 3.6658444
0.71276373 0.03686744 1.0703365
1.1815587 -0.036032118 2.9675055
0.38384736 -0.111529 1.9384404
-0.4935253 -0.12163762 3.1805763
-0.018598832 0.044056073 0.72689974
-0.45218274 0.010564899 1.705788
1.551803 -0.24654412 3.5921297
-0.47454205 0.0060542859 1.3180045
1.5501527 -0.24892673 3.6045008
-0.78652871 -0.18723847 1.7606074
0.6907326 0.028843008 1.1171573
0.2094394 0.045068428 0.29442465
1.3273321 -0.091268316 2.7267289
-0.53375793 0.017105492 1.2870809
-0.21874827 0.059633039 0.48394454
-0.57779032 0.025132027 0.7745415
-0.86912632 -0.18797186 1.3944238
0.023611672 0.051158026 0.61710918
0.31874087 -0.052613564 0.38232458
1.238294 -0.093690559 2.4768195
-0.90102661 -0.094503835 1.6232232
-0.89311564 -0.093499675 1.6039256
