# .PCD v0.7 - Point Cloud Data file format
VERSION 0.7
FIELDS x y z
SIZE 4 4 4
TYPE F F F
COUNT 1 1 1
WIDTH 533
HEIGHT 1
VIEWPOINT 0 0 0 1 0 0 0
POINTS 533
DATA ascii
0.36678949 -0.11942716 1.1008145
0.62181836 -7.0892274e-06 1.4596277
2.521312 -0.1206588 4.0634317
1.8952398 -0.085714109 2.6666079
-0.25697204 -0.33167797 1.8436497
-0.34144351 -0.1999304 1.3516885
-0.46349686 -0.0018290617 1.4745945
1.8586239 -0.11272694 3.4346571
-0.55759513 0.0038076732 0.91577923
-0.55075455 -0.035700973 0.91925609
0.63666856 0.023302797 0.99279869
0.40248209 -0.16536045 1.2706789
-0.28749487 -0.21589191 1.3574234
-0.21898541 -0.31930786 1.912567
-0.29153025 -0.2570031 1.3422979
-0.22806928 -0.31635648 1.8443168
0.38748235 -0.21242145 4.0059595
0.28361121 -0.012964286 1.8084098
-0.22753155 -0.34643027 1.9450599
-0.54928416 -0.03520662 0.91584861
-0.29994133 -0.19615513 1.3268827
-0.55763316 0.0026689209 0.91613734
-0.56865752 0.031733599 0.93134081
-0.56773216 0.031182138 0.9303757
0.59939325 -0.1079853 3.6792665
0.47436091 -0.16742666 1.9874707
-0.31423938 -0.25547269 1.3017701
0.40719241 -0.22134469 4.2798357
-0.21816772 -0.24098295 1.577545
0.40526807 -0.41829023 4.7797227
-0.22962028 -0.281452 2.0311933
-0.22471848 -0.2548292 2.2552624
-0.50561285 -0.14739138 1.490059
0.31654298 -0.16039194 1.1363276
-0.46569616 -0.18468907 1.0760547
-0.41557518 -0.16311888 2.3512015
0.42553222 -0.23012879 4.4948955
-0.47716063 0.014114473 1.434091
0.3220652 0.01129439 0.5318538
-0.61841315 0.052244462 0.80980408
-0.47910506 0.021597615 1.4424661
-0.50639123 0.019097222 1.4340414
-0.25808233 -0.23445648 1.5356876
-0.31314647 -0.24164549 1.3246776
0.344771 0.02547746 0.52826226
0.39891303 0.0073862486 2.1066132
-0.49277234 -0.039635994 2.2043853
-0.61409765 0.051080804 0.80607569
0.25755122 -0.23872125 1.2927004
-0.45481861 -0.18237479 1.0514785
0.49174941 -0.20612645 2.8983479
-0.2936343 -0.38249829 1.9536883
-0.37135857 0.055123083 0.87796009
-0.37288967 0.055358179 0.87748539
0.31483346 -0.15987352 1.1272854
-0.5265398 -0.12183359 1.5084301
-0.34572995 0.026496019 1.6228102
-0.30659866 -0.23327634 1.8300923
-0.39818147 -0.085476175 2.0451055
-0.50970727 -0.18946294 0.95378244
-0.52186126 -0.11899464 1.4909555
-0.52757221 0.017876614 1.493457
0.94106019 -0.075841032 2.0746951
0.37323737 0.044826224 0.59770453
-0.34336787 -0.19758403 1.3505155
0.04822927 0.048894592 0.90993464
-0.23832455 -0.34616858 2.0817261
-0.6265893 -0.15948814 0.7862078
0.71189231 0.020767119 1.3761262
-0.20908532 0.051690467 0.47018683
0.71663898 0.019901559 1.3958513
-0.58044136 -0.059655406 2.2743311
-0.3246384 -0.16426098 2.3625579
-0.24157426 -0.11396992 1.6668171
-0.56632906 0.024601681 0.89936054
-0.41644138 -0.20248078 1.3049206
-0.46208966 -0.12117444 1.4719967
-0.76046944 -0.097834758 2.0295892
-0.75313699 -0.092279628 2.1833625
-0.171615 0.046214372 0.94752276
-0.40236169 -0.1908823 2.1319027
0.22569168 -0.22773466 2.3729758
-0.28607678 -0.22140737 1.6731306
-0.52848679 0.0053431652 1.3207189
-0.40076041 0.032499097 1.7436913
-0.46530479 -0.022299886 3.1965942
-0.46906322 -0.10071835 3.2149701
-0.34924495 -0.19169545 1.3514313
-0.56273949 0.031625059 0.91813433
-0.53976864 0.015535789 1.2450441
-0.42942637 -0.15942688 1.3298408
-0.56565511 2.5484711e-05 1.1262487
0.22223282 0.056145214 0.39639986
0.21864712 0.056805383 0.45869744
-0.44212997 -0.18981457 1.4629194
0.67418271 0.0029361174 1.0093211
-0.51847953 0.045151282 0.87648451
0.033507772 0.049809437 0.77702987
-0.37318519 0.055680837 0.74816859
0.3145335 0.027797595 0.51107895
0.66187376 0.028442062 1.0582217
-0.50851113 0.051902384 0.96209919
0.62043864 -0.054629229 0.77458775
0.40172872 -0.16409782 1.2640823
-0.4750793 0.012228309 1.4363617
-0.61013293 -0.18675072 3.1190581
-0.12402829 -0.12202711 1.4027137
0.70884186 -0.056605287 1.0226797
-0.48455626 -0.2112252 1.3534514
-0.26047722 -0.18489692 2.4427104
-0.54167539 -0.058307976 0.91735709
-0.50147575 0.023781758 1.2185835
0.66969573 0.0034134407 0.99921548
0.35794529 -0.278613 1.9273876
-0.32494789 -0.25085488 1.3688275
0.45584306 -0.17675896 1.1964642
-0.43836987 -0.16896969 1.3735324
-0.39337176 0.059829727 0.5103749
-0.39073068 0.059316922 0.62708366
0.082576893 0.056790207 0.50145924
-0.5563392 0.0024726484 0.91581213
0.24642795 0.049406424 0.8301326
0.15202168 -0.0184641 2.0234103
0.50667065 0.03725788 0.64026344
0.33831269 0.025961576 0.51491416
0.14950401 0.057361882 0.43016303
-0.56138188 0.052270737 0.79729664
-0.20127675 0.05508437 0.30351269
-0.54708362 0.021652091 1.1175617
-0.58636236 -0.12675491 0.80795586
-0.53269047 -0.10777155 0.90544951
0.37948725 -0.20680442 1.2036823
-0.47323513 0.001592407 1.4777154
-0.066692032 0.057827808 0.45389354
0.33305219 -0.14441887 1.1612738
-0.28963399 -0.25403702 1.331483
-0.26788968 -0.29499057 1.9880835
-0.2908811 -0.21850273 1.363808
-0.21220854 -0.29150575 1.8716658
-0.24453422 -0.24574676 1.903977
0.21157527 -0.032316413 3.0161057
0.69936854 0.021556852 1.262632
-0.39404866 0.060375307 0.50919831
-0.42624432 -0.15798555 1.3177587
-0.58848411 -0.12673402 0.80995166
0.32351142 -0.27855828 1.7731858
-0.19854224 -0.22011772 2.1916046
1.0938195 -0.24771577 2.6848545
-0.48993587 0.022483179 0.79124939
0.14997178 0.057225276 0.43248832
0.60418034 -0.10563591 0.7566787
-0.56576341 0.00011578575 1.1289424
-0.37454993 0.056355231 0.75040495
0.59441644 -0.10533367 0.73785698
-0.1716392 0.047653716 0.96608508
0.24263036 -0.2611973 1.2959536
-0.23875397 -0.28470382 2.4701581
-0.26071337 -0.16693588 2.4669113
-0.26310462 -0.13467425 2.2076559
-0.19577435 0.055449151 0.34996665
-0.32670087 -0.24875954 1.2787989
-0.55095744 0.005523039 1.6553422
-0.53705961 0.016074538 1.2323052
-0.46650606 -0.19022061 1.0382003
0.13852033 0.056284301 0.43357289
-0.30277863 -0.26490036 1.3545665
0.56659395 -0.11026414 3.0354924
1.1946157 -0.057583869 3.3741231
-0.30411711 -0.4023025 2.0155087
-0.19725287 0.055689085 0.35284007
0.47129253 -0.026147474 1.9660813
-0.21172261 0.052206319 0.48189819
-0.49080998 0.014098164 1.3759414
0.069919147 0.058788523 0.30950344
-0.18857598 0.06066902 0.28905165
0.33949059 -0.16103357 1.2675551
0.37013569 0.020778285 1.1247114
0.58860683 -0.10892801 0.73013318
-0.26242715 -0.28509027 1.9174565
1.5375198 -0.28394958 4.2019238
-0.52442575 0.055948902 0.84802258
0.48347008 -0.14984021 1.6358112
-0.58467776 0.0027581155 1.1489631
-0.59405214 0.057740014 0.80646884
-0.52366149 -0.12168075 1.4948021
0.16088632 0.053830698 0.57471645
0.65635961 0.013928851 1.035659
0.87808377 -0.13412249 1.4666957
0.50332975 -0.17538553 2.1243839
0.6043281 -0.0383275 2.569447
0.22062674 0.035268929 1.2622892
0.32379225 -0.24817449 2.1119566
0.42853922 0.011125836 1.2899517
-0.53249007 0.0078781676 1.6142088
-0.19386494 0.05267505 0.57692873
-0.42185605 -0.18105225 1.0410165
0.40290704 0.038529001 0.93067443
0.53765023 0.038671486 0.68749893
-0.55996364 0.030843068 0.91437471
-0.84021527 -0.17756152 1.4361786
0.12838116 0.057521537 0.42230046
0.21646431 0.057101861 0.45473015
-0.60320574 0.057492748 0.79837668
-0.63151801 0.053007811 0.82824504
-0.53804499 -0.10899939 0.91706836
-0.17996955 0.05321829 0.84164035
0.67079192 0.0042236391 1.0030063
0.36160591 -0.20131622 1.1665393
-0.52210194 0.046382107 0.88589203
-0.29377249 0.068959229 0.89327276
-0.49786991 -0.20147339 1.048021
-0.19036177 0.060942624 0.29329765
-0.56582361 0.01091367 1.1121503
0.53069365 -0.18536928 2.2305474
0.31888533 0.037407849 0.51155984
-0.41067889 -0.22173329 1.4148017
-0.499066 -0.19404349 0.98992503
-0.2811138 -0.36526868 1.8581847
-0.048329122 0.0558341 0.74765909
-0.19763109 0.056968197 0.28416908
0.16255325 0.04416851 0.78818786
-0.54212898 0.045758512 0.84140551
0.049695216 0.050476834 0.9323808
0.40270379 0.0088530555 1.3206416
-0.44398576 -0.18861772 1.0559303
-0.18408102 -0.19580597 1.7890574
-0.56697017 -0.12256306 0.77439487
-0.57736808 -0.0024560858 1.1178526
-0.49474204 -0.17848279 0.87182105
0.34605661 -0.22518228 1.4972721
0.32066187 0.023016136 0.52297199
-0.25858861 -0.19385709 1.4312347
-0.30106801 -0.19751911 1.331015
-0.18803713 -0.16567782 1.7007786
-0.34507895 -0.18874297 3.134738
0.20462865 -0.35400209 3.7588973
-0.4956978 -0.16793029 0.82299745
0.4208073 0.044795811 0.5004276
0.43003884 0.036331646 0.61127722
-0.49945283 0.053882971 0.78930271
0.63177896 -0.0021638442 0.7327615
0.31574014 0.034592271 0.51815069
0.32064092 0.00072415732 0.51422918
0.20817277 0.054148212 0.38350093
0.32729399 0.032343116 0.51269877
0.23022047 0.063513637 0.47347414
0.66991401 -0.00073295832 0.91941035
0.076796077 0.054906528 0.42106688
-0.19692585 0.055788536 0.35254037
0.23885071 0.050341893 0.427019
0.12867585 0.057247501 0.42027032
-0.21557617 0.053566355 0.49240601
0.34484521 0.044872034 0.65644133
0.12672293 0.05606471 0.41163766
0.068416677 0.05728728 0.2965399
-0.20833364 0.049774215 0.56908572
0.17793134 0.049726777 0.88492596
0.75936234 -0.067207977 2.239058
0.28801897 -0.28389093 1.3385092
0.41637468 0.024570903 1.3048829
0.21341059 0.054929171 0.57605803
0.26202789 -0.21644332 1.1860119
-0.19802904 0.052159831 0.39395702
0.3202759 0.031711064 0.52124465
0.32835445 -0.15364501 1.198562
-0.46629381 0.012123371 1.5250572
-0.068684705 0.061157059 0.50242627
0.013326563 0.056730531 0.39784467
-0.46131796 -0.049354568 1.4225734
-0.4187519 -0.20411518 1.319501
0.37570715 -0.22132838 1.1784886
-0.36131406 -0.2266838 1.338895
-0.59052032 0.056940123 0.80204546
0.014871828 0.055618942 0.38999999
-0.051682703 0.055276863 0.5418452
1.2757534 -0.36272073 3.4334707
-0.38014528 0.030258473 1.7972554
0.54807717 -0.12549156 2.1048694
-0.40693104 -0.1913899 1.4576033
-0.68856174 -0.055157073 2.7715559
0.31266549 -0.16321898 1.7559923
1.7657348 -0.42042398 4.7451158
-0.27582496 -0.38432655 2.0107341
0.15195137 0.041398462 0.72887552
1.4900024 -0.33089954 3.7557697
-0.45270878 -0.12011361 1.4341494
-0.47169089 -0.070200577 1.4684969
-0.35219333 -0.033203553 3.0112481
0.6237101 -0.34792909 5.3344336
0.72421533 -0.18313606 0.94700754
-0.26492193 -0.19712485 1.3959714
-0.62330145 -0.15864977 0.78181803
1.1736605 -0.33955622 3.1840506
-0.20618591 0.056152608 0.27662122
-0.11309922 0.060829189 0.26203191
0.20129377 0.060856342 0.32649958
-0.051455624 0.059762802 0.78880799
0.36146602 0.044699825 0.64472926
-0.31188568 -0.25309503 1.294372
0.45911166 0.033500753 0.94634664
-0.39988786 0.031100556 1.7403411
-0.19406295 0.055259768 0.48802745
-0.44970018 0.035080843 1.4157339
-0.21267092 0.05987668 0.43439996
1.1742598 -0.044650786 3.2280521
0.34796861 0.019745192 2.0578656
-0.20586121 0.053254135 0.4144758
0.25689322 -0.29043418 1.2864078
-0.62347466 -0.17436914 0.77140892
0.33116153 0.02144634 0.51130307
0.31894398 -0.21530646 1.1922809
0.33293757 -0.14294891 1.1584474
0.069529422 0.058651134 0.30865943
0.19827864 0.059881821 0.31900251
0.18293616 0.051869866 0.91552675
-0.50035101 -0.16745709 1.4681176
0.436057 -0.16843921 1.9366926
-0.41401446 0.02428695 1.6161538
0.18208885 0.076672032 0.46759093
0.38262603 0.028104972 1.3118805
-0.57285875 -0.18784389 0.85139978
-0.20475459 0.053192049 0.41176069
-0.31422639 -0.29752007 1.3367075
-0.21764365 0.051740184 0.39967072
-0.027404748 0.056856163 1.0716556
-0.29439354 -0.38412189 1.9582101
0.3559767 -0.25870582 1.9523305
0.41011885 -0.22433104 1.1072713
0.32980672 0.033097971 0.5136863
0.42792973 0.044297669 0.57045591
-0.46194106 -0.12203775 1.4685265
0.13877264 -0.022697251 0.72950876
-0.5886597 -0.19683805 0.91336119
-0.13026974 0.038316041 0.19317305
0.31996843 -0.21580006 1.1879746
-0.083622895 0.04934166 0.82977259
-0.58109754 -0.23319697 1.4732686
0.34538484 -0.062561989 1.5449392
0.31618154 0.031494759 0.5136677
-0.48383087 -0.20941721 1.3546783
-0.46251774 0.023390494 1.385722
-0.96168691 -0.094898067 1.4852139
0.31660661 0.033529423 0.46043646
0.14113754 0.057870094 0.44246829
0.34131294 0.026123095 0.52301323
0.40235424 0.040924519 0.52597249
0.7886979 -0.035003174 1.1027161
0.79716736 -0.035605472 1.1211249
0.32535174 0.028102973 0.53412402
-0.26987392 -0.16993578 1.8002142
0.34512258 -0.43334538 4.5358849
0.32846677 -0.43118364 4.4063082
-0.22630805 0.051057979 0.44337499
0.24527287 0.04665152 0.72587574
-0.57923663 0.033865292 0.80807006
-0.55462617 0.057202213 1.052713
-0.013332061 0.047196504 0.95940697
-0.48427933 -0.19590926 1.0151943
0.27839854 -0.26063734 1.1940573
0.41506624 0.041803792 0.54383552
-0.17536315 0.043558866 0.94165814
-0.21164545 0.045778442 0.7883116
0.82678419 -0.030317869 1.9017121
0.25609148 0.052752711 0.3014487
0.23750257 0.050417811 0.42405307
1.102873 -0.26994154 2.158731
-0.55817938 -0.16394448 0.75205553
-0.20056438 0.055260193 0.30254567
-0.46150887 -0.21637671 1.0068437
-0.20390838 0.04820551 0.53331196
-0.19187391 -0.29089147 1.6788269
0.76294428 -0.029718056 1.4793659
0.2178517 0.056352463 0.39061868
0.084095173 0.054878399 0.53644407
-0.29288799 -0.26952994 1.7727224
0.26023573 0.0450515 0.95707262
0.14576951 0.05830425 0.30212009
0.35878402 -0.20340709 1.1713761
-0.45150971 -0.12096125 1.4388388
-0.33295441 -0.0049671587 1.6073164
-0.57543617 0.032278135 0.94464171
-0.50471997 -0.18470733 1.0562569
0.73111439 -0.23129773 1.9914151
-0.44360036 -0.27445331 1.421404
0.42577085 0.043639719 0.56562006
0.26729131 0.046939075 0.98955357
0.20549455 0.058460601 0.2721957
-0.063373514 0.058228821 0.30328977
1.1183976 -0.24227589 2.2285347
-0.58176249 -0.15020728 0.76105106
0.34859049 -0.12165317 0.65953577
0.164756 0.05534992 0.59161794
0.39128089 0.010702749 2.0823503
-0.064817287 0.059117969 0.30720747
0.40382195 0.0043641441 1.2846612
-0.24023676 0.052610941 0.39959919
0.59473205 -0.050970294 0.88199246
0.34487972 -0.210263 1.1846219
-0.064906694 0.060391687 0.31947863
-0.61494374 0.062398411 0.79141653
-0.43564135 0.064937107 0.96867502
0.48201787 0.059517875 0.58089554
0.40662906 0.043765571 0.59676397
0.21159428 0.056180071 0.39069188
0.012726672 0.058934547 0.41970646
-0.19404748 0.053130988 0.5776149
-0.5095076 -0.19118531 1.0027
1.194714 -0.090354249 4.1683826
0.44589514 -0.078720547 3.9054489
-0.5972982 0.050859503 0.87449324
0.23798296 0.05075597 0.53330171
0.072128676 0.050655194 0.40654361
-0.53943485 -0.05771251 0.91357863
-0.4186272 -0.17085734 1.3304919
-0.024692945 0.050328277 0.94184744
-0.51260722 0.02657613 0.75980246
0.73161787 0.018315556 1.6926845
0.19136974 0.049149543 0.80168593
-0.52449065 0.017200807 1.2991856
-0.10864265 0.055635586 0.43558848
0.6359179 0.00380807 0.94329035
-0.21330631 0.052011393 0.58539069
0.65911382 -0.12424017 0.83889258
0.32397616 0.0033288058 0.51418412
-0.15883487 0.01108015 0.65425742
1.4491757 -0.19873169 3.8287902
0.09035819 0.045000963 0.65592468
-0.084320776 0.067265928 0.29178798
-0.18924147 0.061105452 0.29089153
-0.46668065 -0.12687954 1.491866
0.12249427 0.048904061 0.98939502
0.030953504 0.050874844 0.76896107
-0.49334401 -0.1745497 0.93203533
0.45196712 -0.22305837 1.2684075
-0.63391399 0.058015928 0.83765781
-0.2968635 -0.22578847 1.4160246
-0.21072137 0.051481739 0.58191001
0.38390645 0.038245138 0.75863564
-0.099827163 0.029432319 0.16708541
0.21301723 0.0556827 0.37974727
0.13795194 0.057664394 0.27682841
-0.21065173 0.054700188 0.36799634
0.3656306 -0.12544331 0.6622442
-0.075048439 0.046009582 0.79983342
0.026708312 0.060335763 0.3049773
-0.53553945 -0.14357448 0.74812448
-0.073877074 0.060506787 0.32061756
0.068522744 0.061007265 0.28849089
0.6347608 0.062851824 1.4422959
-0.064645313 0.059763305 0.31553328
-0.0577401 0.061087336 0.35185039
-0.15929323 0.060018286 0.2909528
0.16596368 0.051355347 0.74634182
-0.42186862 0.062564477 1.007975
-0.20695919 0.054456487 0.25776136
0.093970619 0.0562842 0.38184726
-0.20357934 0.053056084 0.40950382
0.21332511 0.055680584 0.38037932
-0.28658098 -0.13853128 1.6822041
0.36300379 0.04450886 0.64804971
0.44732225 -0.21578431 1.2510768
-0.57873756 0.02645581 0.84860981
0.82099319 -0.14685494 1.1920272
-0.20355141 0.049244519 0.68284857
1.1254817 -0.056468576 3.1738796
0.2147882 0.055723328 0.39617789
-0.51707709 -0.21063477 1.3458973
-0.19481289 0.05648189 0.36761153
0.45147589 -0.32644063 2.3926005
0.4826526 -0.13903528 1.2562531
-0.57520419 0.021954421 0.86478293
0.73175699 0.020209687 1.4213587
0.34061891 -0.12594904 0.65041268
-0.18585387 0.045341406 0.7305268
0.32649982 -0.076354094 0.50432169
-0.52534759 -0.11905608 1.5029935
0.13978457 0.057983227 0.28127301
0.31761578 -0.037101213 0.50327599
0.4116531 -0.16033895 1.8061386
-0.63460767 -0.14056547 0.78976595
0.33704135 -0.079009406 0.52649033
-0.0035019591 0.060323618 0.26728642
-0.72133797 0.19310214 2.1321263
-0.22752088 -0.26599932 1.5587569
0.23490533 0.050460622 0.52393138
-0.074263699 0.060410716 0.32038701
0.3498483 -0.10687867 0.61266339
0.026843138 0.060930789 0.30835187
0.21500802 0.057107564 0.39943612
0.24396539 -0.25363007 1.3292142
0.26464385 0.049548253 0.34421337
-0.59456289 0.045291789 0.805704
0.20995 0.059776839 0.27995098
0.54852647 0.040005073 0.70395982
0.32143712 0.031934436 0.52381861
-0.37140268 -0.23384944 1.383675
0.46377692 0.029288338 0.97627366
0.87562019 -0.25868234 2.3131933
0.67190802 -0.14966504 1.9533786
-0.31571916 0.0091993734 1.1861807
0.11993843 0.048951115 0.9548918
-0.47209334 0.013522813 1.426571
0.21087682 0.059743851 0.29931772
-0.58199531 0.023417497 1.1170462
0.070191048 0.055803757 0.29366887
-0.1065001 0.053860944 0.96379316
0.36614007 0.039451275 0.53257477
0.13567755 0.056779664 0.27083719
1.0053716 -0.067140207 2.651866
-0.075286664 0.06149032 0.32811821
-0.18694559 0.054514877 0.3153547
-0.19534805 0.053901281 0.32447302
0.56672692 -0.14617506 0.70745766
-0.51301605 -0.19262373 1.0090135
-0.29973844 -0.1960977 1.3331574
-0.09516611 0.027820008 0.17021072
0.33082584 -0.077161901 0.51332104
0.42428863 -0.12942779 2.7964764
0.0019766912 -0.05876983 0.77300632
0.30069792 -0.11764741 1.5326854
0.62777001 -0.16366564 0.78331196
0.32742512 0.0213852 0.53365457
0.23633149 0.051026531 0.52780592
0.21426758 0.056658048 0.39469922
0.2048035 0.052861862 0.8534385
0.014717616 0.057160273 0.40599668
0.47966304 -0.19742903 1.4882957
-1.8163985 0.42262974 3.1249022
-0.69094342 0.011152674 2.9506493
-0.40318578 -0.078630559 2.0596428
0.53359157 -0.13814375 2.4180064
-0.51390398 -0.066761188 1.4712785
-0.20435095 -0.44837025 3.8735266
