# .PCD v0.7 - Point Cloud Data file format
VERSION 0.7
FIELDS x y z
SIZE 4 4 4
TYPE F F F
COUNT 1 1 1
WIDTH 686
HEIGHT 1
VIEWPOINT 0 0 0 1 0 0 0
POINTS 686
DATA ascii
0.11454868 0.04844898 0.38605523
-0.11686188 0.057614431 0.39222026
0.28888506 -0.093121529 0.64435792
0.11919677 0.022638077 0.3568542
-0.18504155 0.048248775 0.62967324
0.28616989 -0.09151186 0.60082841
-0.17175257 0.086343221 0.50279212
0.75864542 0.013853993 1.0890324
0.15243846 0.056440551 0.33456063
-1.0843482 -0.32664245 2.0408957
0.29680771 -0.11203492 0.59423089
0.15238398 0.027124977 0.35150027
0.15038311 0.05388616 0.349756
-0.17905223 0.057594344 0.42242646
0.12394524 0.033763841 0.37221885
-0.96542037 -0.24802156 1.7448485
1.4385583 -0.34344843 1.7010834
-1.2993382 -0.43306732 2.7122109
0.56382668 -0.14626902 2.1785939
-1.3282008 -0.45049062 2.7405498
0.72127593 -0.48683593 2.2507174
1.6912059 -0.35605302 2.255863
-1.2720941 -0.28243992 2.5611227
-0.87010586 -0.154185 2.4357855
-0.89219737 -0.36710566 2.4465134
-0.040962815 0.053139605 0.72214913
-0.84166312 -0.014858112 1.0909288
-0.51250625 0.025111802 2.5403626
-0.45481253 -0.033495691 2.1451499
0.016555905 0.055427134 0.46265721
0.28768772 0.045405738 0.46203446
0.1355691 0.029739108 0.40066361
0.083676279 0.054915965 0.36850667
0.4609791 0.037280012 0.7570498
-0.19901574 0.051749017 0.37539411
0.31352139 -0.038266588 0.60476518
-0.055039883 0.05945136 0.27600503
0.32080221 0.029519115 0.62920403
0.40306258 0.032421574 0.62321067
0.33550155 0.017237732 0.61902738
1.1663961 -0.35647416 1.8301661
0.0058446527 0.055671077 0.38909078
-0.81835854 -0.027946528 1.1034758
0.32748777 -0.03979088 0.6332972
0.21904963 0.038069494 0.33319306
0.20993119 0.053375911 0.41881585
-0.16785097 0.058651775 0.26920152
-0.1416679 0.056803115 0.27731395
0.11116183 0.03629265 0.3756125
0.22953117 0.050490268 0.27184796
0.14485806 0.055414025 0.36552024
-0.17225963 0.046388835 0.67457938
0.3404811 -0.051634472 0.61187863
-0.36819959 0.05792015 0.49086022
0.07489115 0.055260196 0.35310435
-0.83546352 -0.14535634 1.2466309
0.099318385 0.052472763 0.636657
0.81269503 -0.48175845 2.0921047
-0.81914973 0.019352119 1.1183913
1.1466109 -0.019602325 1.4371364
1.5120127 -0.25313067 2.2274616
-0.87059152 -0.29002893 1.369858
0.10866481 0.045003593 0.76336312
0.2868709 0.016838452 0.56191707
1.438585 -0.27112249 2.0514619
-1.0164688 -0.2933116 2.5237553
1.4806194 -0.3161225 2.0721862
0.16442662 0.028613588 0.3549602
1.1697536 -0.022266831 1.5077512
0.54152048 -0.2110204 2.1095717
1.6389889 -0.41102189 2.3849924
2.4247141 -0.52905107 3.3831799
-0.16527134 0.039058585 1.0169013
1.4208759 -0.39531785 1.7176783
0.32901454 -0.27456725 1.5312889
-1.3099592 -0.44170591 2.7413538
0.17122668 0.030320173 0.35792851
-1.0171342 -0.28317067 2.4393823
0.53362608 -0.37681088 2.1215312
1.3606348 -0.17449926 2.274574
1.1347693 -0.25694931 1.8388498
-0.38985002 0.023206435 2.5861518
-0.29697615 -0.23538603 2.5938075
1.508948 -0.27146524 2.1460822
-1.0434955 -0.21378891 1.4236691
-0.99599695 -0.26266202 1.4013064
0.15084195 0.025992999 0.34668851
-0.58225095 -0.033435192 1.2744958
-0.2459892 0.053872455 0.40156388
0.23641694 0.039725631 0.3223846
0.16220951 0.056969874 0.25875831
-0.037278235 0.05924999 0.30808282
0.18439198 0.056349613 0.29141212
-0.34607196 0.053435311 0.71763635
0.32115185 -0.065676451 0.61775517
0.23724973 0.04940781 0.32417083
-0.061237454 0.057203349 0.26475549
-1.0531534 -0.2747077 1.4120977
0.32527739 -0.12677304 0.6136415
-0.32569522 0.05007638 0.66604257
0.23808718 0.048804335 0.31885028
-0.83429027 -0.22790812 1.4203074
-0.18259871 0.058972523 0.43308377
-0.1257875 0.056744087 0.37695813
0.17427045 0.033034958 0.35767722
0.3257947 0.031220563 0.64157557
0.15384835 0.056976259 0.2563107
1.0319563 -0.085408553 1.6107881
-0.04782784 0.054386456 0.28829503
0.13440585 0.045563094 0.36633372
0.014591098 0.051208429 0.40915132
-0.18903279 0.060758863 0.2678616
0.091820657 0.013218096 0.34137702
0.35131073 0.01881969 0.69428992
0.37435198 -0.02208994 0.80342841
-0.017759085 0.058374852 0.27603269
-0.038370609 0.048340142 0.40086389
-0.86667538 -0.23678951 1.4766581
0.3460629 0.039709359 0.5179708
-1.217831 -0.36519435 2.6291726
-1.1629758 -0.420582 2.6760294
1.5288273 -0.43929014 2.1549222
1.1218321 -0.4260515 1.8515213
1.1136281 -0.020798076 1.4419415
-0.89190793 -0.15590598 2.4898121
-0.51428223 -0.057266798 1.1622741
-0.22083187 0.049419746 0.33848882
0.014264107 0.0515709 0.41091037
-0.85189915 -0.26391831 1.4296424
0.67731023 -0.52348423 2.2717788
1.1295093 -0.35158774 1.8877671
0.61274636 -0.30774653 2.134227
-0.51161587 -0.050756376 1.6065934
0.6536932 -0.39359447 2.0213816
1.012637 -0.016423337 1.5635436
-0.93602026 -0.16201015 1.2281082
0.55535114 -0.36414233 2.4929965
0.34877563 0.03035507 0.64813304
-0.76589918 -0.47201237 3.6874397
0.52064943 -0.42267641 2.4736865
0.35586488 -0.084784731 0.60439658
-0.27056241 -0.28385919 2.7999246
0.66704941 -0.43216136 4.2592478
0.061214507 0.057168461 0.33360314
0.16362971 0.030915868 0.33406472
0.21080005 0.056478623 0.29305005
0.0047525167 0.056966551 0.26786208
0.22408241 0.043299749 0.32172608
0.1546036 0.055050164 0.31152749
0.22784913 0.04216823 0.28507829
-0.054599583 0.051075511 0.23192787
0.077255368 0.05533319 0.26305747
-0.18237859 0.057671621 0.38464236
0.81888914 0.018264644 1.1605961
-0.37857461 0.059969477 0.50631833
-0.379812 0.05804047 0.83871579
-0.12050682 0.060695715 0.39161229
1.0674447 -0.066143736 1.4551985
0.097453058 -0.080436975 0.5079782
0.005202353 0.053276427 0.36756444
0.36589062 -0.12646331 0.62055755
0.13391632 0.049325392 0.28543305
0.31414479 0.018501734 0.61745524
-0.22305661 0.049657628 0.34075189
0.23127818 0.047138859 0.30951095
0.14539462 0.055911236 0.26658082
0.17210108 0.024629906 0.36184096
-0.20247102 0.056519821 0.53990531
0.12303859 0.017725483 0.47037292
-0.21474135 0.053003572 0.35244632
0.11530542 0.049349099 0.38776422
-0.09997654 0.071216606 0.33155799
0.21452737 0.03746561 0.32579446
0.1891337 0.058547024 0.27639461
-0.11365455 0.059174061 0.42520452
-0.38436806 0.060235549 0.6140902
-0.23560774 0.058797039 0.41594958
0.2249257 0.041686408 0.28085256
0.26854765 0.042866249 0.52691245
0.091178596 0.05943989 0.26628661
0.25864232 -0.021232713 0.58347344
0.20609415 0.055594318 0.27459455
0.12108082 0.018738268 0.48911929
0.68809378 0.017170083 1.0440876
0.85769856 -0.19929959 1.3468516
-1.0093987 -0.30509326 1.3654349
0.23838365 0.046161152 0.34949231
0.37193751 0.042934496 0.51810098
-0.80283999 -0.24086984 1.3540952
-0.16086209 0.072802946 0.58187175
0.12712991 0.026686972 0.36142612
-0.52172756 0.051553257 1.1788733
0.99153399 -0.041220803 1.4652307
-0.83577502 -0.2497115 1.4093511
-0.88512087 -0.21568488 1.3731487
1.2990983 -0.33468163 1.8735273
-0.049552917 0.058308747 0.34508061
1.2734417 -0.32820517 1.8338139
0.015892625 0.053696014 0.44385362
0.16968024 -0.14073721 0.8854897
0.34997821 -0.10725699 0.94605184
1.0167539 -0.015909556 1.5077469
0.30951309 -0.033450481 0.61720729
0.087496877 0.046124902 0.54604602
1.2472343 -0.22575651 1.9135554
-0.19321036 0.051767975 0.47389197
0.14900827 -0.00062522292 0.37514234
0.13940442 0.027577989 0.3616612
-1.0160174 -0.4100264 2.4418743
-0.69071436 -0.30608335 2.4322026
0.49224293 -0.31121656 2.4320114
-0.86172211 -0.20954032 1.3511131
-2.0364478 -0.12096252 3.6093791
0.29847682 -0.017930318 0.58714271
-0.83394933 -0.14900206 2.340174
0.35228366 -0.05975626 0.60526538
-0.74085009 0.039037783 1.2214916
0.91052556 -0.27977115 2.0858033
-0.85990238 -0.21098937 1.3461387
-0.88130212 -0.21523513 1.3850639
-0.26793802 0.054057073 0.74103665
-0.14155024 0.048679385 1.2060769
-0.26411152 -0.22066982 2.5151513
0.53381658 -0.43644422 2.5521739
-0.25559092 -0.37421072 3.0697038
1.8934836 -0.0851008 2.2979095
1.5270315 -0.097433984 2.299206
0.96001494 -0.056624036 1.2353256
-0.2019251 -0.18525741 2.4863255
-0.26931924 -0.3703849 2.7753732
-0.19583738 -0.18249081 2.452738
-0.25860465 -0.39856213 3.1780694
0.99509645 -0.34575173 2.5371835
-0.1841104 -0.32901326 3.9893587
-0.11762524 -0.14711517 3.6786759
-0.31441808 -0.4084956 2.7579496
0.64034736 -0.052289616 2.6613958
-0.87019801 -0.4748719 2.5097759
1.8640935 -0.10508318 2.5114043
1.1387138 -0.22590177 2.4725645
-0.24607116 -0.33360234 2.2088869
0.98430228 -0.28768939 2.3136003
-0.82459688 -0.44428086 2.5506103
0.98313975 -0.16423421 2.4102056
0.93593299 -0.27922282 1.7924473
-0.82153821 -0.40120193 2.5829256
-0.88283587 -0.075523376 1.1630065
-0.053687453 -0.45691216 3.2026975
0.26905131 -0.096289068 0.64909196
-0.96635139 -0.042862888 1.2502086
1.1029347 -0.022186872 1.4309232
-0.6068722 -0.38255569 3.6846697
0.1473065 0.056305077 0.36435199
0.32744253 -0.064076483 0.62374616
1.0581436 -0.021644961 1.4254668
3.6789098 -0.16951697 6.2733488
1.0813342 -0.067166641 1.4267719
-0.8938098 -0.45698452 2.40817
0.32688928 -0.29019734 4.281333
-0.87577641 -0.3593064 2.3941715
1.0555851 -0.021016102 1.4251568
0.27034825 -0.079666808 0.67434144
-1.0175167 -0.43691611 2.4892614
-0.15417707 -0.52277219 3.9880273
1.2885454 -0.31760991 1.8720896
-0.059203148 -0.52871835 3.7005546
0.33122587 -0.29471329 4.3340254
-0.99420738 -0.41720036 2.5132267
-1.1593111 -0.40090439 2.6642964
-0.061395288 -0.52901626 3.7350619
-0.89819849 -0.37576237 4.2847462
-0.97637451 -0.3507053 2.4515765
0.37695813 -0.27325812 3.9826033
-0.13397086 -0.49823526 3.7111399
-0.80165815 -0.41430113 2.5343602
-0.88382554 -0.27141491 2.4769208
-1.0496597 -0.39082798 2.4504621
-0.84043407 -0.019242633 1.1087873
1.0577043 -0.068126097 1.4530938
-0.78036773 -0.24513178 2.7520721
-0.88354993 -0.3465234 2.4394524
-1.1274078 -0.40448108 2.5820239
-0.53643703 -0.068124548 1.6268198
-0.0037162304 -0.2411979 3.8618181
-1.1026163 -0.33282024 2.5190728
-0.86328995 -0.035256479 1.0901363
-0.90307093 -0.55563205 4.3292036
-0.52712023 0.042841859 1.1739047
0.41885507 -0.094611242 0.94629121
0.19995153 -0.0114743 0.55205083
1.6432047 -0.71142733 4.7703209
0.13068008 -0.29423761 3.3694298
-0.49720907 0.040495563 0.84148526
0.35332233 -0.067186266 0.61025882
0.33112484 -0.116348 0.61231256
0.32257903 -0.065696836 0.61759973
-1.0484337 0.010218401 1.7433136
0.13834941 0.027421258 0.35734773
-0.8414433 -0.25037977 2.6408341
-0.82695174 -0.43446428 2.603585
-0.84425747 -0.29657474 3.0039904
0.1515857 0.027461344 0.35398126
1.1456308 -0.11961438 2.3149984
-0.90180886 -0.26269874 2.3562343
-0.17260134 0.057581577 0.31678271
0.50856292 -0.029171143 1.2999189
-0.92725825 -0.56594002 4.4565449
0.97906268 -0.043251511 1.4485133
-0.8140229 -0.38945761 2.5106814
-0.7811861 -0.32848397 2.3724015
-0.54211259 0.044243097 1.7258389
-0.74452257 -0.22533624 3.8018739
-0.97737741 -0.36121038 2.5255759
1.0847039 -0.068376184 1.4344409
-0.18266582 0.054229401 0.54019094
-0.99604166 -0.27733031 2.3795831
-0.90643573 -0.35424379 2.5185263
0.98892689 -0.041187089 1.4634545
-0.82783341 -0.070825502 1.0896976
1.2027259 -0.30690864 1.8610075
-0.895154 -0.38401747 4.1191874
-0.87301731 -0.15405856 2.4300516
-1.277519 -0.47643003 2.8256791
-0.74911582 -0.57206601 4.4002218
0.17777026 0.045192569 0.37062049
-0.86111081 -0.27283129 1.4397361
-0.93891025 -0.46072343 2.5178668
-0.8941673 -0.24928983 2.3483665
-0.76664662 0.046757914 2.2659423
1.1071587 -0.12536542 1.8762734
-0.97754681 -0.3620061 2.5232894
-0.84465885 -0.071108818 1.0925329
-0.86255717 -0.073047742 1.0928094
-0.81425285 -0.024465319 1.0990613
-0.8930521 -0.20329294 2.3988564
0.15066499 0.056474566 0.32276464
-0.81925023 0.018469304 2.2975519
-0.49789941 0.040695928 0.84418511
-0.53497601 -0.054131392 1.7031319
-0.70551693 0.00048799068 2.4236481
-1.1787323 -0.42201731 2.6417348
-0.88543284 -0.25291646 1.3679488
-0.83162224 -0.39312974 4.1558542
-0.69740605 -0.1901754 3.2999928
-0.87649369 -0.14193155 1.3175352
0.14539832 0.055538774 0.35826659
-0.11215931 0.056356296 0.39706492
-0.83938336 -0.39609322 4.1863279
-0.90661693 -0.23945312 1.3938506
0.11779875 0.044275716 0.51427722
0.13815922 0.056678191 0.36641002
0.11992848 0.044662401 0.52330518
-0.85773134 -0.24914841 2.9892619
-0.88092792 -0.016019117 4.0765886
-0.57535601 -0.37608141 3.5370958
0.29688805 -0.046192106 0.62816405
0.16375858 0.027432047 0.35508561
0.16397327 0.028421182 0.35569739
-1.0565665 -0.22065096 1.4220755
-0.62138367 -0.049433555 1.9586904
1.0639025 -0.29911125 2.3119023
-0.99692583 -0.56531179 4.520709
-0.5024364 -0.1617213 3.0319121
0.32213867 -0.065909639 0.6176579
1.0874466 -0.068104088 1.4317305
-0.57652235 0.043594114 1.7761071
-0.82962239 0.025172532 1.096875
1.3137283 -0.30237839 1.9224465
0.19110996 0.054036103 0.39261651
0.32201695 0.046574317 0.4960506
-0.1121068 0.057180274 0.40710759
-1.1415591 0.027326904 1.5280669
1.119742 -0.043620285 1.4187915
-0.56523204 -0.37714601 3.5261276
-0.89573073 -0.24034883 1.4249451
0.35390806 -0.06761913 0.61210322
-0.93938112 -0.33969215 1.5131977
-0.17207438 0.051338382 0.57953048
-1.2433571 -0.46580145 2.7433903
-0.28529418 -0.37470505 2.736819
-0.16184223 0.060341135 0.28719115
-1.0168556 -0.43833318 2.4920037
-0.84089768 -0.46737596 2.5182912
-0.039324105 0.051256448 0.67692161
0.29565686 -0.046133298 0.62489629
-1.0088954 -0.30451879 1.3660443
0.2113148 0.053566102 0.42264819
-0.94332302 -0.23693429 1.4163234
-0.91558003 -0.15273854 1.3268759
0.9352833 -0.078484148 1.4514601
0.28231078 -0.05749936 0.62398219
0.00616014 0.055833273 0.26932454
-1.2510394 -0.46701393 2.76215
-0.80550754 -0.41064832 2.5675409
-0.041096389 0.050326012 0.64070582
0.34748966 -0.063135237 0.60074878
1.3699231 -0.26323104 1.9651768
-0.76000679 -0.38562351 3.9409916
1.4395884 -0.33182451 1.6962225
-0.82179439 0.026818458 1.0863163
-0.49718118 -0.25128818 3.0176642
-1.0199685 -0.21920149 2.3682568
-0.84957004 -0.16903318 1.3407891
0.14699906 -0.1428608 0.78471446
-0.82222211 -0.25405893 1.3996522
0.090212286 0.051708028 0.62365842
0.17160392 0.067833841 0.91756463
-0.85976815 -0.26342466 2.4142482
1.294245 -0.33559462 1.8339493
0.12628376 0.044772208 0.37488198
-0.17225033 0.00076879561 1.1324151
-1.0071671 -0.42445585 2.5132592
-0.55945325 -0.36031038 3.4020226
-1.0488238 -0.23840664 1.3511083
-0.84026992 -0.073795006 1.0778553
1.1212472 -0.047487285 1.4134476
0.11966592 0.024108596 0.36202693
-0.052585244 0.051100202 0.59950662
-1.1143384 0.0080911592 1.4664791
0.14844257 -0.14128181 0.78963971
0.1608876 0.055159442 0.32686877
-0.33903712 -0.42818058 2.8041704
-0.75857019 -0.40234759 2.5502846
0.32857883 -0.12873851 0.62207341
-0.16571349 0.020289443 1.0757821
0.043016195 -0.15399042 0.81027484
0.39514482 -0.070708439 1.2354543
-1.0317794 -0.27415401 1.4515703
-0.81592751 -0.062231865 3.5133712
0.47555959 0.038645092 0.84373307
0.13670444 0.055970483 0.36939788
0.31263971 -0.02034099 0.79686379
0.15256661 0.05625464 0.33366656
-0.50820374 0.025925972 2.4996779
0.14562726 0.055420473 0.36465335
1.1457649 -0.33738005 1.8594868
-0.1108017 0.056754183 0.40624213
-0.12883818 0.05664048 0.38978171
0.69811845 -0.4140881 4.7954798
0.038264155 -0.18409045 0.82325959
-0.64717627 -0.001962252 2.9857581
0.35744488 -0.073096156 0.61181569
-0.9748714 -0.037522737 1.2962253
-1.0140026 -0.21192206 1.4448798
1.105556 -0.022038262 1.4370701
-0.80555594 -0.063298836 3.4662521
-0.54752398 -0.36727268 3.4252322
0.33259034 -0.062873513 0.60849786
0.14001375 0.029181439 0.36691022
0.17135203 0.02364892 0.35954642
-0.95097387 -0.34313962 1.4427178
-0.87109828 -0.25693873 1.4293306
1.175675 -0.30083662 1.813185
-0.2715143 0.017626867 0.62179446
0.34055108 0.0320637 0.63477874
0.16343421 0.026762294 0.35036445
-1.0496975 -0.18998882 1.3739278
-1.2567863 -0.45577475 2.6956575
-0.82753587 -0.076798543 1.1282442
0.33994508 0.030958805 0.63301635
-0.87070668 -0.30102003 1.3986428
0.14496541 0.021938512 0.35652995
0.7168591 -0.42502719 2.2407391
-0.82928848 -0.016954567 1.0707791
0.078854322 0.056606341 0.2734344
-0.94383144 -0.30346408 1.3813851
-0.14542681 0.044944033 1.0561268
0.28594589 -0.15455045 2.9118865
-0.78222442 -0.20381103 3.1022999
-0.54553831 -0.10751596 1.6934512
1.4999036 -0.30313051 1.7346985
0.17831445 0.047289759 0.37533069
0.23624265 0.048414022 0.3164866
-0.97063768 -0.23669086 1.5772769
0.1506111 0.028110981 0.34620595
-1.0570359 -0.2414097 1.3647273
0.57355571 -0.39656574 2.2741048
0.59837449 -0.4187111 2.2536099
1.2297848 -0.2769227 1.8595502
0.12600845 0.029091766 0.35663342
0.56828773 -0.18831716 2.4435236
-0.36270595 0.056664072 0.57409167
-0.16760218 0.040230066 1.1191828
0.007471323 0.054935452 0.39142251
-0.51211703 -0.079847783 2.0091341
0.319507 -0.054294351 0.6134789
-0.062194169 0.058479391 0.27278972
0.045289457 -0.18478502 0.82496715
-0.86509204 -0.18431197 1.4052165
0.71188772 -0.47225544 2.2284868
0.12256229 0.054322183 0.42058063
-1.3057945 -0.44690046 2.7006004
-1.0435344 -0.23708706 1.3421385
-0.87516987 -0.048486199 1.1190579
-0.82638013 -0.038777914 1.085633
0.22505486 0.046467856 0.43834376
-0.92220199 -0.48294637 2.5306656
-0.82436001 -0.077116832 1.1226599
1.1509815 -0.38162842 1.8167708
-0.33328468 -0.16189219 2.4970391
-0.82256186 -0.08049269 3.9258726
0.32224405 -0.1285162 0.62441754
0.60332358 -0.41793776 2.4018538
-0.88294601 -0.27219066 1.3875749
0.0048797131 0.056500055 0.2680757
-0.17562777 0.059275761 0.33256888
0.68382215 0.02001223 1.1576974
-0.18012178 0.055752628 0.55316234
-0.5323472 -0.050972197 1.6982596
-0.34482408 0.0519026 0.82385182
0.31098139 -0.044619482 0.67943931
-0.12029123 0.059124164 0.27153182
0.17348951 0.057724722 0.26107812
-1.0655534 -0.1935046 1.3964336
1.1205178 -0.25834045 1.7594082
0.36619985 -0.025960717 0.68604016
0.3265236 -0.11025475 0.63953567
0.043671966 -0.16218306 0.85583568
0.33850241 0.029645272 0.62597442
0.30812526 -0.12439863 0.59425139
0.34874582 -0.065743089 0.60915828
-0.49082315 0.05423262 1.0303261
0.34374958 0.00038230792 0.63920522
0.54891276 -0.021923568 2.7171953
-0.63254273 -0.094272539 3.3295686
0.66449487 -0.40178904 2.1967151
0.34205604 -0.1077351 0.60920739
-1.0648816 -0.23097213 1.3696735
-0.8423543 -0.013761587 1.0927069
-0.22326338 0.04989557 0.34370828
-0.14961797 0.045622036 0.43684316
1.1054572 -0.023641992 1.4355252
-0.83505762 -0.34074512 2.4838393
0.34542894 -0.061867233 0.59712863
0.11961228 0.024357487 0.3599546
1.7766676 -0.048846047 2.056432
-0.12569594 0.057300322 0.37547755
1.4044222 -0.41606253 1.8495848
-0.23663247 0.051708676 0.32120299
0.013581514 0.057188265 0.27275825
-0.20131087 0.050616097 0.33682084
1.1343973 -0.3901833 1.8555515
-1.2662158 -0.26627925 2.6033823
0.15266281 0.027084097 0.35592484
0.45966411 0.038210429 0.81430745
-0.17868936 0.057661086 0.42124677
-0.369452 -0.39279407 2.7483714
-0.1242857 0.057221912 0.36929488
0.35460055 -0.069222942 0.61316657
0.32246637 -0.061720412 0.62487292
0.12619025 0.021427017 0.37129903
0.01280278 0.056050517 0.26640439
-0.15894359 0.048992477 0.51827264
-0.84679532 0.038325485 1.0913098
-0.99580836 -0.30069581 1.394551
-0.91733897 -0.14504378 1.3320258
-1.0178146 -0.21287851 1.4509609
0.30930072 -0.03327113 0.64940333
0.95840895 -0.037261177 1.4734385
0.11244923 0.037258435 0.3814261
-0.78764153 -0.29805958 3.9756763
0.12119901 0.023206126 0.36552167
-0.76039314 -0.35068846 2.6773565
-0.9997617 -0.28227866 1.4369018
0.94365978 -0.078177944 1.4672096
-0.017848432 0.058316451 0.27707744
1.3999393 -0.42636141 1.8791802
0.10102159 0.053980011 0.62448812
-0.16245788 0.052737609 0.76531959
1.0946048 -0.068819389 1.4467547
0.94967055 -0.078649774 1.4778988
0.0067125559 0.055020228 0.38868165
0.31625122 -0.05391429 0.60763192
0.071094751 -0.17205983 0.85422015
-0.87748313 -0.15616459 2.477505
-0.89405727 -0.25576907 1.3830945
-0.11764657 0.057819348 0.26320291
0.87615097 0.013635948 1.1029637
1.1628048 -0.35221207 1.8223498
0.4354887 0.035791945 0.67852378
0.12399322 0.044495694 0.36593413
0.13604456 0.027934305 0.35276341
0.021223962 0.054876015 0.38430905
0.14423805 0.055380359 0.26648974
-0.37417436 0.058549844 0.59732366
-0.049896002 0.053909156 0.70295739
0.29603475 -0.045733843 0.62729955
0.3308903 -0.038989153 0.64691758
1.686859 -0.17051704 2.2770841
-0.19376981 0.048588838 1.120662
0.17213535 0.02356242 0.36212325
-0.85492444 -0.20976521 1.3166564
-0.90944922 -0.15137783 1.3150103
1.2507181 -0.28214455 1.8832347
0.30431443 -0.081512555 0.61141801
-0.16624731 0.050725695 0.52205634
0.22242773 0.049816847 0.32244086
0.55847561 0.039245345 0.80015874
1.1210127 -0.38420823 1.8358629
0.21002209 0.056574285 0.28090024
0.99252927 -0.039380904 1.4659193
0.14488858 0.055589683 0.26796174
0.72664762 -0.49717125 2.3124683
1.1515129 -0.044729184 1.4418757
-0.47684056 0.0029561147 2.6182797
-0.93231964 -0.33170801 1.5084178
-0.10917872 0.056394167 0.40181756
0.32238138 -0.046190266 0.6188004
1.1796051 -0.35636285 1.8496697
-0.66009283 -0.10634314 3.1075919
0.62476611 -0.44771597 2.2668192
-0.82464504 -0.33519864 2.5244014
0.35969132 0.041220453 0.49916244
0.3508482 -0.069392279 0.60757899
0.86746216 0.014284726 1.087075
0.16585708 0.026535856 0.35978198
1.409832 -0.34691596 1.679559
0.94969285 -0.07699661 1.3740561
-0.26857555 -0.37869495 2.7631938
-0.2557624 -0.27209458 2.6532123
-0.16878551 0.056316018 0.30049825
1.5434316 -0.25129125 2.2651613
1.3025597 -0.24707295 1.9907858
0.23662722 0.048469536 0.31675553
0.14448237 0.055451959 0.26550269
-0.12206936 0.060114138 0.27467942
0.48961818 -0.23632829 2.5200236
0.3359769 -0.065519273 0.61723876
1.0583603 -0.068292841 1.4542267
0.14553118 0.021899724 0.35669351
0.138484 0.047109324 0.79975724
0.21986985 0.041929789 0.32183099
1.3273425 -0.29751962 1.9145014
1.1727871 -0.21146415 1.7924435
0.13509893 0.023940058 0.3087852
0.32233226 -0.05048738 0.61398292
-0.33000731 0.05085136 0.66990447
0.5313313 0.040181927 0.77009749
-0.048872709 0.058199905 0.3606832
-1.0026342 -0.25966293 1.3332565
1.318112 -0.30132788 1.9278533
-0.16267627 0.042450793 0.96221757
-0.24919564 0.05535987 0.41033149
-1.0170498 -0.16839768 1.3055089
-1.0542512 -0.2417375 1.358937
0.39489543 -0.077715233 0.69005656
0.11042458 0.036918707 0.37282205
0.31115681 -0.057119872 0.55632901
1.4856665 -0.30047116 1.720814
2.798672 -0.078745037 3.3248651
-1.0482424 -0.30713654 2.4635527
-0.5064044 -0.05598424 1.1448877
-0.60811949 -0.1700418 3.1404636
-0.22762346 0.050433997 0.29620433
1.1323013 -0.042185452 1.4127309
1.0368606 -0.0077157505 1.3279774
1.4279206 -0.42490748 1.9945347
1.8986769 -0.055603575 2.2029941
0.33076036 0.028895585 0.61200118
0.1253584 0.043821238 0.53864503
0.079356611 0.056997281 0.2736733
-0.20591497 0.052195497 0.34063315
-0.88052833 -0.29322067 1.4723361
0.15786856 0.055668078 0.31952691
-0.82798147 -0.016533978 1.0903599
-0.062939107 0.058846012 0.27355647
-0.082430601 0.059010699 0.26817107
-0.53479195 0.033851381 0.83208346
0.82173085 0.018955961 1.1838315
-1.0192361 -0.24192075 1.3266041
-0.19449729 0.05415152 0.29460692
0.1208154 0.019279661 0.40398765
0.013541996 0.057032797 0.26827407
0.33531618 -0.050872158 0.60357451
0.21560675 0.050375957 0.37719417
0.12156576 0.051961567 0.41392112
0.046814263 -0.15620364 0.79094052
-0.21879691 0.047282342 0.28455043
-0.19801855 0.05608264 0.27168107
-0.50138474 0.040746052 0.8511312
0.23624331 0.039396703 0.32276225
1.0837201 -0.33720285 1.8046706
0.33554989 -0.10739322 0.61383224
2.6268365 -0.10252714 3.0564454
-0.17791086 0.055697963 0.69878697
-0.34307635 0.052107837 0.82234645
