# .PCD v0.7 - Point Cloud Data file format
VERSION 0.7
FIELDS x y z
SIZE 4 4 4
TYPE F F F
COUNT 1 1 1
WIDTH 579
HEIGHT 1
VIEWPOINT 0 0 0 1 0 0 0
POINTS 579
DATA ascii
2.3033185 -0.095147304 3.5232153
2.3414719 -0.10481615 3.3143334
1.8343561 -0.071397506 2.3096399
1.4061426 -0.08553309 2.1205888
1.9244494 -0.10936897 3.5434494
0.15333681 -0.018678242 1.9481802
0.21521996 -0.20884311 3.8630352
0.18239371 -0.39020494 4.1081872
-0.32547373 -0.24319369 1.6901636
-0.56383038 -0.13675764 0.88202453
0.22048311 -0.21131882 3.9605179
-0.5382219 0.031516172 0.84397793
0.21445404 -0.19010112 3.8089895
-0.57841903 -0.10903288 0.87568736
-0.57819283 0.027694222 0.85914898
-0.58068007 -0.10790072 0.8820014
0.84363651 -0.061598599 1.5198069
-0.84226269 -0.078728013 1.5578833
0.20846204 -0.37473762 3.9273105
-0.51179582 -0.10853114 0.8389411
-0.20538478 0.055923827 0.35467887
-0.46993846 0.042530041 1.1304476
0.37725198 0.018203301 0.74695706
0.067457899 -0.0080637876 1.9981356
-0.32915527 -0.20332417 1.3979816
1.0409847 0.17941605 1.4922109
-0.32751721 -0.23584974 1.3328466
-0.20227121 0.056260064 0.35006666
0.2875846 0.022669537 1.7832594
1.0570651 -0.037985243 2.9102216
0.94940579 -0.14283054 1.2330232
-0.54126531 0.0174968 0.84002161
-0.58865911 -0.12521569 0.88518286
-0.38868999 -0.15049776 0.95599079
-0.30046946 -0.18289398 1.4308641
0.039863095 -0.44089007 4.4321156
0.3561278 0.034893271 0.71698689
-0.5123505 -0.056465358 0.81093693
-0.50376683 0.045155156 0.80630374
0.2412471 0.040095765 1.3849211
-0.94159847 -0.086007871 1.2351496
-0.057695314 0.060157247 0.33228612
-0.36512274 -0.21827774 1.5824428
-0.54062396 0.034593105 0.85149407
-0.50596678 -0.12384167 0.76114249
-0.36690116 -0.16984557 1.3320613
0.45781928 -0.17835324 5.3070745
0.13604753 -0.44618052 4.2622957
1.0082111 -0.25484389 1.6364317
-0.44655919 0.0078049302 1.7374573
-0.5102545 -0.10719606 0.83755755
0.086317107 0.059892185 0.42346406
-0.5795936 -0.10711133 0.87930608
0.42360908 -0.18786179 1.78756
-0.53743762 0.024003647 0.84616542
0.37116426 -0.13700725 3.0530682
-0.19007708 -0.2684491 3.2354817
-0.4113813 -0.46594155 3.645113
0.77217197 -0.040625252 1.7456532
0.70034748 0.029821578 1.2902837
-0.70955312 -0.046106823 1.7714343
1.1925776 -0.029150816 2.9091139
0.29242951 -0.29974473 2.7857413
0.88358009 -0.11186568 2.2977505
-0.70437926 -0.066483155 1.7063789
0.45947236 -0.094640248 3.4371243
0.3351559 -0.1025852 1.5508862
0.5869168 0.041046448 0.76993418
0.31152409 0.037762225 0.61910152
0.72525764 -0.036071725 1.604641
0.31503862 -0.1732921 1.2334139
1.2415156 -0.043301322 2.9213538
-0.11251561 0.060364589 0.31621242
-0.34804857 0.084047325 0.55788875
0.57979125 0.041180436 0.75350428
-0.3906427 -0.22700739 1.4385552
-0.39206666 -0.44971514 4.1976733
-0.48353565 -0.39162058 3.3329439
0.061358616 -0.1226897 2.3106537
-0.52600545 0.047453798 0.66542006
0.65588385 0.035995789 0.7708168
0.71549028 0.034230232 0.92608237
0.88610983 -0.14936042 1.4425111
-0.49748677 0.041531198 0.82905245
-0.51118422 0.022130713 1.2369192
1.4046869 -0.24917692 2.7371864
0.30437189 0.0043749679 1.7812848
-0.72160339 -0.048838861 1.7933717
0.34779102 0.033672415 0.68386698
1.1395284 -0.025186816 2.7851734
1.1209862 -0.026241003 2.7238474
1.3909225 -0.22649497 3.1393723
1.4836395 -0.25946477 3.1607375
0.29694527 -0.29803124 1.558459
0.77726883 -0.030407468 2.5249486
-0.56075352 0.0273166 0.78338408
-0.35652381 -0.42818952 3.5787835
-0.85555857 -0.17489551 1.2313969
-0.20265009 0.057381101 0.36258531
-0.51528674 -0.08703801 0.84089994
0.4039501 -0.13813756 0.84869957
1.085921 -0.28727049 1.6934156
-0.54397005 -0.13589868 0.86726665
1.0961674 -0.29075894 1.713201
0.99611044 -0.2689594 1.6630712
-0.36754018 -0.17146675 1.0079932
0.85692978 -0.038740523 1.4897919
-0.61917448 -0.15462324 1.6860056
-0.39495695 -0.23242196 1.4451449
0.25069773 -0.24234167 1.5334668
-0.044399619 0.057214886 0.41995311
-0.57351166 -0.13482784 0.85885119
-0.72305793 -0.078511909 1.662015
1.0542662 -0.18438235 1.7167897
-0.57529002 -0.13545328 0.86266375
1.3499185 -0.18207508 3.5834556
-0.56948429 0.027215919 0.83915782
-0.47741103 0.041645594 1.1525297
1.1649547 -0.24999911 1.8438559
0.39333588 0.011514325 1.153579
-0.7812776 -0.15115604 1.8098001
1.2090963 -0.23536777 1.7877011
0.2482983 0.049974315 0.75899601
-0.53131223 0.010045001 0.84030676
1.0388108 -0.18434107 1.547281
-0.80129129 -0.086978115 1.7527442
0.45848233 -0.12315673 1.6819034
0.1007448 0.053588867 0.64594364
1.3943148 -0.28677541 3.0409355
0.30805832 -0.23047429 2.3376746
-0.85937959 -0.17466366 1.1677639
0.22036983 0.056428313 0.29625702
1.2482375 -0.34048891 1.6467142
0.25583428 0.051797882 0.68411398
0.28443182 -0.23474348 1.1054547
1.0280309 -0.19807194 1.6673808
1.1537951 -0.24676341 1.8243904
1.2042208 -0.23715094 1.7721353
1.2331805 -0.059977747 1.6467562
1.1454864 -0.3527458 1.7191973
1.2599876 -0.060873397 1.6920667
-0.5309158 -0.063402429 0.84162402
0.29383057 -0.26791188 1.5759823
0.28904945 -0.2112841 1.4883597
0.013775513 0.058302317 0.34119463
0.4235236 -0.055387594 2.1092105
0.20695464 -0.014482656 1.4130194
-0.39477468 -0.43442568 4.1189909
-0.5774253 -0.060321644 2.2436519
0.32065618 0.0052919164 1.8812943
0.60672641 -0.029626841 2.2438741
0.22179706 0.057161003 0.29921603
0.85372514 -0.066173799 1.5349038
0.22963859 0.053795107 0.52698112
1.0398228 -0.27890006 1.6189766
-0.51184416 -0.10758247 0.83989191
0.69382793 0.029244103 1.1914911
1.2320743 -0.24065602 1.8186445
-0.12127389 0.058780909 0.35018969
-0.20949925 0.055557206 0.27157068
0.40016299 0.018767986 1.1764708
-0.058136106 0.059648134 0.31711841
-0.52599472 -0.042530991 0.84447789
0.84185666 -0.041072905 1.4658957
0.66261923 0.025647167 1.2162371
-0.65200967 -0.19252637 1.6081836
0.25291455 0.051489972 0.77038145
0.47143739 -0.21504062 1.8935304
-0.51973736 -0.076623566 0.84514451
-0.80059028 -0.085582979 1.7531786
-0.52053171 -0.057384364 0.83801532
0.40489858 -0.18983319 1.6536212
0.28406775 -0.20556936 1.439045
-0.056504592 0.058833361 0.31184602
0.24326442 -0.11405452 1.1325033
-0.18011524 0.043528449 0.90595818
0.23152672 -0.23512542 1.5568497
0.23564003 -0.24046221 1.5989492
0.29789817 -0.29517275 1.5505536
0.66040111 -0.2015622 2.5004997
0.14060844 0.059660569 0.28596735
-0.53040242 0.029641241 0.69812775
0.078516617 0.05640813 0.30034947
-0.86139935 -0.17283426 1.1721046
-0.2083685 0.05341395 0.34587336
0.36664784 0.035210542 0.71257353
-0.13539948 0.060821839 0.48128939
-0.40918213 -0.1567266 1.0096471
-0.109868 0.060142972 0.31387901
0.2253619 0.056823529 0.39599419
0.85398811 -0.037338816 1.4756389
0.49850118 0.041145202 0.70390797
-0.20473348 0.057923205 0.31651711
-0.45169914 0.040788807 1.181356
-0.36488551 -0.1568007 0.76840949
-0.50856334 -0.10474513 0.83428907
1.2034016 -0.23348343 1.7818727
-0.39345342 -0.21470623 1.2151477
-0.3883577 -0.27266917 1.2907784
1.1015861 -0.2885564 1.718996
-0.10596998 0.056872264 0.48279023
0.01477702 0.059802413 0.37393212
0.014570102 0.059398107 0.36451221
-0.2167659 0.054629736 0.26965237
-0.33920079 0.051692333 0.95875311
-0.31497735 -0.28895846 1.3819921
1.1604568 -0.35683325 1.7420325
0.29993987 -0.19783191 1.09799
1.6190034 -0.14049293 2.8047576
0.013685748 0.058486566 0.35364842
-0.30510104 -0.2911154 1.4539726
-0.71080416 -0.11817547 1.7177062
0.30990732 -0.18184593 1.7144923
-0.70568562 -0.14497267 1.7115946
0.30047363 0.034030676 1.7373867
-0.042963922 0.056718763 0.58374977
0.95802683 -0.070841208 2.643507
-0.043915987 0.057517104 0.43048763
-0.053235933 0.059221528 0.45705605
-0.52068716 0.024448182 0.90061855
0.34260398 0.035736151 0.48946881
-0.52538627 -0.15262467 1.2331336
-0.87029463 -0.21621241 1.1145511
0.65468609 0.028215505 0.75742865
-0.5082556 -0.10367804 0.83377361
0.56724739 -0.040521599 2.6816287
-0.71682745 -0.11785456 1.7353373
-0.69584781 -0.084190018 1.6913085
0.16840075 0.055112772 0.5823741
-0.53758734 0.031088833 0.71280313
0.64318544 0.02857507 0.80230451
0.30259579 -0.27934837 1.7586718
0.36824805 -0.26857242 2.0566101
-0.52056426 0.049867466 0.77653384
0.23194902 0.057148188 0.50277281
1.2014368 -0.16136014 1.7449169
-0.37886143 -0.17885163 1.060441
0.41864115 -0.22669792 2.82339
1.177479 -0.15769452 1.4104879
1.0739298 -0.25697741 1.5851042
0.24144854 0.051689021 0.64049745
-0.51222825 -0.083900146 0.83173275
0.087464347 0.058149375 0.43211555
0.22482909 0.052958801 0.51014042
0.29706913 -0.19699515 1.0946281
0.52961856 0.04105876 0.77277684
0.0038851351 0.059204422 0.29610443
-0.76468462 -0.22404519 1.7837715
-0.52661455 -0.042363726 0.84569073
-0.36389327 -0.21181877 1.337038
-0.32694519 -0.23706901 1.3287418
0.30600035 -0.17693332 1.6687264
-0.05061698 0.059911184 0.31762147
-0.29003519 -0.18957575 1.6280084
0.018712327 0.059243895 0.29633284
0.30514508 -0.28879097 1.5324805
0.64457709 0.034229219 0.78227186
-0.20634131 0.053007856 0.3411932
-0.19671644 0.056267887 0.35272551
0.25227231 -0.16587648 1.3858075
0.15236844 0.059257194 0.35532522
0.080814734 0.058220461 0.30891228
-0.20080484 0.057693213 0.36625886
0.24434079 0.058576882 0.56351519
0.16982774 0.055394858 0.58475518
0.29560775 0.049572445 0.47190833
-0.85160798 -0.214398 1.1537135
-0.16556479 0.044183955 1.0127099
-0.12448005 0.060416445 0.27807975
-0.058001593 0.059432603 0.31316495
2.3593903 -0.079007164 3.7464809
0.21920551 0.060594454 0.27670407
0.30685759 -0.15804671 1.6539421
-0.032793716 0.055722907 0.6227417
-0.87151426 -0.18694118 1.0680852
0.07924439 0.057809718 0.3155663
1.3500111 -0.047759101 1.9618821
0.46572226 0.039174758 0.54460573
0.22175609 0.056955293 0.29885054
0.39232415 -0.15208 1.3923485
-0.78519469 -0.085033797 1.7200565
0.40468001 0.013604057 0.85101533
-0.11646087 0.060498662 0.30056524
0.44336206 -0.13833812 0.71648765
1.8637995 -0.072818272 2.9925799
0.15734081 0.059925795 0.28581405
0.45699054 0.038355444 0.53188586
0.22905226 0.054396085 0.52190328
-0.21696235 0.054613926 0.27005148
-0.52252716 0.030132983 0.69479489
0.36114031 0.038585924 0.71890259
0.15156259 0.059074268 0.34938717
0.29932797 -0.21146914 1.0813596
-0.52771431 -0.022323066 0.84007382
1.1350478 -0.25555226 1.7578115
-0.46912318 0.041586868 1.2507255
0.22417061 0.057906665 0.30323195
0.22128408 0.057352811 0.29789591
-0.52219915 0.047356155 0.65935588
-0.38188571 -0.27020624 1.285094
-0.54102749 0.049684264 0.79849219
-0.32850868 -0.25862241 1.2508512
-0.60807103 -0.11261529 1.6769624
0.30570269 -0.26113155 1.5369093
0.48865646 -0.14630774 2.0311742
-0.36823589 -0.21520126 1.3702364
-0.22018369 0.033915743 0.99211884
0.35246974 0.012479262 1.7278767
0.081515148 0.058806926 0.31717682
-0.12615003 0.056528099 0.44460464
-0.45118254 -0.2161645 1.6571426
0.29186112 -0.16338769 1.5812516
0.30058461 -0.2130837 1.0892918
0.64702237 0.037661061 0.92497969
0.37120724 0.039428413 0.92879081
-0.045785531 0.060876675 0.46492457
-0.10713352 0.0588836 0.30974245
-0.17353745 0.041014921 0.85265064
-0.52617121 -0.018556433 0.83484149
-0.17867209 0.042626005 0.87801099
0.53638357 0.033006154 0.67902899
0.39339846 0.041736796 0.98912692
1.2389674 -0.24514809 1.7412982
-0.44649571 0.045303248 1.0594923
-0.7337544 -0.12480769 1.773026
0.85654628 -0.037517823 1.4753866
1.5563416 -0.28829145 2.8984594
0.28274626 -0.12896755 1.7598543
1.2032816 -0.16039959 1.4402366
-0.48212451 0.034131341 0.99849558
0.29033369 -0.14600199 0.75590897
1.0962765 -0.16597514 1.4906254
0.36486834 0.039075702 0.73943448
0.19751002 0.059485272 0.28914714
-0.52771616 0.034693047 0.82767391
1.217479 -0.13192546 1.4156685
0.45979917 -0.020821786 1.5771909
-0.10259913 0.056311287 0.50136018
0.23968546 0.028881179 1.7723827
1.217032 -0.2366733 1.729845
0.44533658 -0.11847074 1.6080523
0.087943062 0.058759041 0.44040084
-0.10885693 0.059559762 0.3136313
-0.32579309 -0.17541988 1.4054909
1.0979761 -0.28494599 1.7079301
0.51410675 -0.15169968 1.4145169
0.18166916 0.059836343 0.30525208
-0.050247118 -0.075344078 0.92481923
1.4668758 -0.12342041 2.1310244
0.19539075 -0.20001119 1.8907719
0.085316882 0.057237972 0.42440987
-0.57240438 -0.13524574 0.85797334
0.11385004 0.049787872 0.822685
1.1380268 -0.27421916 1.6944599
0.086135522 0.057809345 0.4194088
-0.53156924 -0.19171958 1.9469929
-0.32818538 -0.30570066 1.3555183
1.2361554 -0.24101767 1.7530379
0.019748136 0.059890062 0.29826093
-0.3808763 -0.23050719 1.3744764
1.2201881 -0.058021702 1.7297897
0.29185128 -0.26427013 1.4304745
0.25216508 -0.22292116 1.5621872
1.446732 -0.10210057 3.5958147
0.41856712 -0.15403017 1.345278
-0.015790626 0.049457379 0.8030653
0.30080849 -0.15812112 1.5965991
-0.30852813 -0.20120282 1.4237933
1.104763 -0.2030796 1.7038369
0.64902222 0.028850224 0.81356478
0.14619695 0.060169585 0.28393292
0.14734612 0.060981512 0.28762388
-0.4763388 -0.14058259 0.71609831
-0.57265049 0.027868379 0.84492612
0.44553024 -0.13844962 0.72141314
0.15592773 0.060540318 0.36573339
0.13825558 0.059120521 0.27950478
0.28261948 0.047338977 0.50355291
0.42888266 -0.13088383 0.72626328
1.0645918 -0.23189762 1.6746116
-0.15508153 0.056223691 0.59682369
-0.85016066 -0.16844678 1.0895257
-0.51469284 0.023422759 0.92664075
-0.20095839 0.057424996 0.37736368
1.0006309 -0.19265723 1.6219292
-0.44941783 -0.13521729 0.74790788
-0.49703217 0.04132301 0.8290081
1.0705489 -0.13847168 1.4009025
0.43729156 -0.13281199 0.74342632
0.25792545 -0.13285236 0.60348558
0.1404448 0.05985415 0.28583789
0.68767864 0.029948285 0.86477804
-0.57466078 -0.10657141 0.87468362
0.14903747 0.061569102 0.29246783
0.020105883 0.060407199 0.36227059
-0.53842211 0.033661168 0.74081659
0.15470047 0.059063569 0.24923301
-0.12285842 0.061306961 0.34490252
0.39418852 -0.1515922 0.76628041
-0.48968256 0.042605996 0.97878146
1.2042217 -0.2318663 1.4977543
0.99752098 -0.12447279 1.5692451
0.32352251 -0.23873228 1.10182
-0.87545198 -0.17585576 1.125453
1.1147473 -0.24307016 1.7611485
0.30309737 -0.19868641 1.1066546
0.44812924 -0.17343451 0.81450391
0.43227106 -0.16644901 0.77823615
0.56757081 0.039885592 0.74397206
-0.12405057 0.061267689 0.31992364
1.1738163 -0.18647942 1.4501491
1.2290066 -0.13186263 1.4294643
1.6804758 -0.069309823 2.6834655
1.019701 -0.16403162 1.4989378
-0.26524603 0.092690833 0.40966225
0.28429455 -0.33424431 1.6191373
1.7014502 -0.39334896 3.1552768
-0.8695994 -0.21717933 1.1807365
-0.4867723 0.024873395 1.2711451
-0.14734216 0.058892407 0.42098284
-0.57710999 0.011664389 1.6974149
1.550482 -0.41613314 2.6774602
0.3866213 0.0022627469 1.3608432
-0.53792363 -0.071400791 0.85227895
0.29679877 0.027679406 1.2517462
-0.73794705 -0.067477517 1.6984925
0.48929644 -0.14678258 2.0365343
1.2171097 -0.27277538 1.890563
1.9579954 -0.072331108 2.9796486
0.46765232 -0.11869735 2.0493593
0.4286955 -0.1929751 1.8559747
0.27380872 -0.23090607 1.5558414
0.24868779 -0.21120767 1.5595157
-0.036054567 0.055046979 0.59474182
-0.38005704 -0.26700449 1.2659059
0.84309292 -0.085820593 1.4934688
1.7844292 -0.073028512 2.846837
0.10971381 0.048889972 0.77090955
2.0113876 -0.077574171 3.0607319
-0.51776457 -0.07526271 0.84164953
0.58592123 -0.1717727 1.4465601
-0.98840088 -0.09086822 1.4262784
-0.500081 0.010579795 1.4158316
-0.31346971 -0.26173323 1.4285183
0.23119257 -0.17597657 1.8566113
0.99029809 -0.26372468 1.6388555
0.30971026 0.0064949431 1.8193779
0.31942052 0.033095028 1.3606014
-0.082919285 0.059091687 0.63223076
-0.18996851 0.029109515 0.83503079
0.45585734 -0.11411405 1.9778132
-0.33067179 -0.2388126 1.734489
0.10781126 0.047418058 0.74353361
-0.63180608 -0.18271184 1.5432577
1.0200452 -0.042793028 3.4712615
-0.84307367 -0.16888149 1.1558361
0.27708453 -0.20951414 2.4298663
3.5194955 -0.16231109 5.3483224
-0.29574221 -0.050471574 1.2918212
-0.36026424 -0.30722344 2.6326098
-0.19117199 0.058965646 0.28815389
-0.11456971 0.059708178 0.2985146
-0.53196788 -0.0039966237 0.84506202
0.27301121 0.049225971 0.38156176
-0.058603704 0.059656121 0.31333756
0.28778738 0.04729832 0.38540888
0.0026980489 0.061394103 0.30314779
-0.11991207 0.058800749 0.36180425
0.13551183 0.055086598 0.37333107
0.37631708 -0.13288802 0.7251699
0.11240713 0.04463543 0.23658323
-0.071873888 0.060873017 0.31413388
0.0033853948 0.05843056 0.28701138
-0.070045158 0.058538981 0.30286765
-0.51535529 0.054190062 0.67166209
-0.1542836 0.06291683 0.45611548
-0.17815323 0.06407167 0.46549129
0.22522549 0.059235737 0.32266641
-0.19677345 0.055129617 0.3963275
-0.34660935 0.053144097 0.98554778
-0.5368703 0.01092275 0.84900856
0.014562383 0.058423087 0.36238909
1.1629176 -0.27031383 1.39853
-0.1022356 0.055682488 0.4694705
-0.45531589 0.04568515 1.000078
-0.10841025 0.059888132 0.31605887
1.0930908 -0.16760923 1.5139635
0.32442141 -0.18463917 0.99184394
0.62139219 0.016839478 0.82923913
0.20617269 0.05148188 0.43578267
0.0050611347 0.060672268 0.25196147
-0.50519055 -0.16559832 0.71193838
0.34803492 0.014205409 0.68361139
0.43395674 -0.12967792 0.73950815
-0.13410909 0.060133494 0.48649836
1.1903106 -0.17575489 1.3775423
-0.20936085 0.054508522 0.28587794
-0.12470646 0.05584459 0.44825196
-0.20758639 0.054187492 0.28361535
0.38324237 -0.13464862 0.73968172
0.33748788 -0.13728859 0.69074273
0.15896069 0.062430255 0.36437964
0.040625945 0.061462499 0.31373644
-0.19499238 0.055915397 0.44246817
-0.76350212 -0.071301855 1.540947
0.22856717 0.054418959 0.45977259
0.4409247 -0.14702918 0.70944786
-0.43833739 -0.15177506 1.0121248
0.35412782 -0.14271046 0.72836137
0.47751725 0.034681134 0.76226854
-0.13227861 0.059867084 0.3119328
0.22595222 0.058984853 0.32316756
0.13206361 0.055687733 0.32059383
-0.20953117 0.053949323 0.34861803
0.36103803 -0.055442631 0.71697474
-0.044812992 0.060249843 0.45811033
0.22452812 0.056331739 0.39246273
0.15718023 0.05980619 0.2867136
0.047142491 0.054537177 0.24818397
-0.48106575 -0.14589155 0.80982685
0.22660811 0.059252664 0.32440686
0.015505895 0.060432769 0.29150915
-0.5250833 0.04737258 0.66394114
1.2330813 -0.099812485 1.4402676
0.36317265 0.039126594 0.72258234
-0.41747153 -0.14464 0.95991635
-0.73080152 -0.069089063 1.4705706
-0.011467248 0.058138765 0.33220935
-0.55721778 0.03034826 0.69965768
-0.11639892 0.06060943 0.30314422
-0.34804785 -0.27378953 1.3305802
0.99995089 -0.16037893 1.4174156
0.014983699 0.057949111 0.27383542
-0.043933049 0.058268361 0.43892837
0.50761825 -0.14698477 1.2000344
0.99469888 -0.1782482 1.4690022
1.1852413 -0.13723353 1.7306709
1.1891975 -0.16955803 1.4413915
0.80612123 -0.070751257 1.52388
0.30596036 0.042582463 0.63419819
0.22905974 0.055620857 0.54400086
0.020261154 0.060047723 0.29565907
1.009953 -0.26758137 1.6705875
0.27334803 -0.24717388 1.5581076
-0.51182729 -0.089147754 0.83830118
-0.35060918 -0.27604476 1.3420806
-0.5216006 -0.12664169 0.92058778
1.2250698 -0.05861076 1.7356062
-0.03887932 0.051105276 0.51200199
1.0716412 -0.13617998 1.3829668
0.43739933 0.01642547 1.3311419
0.36682671 0.037785094 0.74399209
0.24172734 0.050922409 0.55828428
0.1004117 0.053985894 0.65322971
0.48286557 -0.18871133 1.7651248
-0.40082681 -0.22524428 1.4008191
1.1543138 -0.29521692 1.8579054
0.16909061 0.041481197 1.2895927
-0.14343239 0.051296737 0.95832705
0.4589622 -0.13670322 0.77211118
-0.52595377 0.034370199 0.82384634
-0.33445007 -0.22245288 1.6958017
1.7823972 -0.071546592 2.8502488
0.43460315 -0.14884777 0.73670077
0.30507982 -0.3543396 1.5776932
0.29760402 -0.17268389 1.5065248
0.005644545 0.044694688 0.99655008
0.17140649 0.043436594 0.30715466
3.5856156 -0.17083167 5.6603613
-0.53239703 0.0052985456 0.8408761
-0.018440858 0.050395362 0.81565714
0.31506413 0.078461185 0.68728757
-0.68855917 -0.075678319 2.7599964
0.33595562 -0.36933339 1.6382918
0.85409558 -0.091194086 1.5192504
-0.64356667 -0.071147062 2.5502934
-0.19093056 -0.1341583 1.2034137
1.7979747 -0.066434383 2.6796627
1.4336401 -0.11799971 2.0760412
