# .PCD v0.7 - Point Cloud Data file format
VERSION 0.7
FIELDS x y z
SIZE 4 4 4
TYPE F F F
COUNT 1 1 1
WIDTH 683
HEIGHT 1
VIEWPOINT 0 0 0 1 0 0 0
POINTS 683
DATA ascii
-0.1220994 0.059954122 0.33921027
0.074827135 0.056873117 0.28614545
0.11805797 0.024072468 0.29875875
-0.19205123 0.049897194 0.57719588
0.77318597 0.015363626 1.0630276
-0.49239302 0.050691303 0.79769254
1.193585 -0.27163464 1.750644
0.14926881 0.057270508 0.26972556
0.12061411 0.034832597 0.30558181
-0.91177917 -0.22941783 1.5525901
0.55942142 -0.14669976 2.1510956
-1.3519636 -0.45321792 2.6902626
0.75186145 -0.51659435 2.3413808
-1.277679 -0.26516783 2.5323265
1.5912983 -0.33660746 2.0735657
-0.8853296 -0.15340832 2.3730881
-0.11193454 0.044345293 1.0292938
-0.50541592 0.024544083 2.3495924
-0.75316763 -0.12178944 3.4140279
-0.17726332 0.055591144 0.60807014
0.28523338 0.046849385 0.4010675
0.13507962 0.030407915 0.34805131
0.46629548 0.039412417 0.71434712
-0.20204163 0.053067729 0.312361
-0.13658094 0.059859183 0.31887746
0.31537402 -0.037575077 0.55578828
0.0031619668 0.056552816 0.32369924
-0.82857704 -0.027134087 1.0415823
0.32052529 -0.038053263 0.56286693
0.072308958 0.056272365 0.24190259
0.2933566 -0.1061957 0.56316447
0.14231235 0.056574814 0.3025763
-0.17570692 0.057895426 0.35957551
0.33949226 -0.10892588 0.56963849
0.10020745 0.055975776 0.61044765
-0.9324764 -0.22783384 1.3378808
0.12327915 0.030432906 0.29220939
1.0836886 -0.10704896 1.8274009
1.5078505 -0.27787954 2.1219699
-1.0271548 -0.2903052 2.4465749
0.16384721 0.03011886 0.29699349
-0.91486144 -0.26008397 1.5302761
-0.17558515 0.040490463 0.98242164
0.38764787 -0.33085397 1.8466427
0.082676113 0.047005884 0.74125075
-0.75549757 -0.25544727 2.3516762
0.51410496 -0.3697511 2.0324781
-0.77466631 -0.14776412 3.2487619
1.1243025 -0.25514528 1.7811768
0.33772808 0.017694509 0.57357001
-0.32333905 -0.24287474 2.639406
1.535406 -0.27953264 2.1546991
-1.0311002 -0.20890629 1.3257515
0.15157813 0.027991405 0.29283881
-0.59322274 -0.032458749 1.2168176
0.31778032 -0.064426586 0.55650496
-1.0866688 -0.2799505 1.3790715
-0.82941413 -0.22264642 1.3294494
-0.18112624 0.058798235 0.35724568
0.17149287 0.034360003 0.29439855
0.12918413 0.045894988 0.29484296
0.012474179 0.0541633 0.36311555
0.33424562 0.019099601 0.60427451
-0.043348134 0.052195378 0.36632419
-0.84619093 -0.227795 1.3577306
-0.040345252 0.045994919 0.24037766
-1.0080836 -0.20356587 1.3233507
-1.1772573 -0.41972831 2.6024888
-0.51585996 -0.055668112 1.0839102
0.012895763 0.056698453 0.38400054
-1.0411848 -0.21306118 2.3569286
-0.036600769 0.048753999 0.65572762
0.59452665 -0.3024343 2.0484598
-0.53324234 -0.048744868 1.5827935
0.68860888 -0.41681427 2.1274793
0.97049725 -0.013769511 1.4490736
0.54244161 -0.36408636 2.43943
0.50931752 -0.42075658 2.4205401
-0.57959604 -0.36506712 2.6635258
-0.245152 -0.069450274 2.0864275
-0.28654379 -0.28317219 2.7411416
0.636374 -0.44259191 4.1483078
0.071226537 0.05542171 0.23568177
-0.12614083 0.058690887 0.30338216
0.2225613 0.044518907 0.26067662
-0.1855402 0.054664448 0.33364797
0.15482026 0.056953408 0.25452733
-0.18634772 0.059248 0.32376981
0.79418874 0.019156072 1.0742381
-0.40339857 0.061876148 0.81764483
0.0029970407 0.058001585 0.33340764
-0.22895396 0.051651657 0.28256917
0.16845387 0.025693471 0.29666924
0.13054085 0.020240242 0.45120358
0.11313528 0.050755132 0.32641482
0.21484184 0.038996749 0.26785684
0.048245251 0.055474035 0.28900123
0.26063311 0.084294833 0.35756087
-0.3853991 0.061031811 0.54381919
-0.21669018 0.054392781 0.31023765
-0.20039475 0.052121796 0.31709981
0.26214767 0.043671127 0.45811391
0.95349944 -0.036003392 1.418781
0.92383945 -0.0065979585 1.3926928
0.93621433 -0.2175571 1.4318917
-0.13616419 0.062135667 0.41527724
0.12410527 0.027668266 0.29652858
0.30183637 -0.089083627 0.55871654
-0.51036608 0.051121362 1.0701625
0.976789 -0.039013784 1.397537
-0.85116637 -0.25059271 1.3544996
-0.94672239 -0.22810137 1.3917387
1.3136899 -0.34548399 1.8151095
-0.051905572 0.059558541 0.28051019
1.2770026 -0.33035511 1.7984107
0.01300478 0.054675244 0.37790465
0.20583534 -0.1771695 1.0706313
0.39022148 -0.12119813 1.0237963
0.088730752 0.04977005 0.51877999
1.1972468 -0.21675193 1.79021
-0.83036637 -0.016042553 1.0499523
0.48889256 -0.31887725 2.4423716
0.49525964 -0.17638639 2.1230743
-0.87541473 -0.2092486 1.2929847
-0.85355103 -0.14904228 2.2912543
-0.71505213 0.040730502 1.0892375
0.88911021 -0.27290243 1.999212
-0.85852563 -0.20653081 1.259434
-0.88715315 -0.21239281 1.3117268
-0.62972438 0.052058924 1.3203552
0.51415312 -0.42694131 2.4540684
-0.26795769 -0.36613598 2.9545982
-0.3636061 0.05812262 0.45852208
-0.37781465 0.059279673 0.55317569
0.31525373 -0.10591699 0.55403876
0.22366381 0.048176154 0.37902665
0.33217263 -0.063863799 0.55495191
0.11610758 0.038175419 0.42988849
-0.18703222 0.050684765 0.47461057
0.21291316 0.0518592 0.31470942
0.18281025 0.057070989 0.26595473
0.27181321 0.044710569 0.38556314
0.22255194 0.04647246 0.35014224
-0.32581717 0.05055581 0.5945065
-0.9409796 -0.30567735 2.4251883
0.078804076 0.056559414 0.2409904
-0.11627114 0.05161814 0.42342782
-0.50882769 0.057389468 0.87726045
0.13530779 0.029906409 0.29426646
0.21535277 0.052227616 0.31930947
0.12147295 0.035379708 0.30717778
0.53098667 -0.25447553 2.3242123
0.29773903 -0.112129 0.67650104
-1.0061179 -0.25880432 1.2712057
-0.96554971 -0.20172358 1.296746
-1.0320157 -0.20835033 1.3271806
0.091752172 0.037247162 0.92453551
1.0737169 -0.066902131 1.371249
-0.062840283 0.059386462 0.43889022
-0.074569225 -0.51700926 3.5209343
0.12493253 0.056484122 0.38931584
-0.85906911 -0.16824362 1.2770569
-0.12672436 0.057737496 0.30681729
-0.81443751 -0.015150521 1.0335038
-0.88109553 -0.22867179 1.4999778
-0.17718649 0.057668891 0.34486222
0.098718822 0.055511549 0.54548621
0.5936271 -0.30093873 2.048528
0.06806314 0.053340212 0.26296639
-0.15334982 0.049726699 0.62835002
0.019382238 0.055372953 0.31217599
-0.19226956 0.049349017 0.57613778
0.21105367 0.055904478 0.36492658
-1.0669054 -0.21626994 1.4089997
0.31811208 -0.044537652 0.55749488
0.44242609 0.03943073 0.66669726
0.14708686 0.047363985 0.71697164
0.28280616 0.046836033 0.3982408
0.60837805 -0.26424181 2.094991
0.32915688 -0.047695708 0.57035327
-0.18953645 0.062040322 0.30993581
0.14342797 -0.16404656 0.74149108
0.074664712 0.05608765 0.31100821
-0.88361371 -0.18487637 1.35551
-0.047698379 0.061550364 0.33555198
0.22392637 0.044447109 0.26958442
-0.067859352 0.061443623 0.26127362
0.14193624 0.05475254 0.27423549
0.32678282 -0.11395586 0.54783463
0.1131056 0.038428437 0.33034968
0.12163413 0.046190508 0.3039453
0.51330423 -0.25267169 2.1836174
0.0074662566 0.059635624 0.33324313
0.31348276 -0.023564365 0.84603667
-0.54478335 -0.10494134 1.5854833
-1.1337337 -0.26758182 1.4478252
0.77809656 0.017582983 1.0293677
0.79975152 0.020317908 1.2106016
0.18416834 0.055473622 0.3136518
0.33106095 -0.11506751 0.55502391
-0.19634205 0.054659307 0.27629209
0.11708403 0.023502668 0.29399419
-0.201276 0.053055719 0.31139827
0.35311902 -0.065759391 0.56295943
-1.3693397 -0.16194518 2.5832622
-0.18620002 0.059099495 0.32359004
0.22241586 0.051644266 0.26271033
-0.19003272 0.054679967 0.47065187
-0.51388621 0.046273883 0.95746112
-0.95814347 -0.46211076 2.4667184
-0.52358449 -0.053069312 1.5529387
0.35352421 -0.062809989 0.73174214
0.27018178 0.044595007 0.38448262
-0.18323749 0.056276582 0.49314713
0.14147109 -0.16180019 0.73349643
0.29349393 -0.10642362 0.56470037
0.11396223 0.030721562 0.29645371
-0.95534873 -0.22733134 1.1982381
-0.10331041 0.058282599 0.41803193
-0.39318871 0.045575485 1.0382898
0.037643552 -0.1780303 0.76453567
0.53699207 -0.19074558 2.1556385
-0.20161617 0.061062671 0.53938222
1.1855278 -0.21191868 1.7719123
0.61451185 -0.34775332 2.135884
0.50740016 -0.097364306 1.8754203
-0.7384094 -0.31797281 2.4862859
-0.97922838 -0.20070843 1.2553051
0.25765657 -0.0057117976 0.65416598
-0.82898581 -0.26386511 2.3121083
0.27383429 -0.10010995 0.63001466
-0.89717543 -0.35695693 2.3971055
0.31924903 -0.11188933 0.53520751
-0.062634766 0.067748904 0.33474612
-0.37698162 0.059117809 0.55382514
-0.18800151 0.053574905 0.28598809
0.34974945 -0.060128156 0.54800344
0.37167442 -0.040351178 0.7188108
1.5965592 -0.28450719 2.2557123
0.73418212 -0.074108854 0.92276835
-0.62425613 -0.18629837 3.0987508
-0.78578603 0.040901434 1.9792769
1.4298136 -0.41438171 1.9652951
-0.19683051 0.054709636 0.27707219
0.18533248 0.055516168 0.31845069
0.013702273 0.056253076 0.39617801
-0.86128807 -0.35633805 3.4746549
-0.30721068 -0.37600306 2.7303112
-0.20415527 -0.15189528 2.2715285
-0.20868343 -0.18342638 2.3439429
0.072356403 0.055061631 0.2751987
1.3109927 -0.32829845 1.5273178
0.3565284 -0.30217201 2.0658891
0.12674117 0.031300344 0.29633164
-0.17683506 0.060898975 0.27683902
0.19545853 0.05788637 0.26520228
-0.12066108 0.059848405 0.33621049
1.1494923 -0.34816894 1.7296069
0.29529375 -0.10393198 0.56208205
1.4392427 -0.32114959 1.6430223
0.16354173 0.05315274 0.21943069
0.15908986 0.055505991 0.26529574
0.32167244 -0.046545025 0.55551744
-0.17641532 0.057568908 0.34714437
-0.18149602 0.056464467 0.55503964
-0.13163036 0.057099894 0.32876754
0.26785403 0.04915135 0.38628793
-0.1567986 0.051185045 0.6459806
-0.93994975 -0.31730384 1.4774001
0.34985954 -0.057400551 0.547086
0.11814606 0.049627513 0.43663669
-0.20733392 0.054640442 0.32239509
-0.78200889 -0.065795586 0.95679879
0.44853711 0.040261455 0.67813897
0.076687574 0.055493176 0.23576283
0.32996911 0.039504882 0.43463635
0.97723126 -0.016966335 1.396755
1.0463457 -0.067272112 1.3902924
-0.11474144 0.0589744 0.35236239
0.11418146 0.049325913 0.41896415
0.42110455 -0.11504674 1.3478305
0.29908854 -0.045251902 0.57686973
-0.81811213 -0.073426858 1.3197482
0.039027512 -0.14799555 0.73990417
0.11371571 0.048823617 0.41768813
-0.97032762 -0.20111802 1.3152158
0.13165438 0.056255497 0.30324244
0.11450285 0.040652722 0.4345715
0.14293444 0.018220704 0.29515004
0.15883839 0.057302307 0.30635428
0.161852 0.029924905 0.2925632
0.29575545 -0.11379242 0.5444386
0.30611914 -0.032342177 0.54759526
-0.087873399 0.051283848 0.48529696
0.003188014 0.056508139 0.32482076
0.15119958 0.029844144 0.29067683
0.33920473 -0.10670224 0.54936194
0.1435262 0.023613753 0.29523444
0.26572275 -0.075867072 0.62906957
-0.052546382 0.05478844 0.64011073
0.13084227 0.026419871 0.28364587
0.29481846 -0.092897803 0.56702065
-1.0977596 -0.10510282 1.4716432
0.11722255 0.023628065 0.29538608
1.3255246 -0.33620569 1.8355548
0.15101451 -0.12888131 0.79359794
0.26954669 -0.07322602 0.54311204
-0.21180058 0.053472392 0.27945447
-1.2447517 -0.38685149 2.3412454
0.33991665 -0.051550884 0.55980229
-0.99648476 -0.16553465 1.2673004
1.4110867 -0.36707267 1.8377793
-1.0782429 -0.17806982 1.3779881
0.58978403 0.034281224 0.75721431
0.11685026 0.030687984 0.30725503
-0.18140489 0.055948861 0.59112525
0.33688134 0.040197495 0.44519353
0.57965457 0.034192484 0.74610448
0.10382825 -0.088953406 0.54460311
-0.89653575 -0.27255046 1.329159
0.33691669 0.04464044 0.49572349
-0.52530277 0.049751028 1.1059501
-0.089137793 0.10471721 0.77999282
-0.22759187 0.051721297 0.27959228
-0.1703456 0.051576518 0.49721122
0.30492729 -0.04038268 0.57740998
-0.020876408 0.027773496 0.37299514
0.43239927 -0.089375317 1.1868327
-6.3584223 -1.8002951 8.6086607
-0.81469679 -0.36269158 2.5043933
0.55522192 -0.23752186 2.4909384
0.45400035 -0.34098202 2.4413278
0.36330771 -0.039721522 0.75451636
0.21868831 0.039366677 0.2727282
-0.80958986 -0.26237917 3.3202703
-0.93059945 -0.37888759 3.7424896
-1.0424411 -0.25077927 1.5433681
-0.19283903 0.056572281 0.34911847
-0.31930977 0.04954733 0.59833312
0.14820606 0.056940932 0.26757979
0.0061782002 0.057906851 0.31766248
0.11818677 0.025829885 0.30522704
0.31899363 0.037941955 0.41881251
0.95190644 -0.053820152 1.1685479
-0.21229696 -0.18395516 2.3976538
-0.21471524 -0.18352112 2.4105213
-0.2841996 -0.40790573 3.2272394
0.61809456 -0.021320809 1.8382266
0.90686202 -0.264296 2.4909594
0.75967228 -0.019402038 1.6278822
0.58323109 -0.037406575 1.116996
-0.20523262 -0.32772249 3.9316823
-0.3232829 -0.4006778 2.6355803
0.62866783 -0.051022787 2.6273329
0.93659496 -0.16773552 2.165364
0.70964277 -0.014928307 1.3549135
-0.88156152 -0.47270185 2.4322283
1.8357116 -0.10411899 2.4207618
1.125617 -0.22414404 2.4163859
0.94316661 -0.30940044 2.1730716
-0.83471227 -0.39956844 2.5108774
-0.90182686 -0.25017324 2.6874592
-1.1439469 -0.4118115 2.5225241
0.6163851 -0.011692218 1.9853017
-0.072651625 -0.46327931 3.2099335
0.26666409 -0.096732646 0.60107446
0.62425065 -0.02220973 2.0057614
1.0956556 -0.020497601 1.374984
-0.62192404 -0.37722006 3.576853
-0.70341563 -0.087973073 2.3472664
1.048985 -0.019472729 1.3649695
1.0748687 -0.06573993 1.3726418
-0.050704837 0.054188803 0.67516303
0.30416799 -0.28926557 4.2340326
1.0455137 -0.01912849 1.3624194
-1.0335538 -0.43664587 2.4274123
4.0868063 -0.17500952 5.8347349
-0.1737448 -0.51764578 3.8851054
1.2802564 -0.31622609 1.8196328
-0.079719782 -0.52865732 3.6499422
1.0545127 -0.019877743 1.3717601
0.30776083 -0.29310629 4.2808685
-1.020528 -0.41968289 2.4844787
1.2331585 -0.021858763 1.6036112
-0.081552505 -0.52660102 3.6634037
-0.15450454 -0.49696028 3.6494148
0.97916472 -0.015746724 1.4014132
-0.817559 -0.4141337 2.4746125
-0.91167259 -0.25515735 2.7393892
-0.89701033 -0.26965821 2.4064867
-1.0673999 -0.39133316 2.3936603
-0.42129433 -0.40371853 2.7997553
1.0474293 -0.066013992 1.3907254
-0.77560842 -0.2383545 2.5982893
-0.81334174 -0.39209205 2.8409698
0.28663784 -0.035940219 0.607198
-1.0573653 -0.22132578 2.3523796
-0.82404315 -0.39617661 2.884865
-0.54664445 -0.066634327 1.564491
-1.570996 -0.32240751 2.1430895
2.0171707 -0.18455568 6.0178127
3.0141795 -0.55317837 4.3406229
-0.49686325 -0.071313336 1.8296998
1.6076159 -0.67472321 4.6171408
2.8485029 -0.5374127 4.0329142
-0.88550735 -0.48156762 2.4606831
0.11228037 -0.29282427 3.3095791
-0.45391214 0.050687212 0.86820483
-0.50286424 0.041535184 0.77691054
0.34997302 -0.065981463 0.54997182
-0.86939478 -0.36130658 3.5854018
-0.99029315 -0.14839625 1.2470305
1.0462416 -0.2718204 2.2034991
0.31553477 -0.043436002 0.55465484
-0.86191773 -0.2260946 1.3590267
-1.0914441 0.011185288 1.7503788
2.6817572 -0.58965951 3.5368187
-0.85803735 -0.24933565 2.5799439
-0.83913648 -0.43240234 2.527878
-0.91125083 -0.26037014 2.2747271
-0.95482647 -0.56669825 4.4068298
0.97932112 -0.061038282 1.4045503
0.97245061 -0.041786972 1.3938015
-0.83217502 -0.39041048 2.4598105
-0.80182385 -0.39982387 2.5561841
-0.72316349 -0.039974939 3.7579176
-0.76836562 -0.20811632 3.0276701
-0.76707578 -0.22555554 3.7446706
1.0817931 -0.067043975 1.386399
-0.85935426 -0.062109444 3.5653121
0.51341617 -0.053441893 0.67212272
-0.86664939 -0.1824702 1.3231156
-1.0173695 -0.27871254 2.3346107
0.98137403 -0.039823364 1.4068172
-0.92406917 -0.38507175 4.0843706
-1.2865412 -0.47298974 2.738426
-0.77048111 -0.56862706 4.314518
-0.91213942 -0.40077603 4.2962923
0.1753248 0.046509191 0.30820298
0.14031726 -0.14559692 0.7227571
-0.87038505 -0.27211565 1.3741519
-0.95174313 -0.4589864 2.4454806
-0.96516621 -0.27373251 1.5582254
-1.3255516 -0.44171119 2.6688869
-0.91104829 -0.2502428 2.2939785
-0.80724299 0.047427345 2.2974737
0.57299387 0.035512719 0.74429202
0.6735729 -0.15162341 1.0742877
1.1099256 -0.080432415 1.298918
-0.99197483 -0.36058673 2.4556291
-0.7808876 -0.16271359 2.5159981
-0.82082307 -0.023778882 1.0316107
-0.90845621 -0.20192623 2.3366601
-0.83348787 0.019600451 2.2343256
-0.80315745 -0.2597467 2.7014391
-0.81114399 -0.44312614 2.3098071
-0.50368774 0.041812517 0.77981591
-0.53960598 -0.051930171 1.6159298
-0.70794117 0.0018976368 2.3086784
-1.233995 -0.42856461 2.6800845
-0.85704315 -0.39301926 4.102602
-0.71793294 -0.18961149 3.246103
-0.88470757 -0.14126328 1.2508175
0.11699986 0.045841269 0.46346307
-0.70296371 -0.15839572 3.3293445
-0.82724166 -0.29631099 3.9686048
-0.58747983 -0.36885738 3.4140995
0.29182565 -0.044569906 0.56140304
-1.0984933 -0.22576019 1.413223
1.0603181 -0.29999837 2.2793796
0.31859499 -0.064649805 0.5565989
0.30092704 -0.10665178 0.7388823
1.0798392 -0.066515297 1.3749902
-0.89637685 -0.43236741 2.5344312
1.3047359 -0.30081433 1.8690917
0.18719816 0.055196177 0.32557702
-0.880198 -0.23188877 1.2958639
1.1133863 -0.042134207 1.364208
-1.2532858 -0.46331441 2.6610763
-0.29877782 -0.37192553 2.6567338
-1.0324064 -0.43809402 2.4284427
-0.85590565 -0.46706855 2.4545357
0.35687721 -0.10780254 0.53854012
0.82541978 -0.0082613006 1.176502
-1.162027 0.029478036 1.4787247
-0.91009879 -0.21306625 1.4978263
0.27936912 -0.056548696 0.56516099
1.1169631 -0.042683389 1.3668196
-1.2664236 -0.46577346 2.6921971
-0.81757963 -0.40838414 2.4912102
-0.045860171 0.052201442 0.59777093
1.0427113 -0.21356329 2.1469481
1.3599601 -0.25930727 1.9105546
-0.74085784 -0.1028161 3.7071841
1.4546736 -0.33670488 1.6809771
2.3744044 -0.36571583 2.8724873
-0.82783484 -0.4044944 2.2986915
-0.52873063 -0.2551564 3.0582569
-1.0413277 -0.21977213 2.3217514
1.1218067 -0.078637555 1.3121111
-0.85708296 -0.16786143 1.2725031
0.1429916 -0.14299044 0.72962785
-0.83830035 -0.25229129 1.3457992
0.28058571 0.045963392 0.39258552
0.088047206 0.051844262 0.56408954
0.15124238 0.060347684 0.71236348
0.41211367 -0.028219294 0.7347014
-0.87245977 -0.26199514 2.3435462
1.2873654 -0.33174533 1.7822001
-1.0217214 -0.42349866 2.4464653
-0.56754184 -0.35013843 3.2535136
0.42512715 -0.077025279 1.3478343
1.1186697 -0.044973616 1.3657291
0.29203647 -0.065402716 0.57537675
0.11725557 0.025397604 0.29929519
0.14997649 0.028814532 0.2907269
-0.93056333 -0.21235198 1.5435131
-1.0646001 -0.26545954 1.3279922
0.837412 -0.17759171 1.6689336
-0.35437971 -0.42688861 2.7393944
-0.77226114 -0.40032384 2.4807594
0.038988173 -0.15540141 0.76737714
0.75364995 -0.21304217 1.5157173
0.33040869 -0.10611834 0.5487268
-0.87235928 -0.064075992 3.625242
-0.12166989 0.060388539 0.364856
0.13322729 0.056803659 0.30185771
-1.1165308 -0.31607014 1.5209758
0.14339292 0.056722008 0.30249047
0.70832729 -0.43504322 5.0259371
-1.0174682 -0.21052963 1.3683846
1.0984511 -0.020272966 1.3812368
-0.20291108 0.051159661 0.26845288
0.3284449 -0.060502093 0.54534078
0.13654184 0.029982308 0.3003552
3.152215 -0.48563617 3.7795174
-0.88512993 -0.25760311 1.3733413
-1.2656796 -0.45295453 2.6127326
-0.83308375 -0.075640932 1.0579917
-0.29004014 0.020509847 0.60357118
-0.76874804 -0.39686286 2.4723871
-1.0600708 -0.30394143 1.3655655
-0.92598867 -0.31751269 1.4103544
0.70715392 -0.42477989 2.1914093
1.2896154 -0.32097405 1.8378556
-0.15130562 0.046123914 0.9910748
0.27718222 -0.16056168 2.9373052
-0.54369617 -0.10404846 1.5857041
1.6650846 -0.36427289 2.3936169
0.17504263 0.048705764 0.31133676
0.11686939 0.05337061 0.42557025
-0.37513161 0.057676118 0.70440507
0.55978966 -0.39058647 2.1999719
0.58617008 -0.41638908 2.1929357
1.2528238 -0.30564785 1.9074557
0.12014717 0.045214713 0.47185349
0.12400061 0.030345555 0.29545951
0.56678367 -0.19085486 2.4454653
-0.64871216 -0.16816977 3.6935022
-0.36901116 0.058090836 0.51556134
0.31650823 -0.053173978 0.55405068
-0.87059903 -0.18278226 1.3324821
-0.99188113 -0.012410965 1.3638723
-1.0829257 -0.31047657 2.441396
-1.0625607 -0.29021022 1.3608949
0.11630994 0.054180577 0.33661532
-1.3290638 -0.44861102 2.6491029
-1.0504541 -0.23592007 1.2719476
-0.83372974 -0.037686978 1.0202706
-0.9389205 -0.48339325 2.471401
-0.83207464 -0.075908735 1.0567968
0.58378696 0.034794364 0.76269698
-0.35158235 -0.16400546 2.4746664
-0.85467649 -0.076836243 3.9359238
0.19819319 0.0063897707 0.43241191
0.31994003 -0.12817174 0.56664443
0.57219839 -0.40016013 2.2498281
0.67359912 0.021602713 1.0911748
1.3695613 -0.40441227 1.8151591
0.31594318 -0.10656442 0.56193376
-1.071754 -0.19123471 1.3250058
0.038024604 -0.15761709 0.77216601
0.33811855 0.030023212 0.57166886
0.34633094 -0.064765453 0.55071092
-0.42723137 0.046894323 1.4176342
0.97858548 -0.021391522 1.3960044
0.33997369 -0.10698849 0.55138469
-1.0963718 -0.27564964 1.3805182
-1.0698715 -0.22935888 1.2964714
1.0972619 -0.021848369 1.3779328
-0.85262704 -0.34151724 2.4297559
0.11801112 0.025853904 0.30001569
-0.19176811 0.062340762 0.3989532
0.017031848 0.055154838 0.31874013
-0.12738502 0.058308076 0.30903077
-1.2686898 -0.26399639 2.5066998
0.14945656 0.028336497 0.28977036
-0.18194211 0.058886942 0.35852075
1.0587728 -0.013408031 1.5546033
-0.390809 -0.39587015 2.7232645
-0.12685072 0.058448814 0.30607533
-0.11896205 0.036520496 1.0778363
0.12310106 0.022666983 0.30491996
-0.12057531 0.058878586 0.33083272
-1.0144335 -0.30342981 1.3425319
-1.0280678 -0.21307734 1.3862512
0.31664753 -0.03401899 0.61889434
0.11824524 0.024348157 0.30028892
-0.76594424 -0.34541097 2.575825
-1.0019796 -0.27970105 1.3590019
1.3882896 -0.42402315 1.8213546
0.095973969 0.054531913 0.55395818
-0.16347361 0.05311837 0.68200612
1.0860126 -0.067214608 1.3882186
0.53617156 0.03731411 0.7151587
-0.3594445 0.055259004 0.71425796
0.94318652 -0.077339426 1.4231837
0.0041087866 0.056195714 0.32502532
0.31388748 -0.05270737 0.54988551
0.065108716 -0.16922835 0.78265882
-0.88376546 -0.15358736 2.3864214
0.84888017 0.015626941 1.0149724
1.1167116 -0.40107489 1.7524798
0.12236196 0.046112575 0.30635858
0.019127131 0.056507677 0.32496953
-0.053180575 0.053936239 0.61560464
1.6652616 -0.16824627 2.2094772
-0.20405781 0.051829226 1.0873449
-0.87740207 -0.21312016 1.2796171
-0.17338479 0.052847914 0.47378802
0.22012746 0.050995044 0.2599504
0.53978658 0.039290071 0.71779609
0.98484075 -0.037920948 1.4086845
0.71388638 -0.49573058 2.2521837
-0.11285847 0.0578737 0.34278369
0.3484686 -0.068465918 0.5489018
0.85963058 0.016270887 1.026284
0.16324037 0.027479703 0.29628921
1.4230499 -0.35108003 1.6529915
1.1643513 -0.21412796 1.7345016
0.93954897 -0.075225219 1.3119118
-0.28502661 -0.37874061 2.7119181
-0.2732622 -0.27374214 2.6224163
-0.96333861 -0.46250087 2.4900196
0.55033743 -0.19176042 2.3683474
0.48528004 -0.23980027 2.5221317
0.33401585 -0.064505681 0.55931735
0.15824533 0.057019748 0.30348468
0.45834136 0.039088983 0.69918466
0.14316326 0.0231511 0.29427838
0.13515055 0.048888508 0.74752498
1.1773626 -0.2122007 1.7595789
0.31353998 -0.046978261 0.54032969
0.33244014 -0.081696585 0.55032325
-0.3501116 0.054358665 0.63930774
-0.051470578 0.059770349 0.29791665
-1.0110322 -0.25870296 1.2657282
0.15465331 0.056188568 0.29358697
1.3218336 -0.3037906 1.8958452
-0.16910827 0.043732047 0.90310979
-0.87443972 -0.26772803 1.3899677
0.27850515 -0.078961134 0.66227698
0.33562666 -0.059340369 0.55522466
2.7782991 -0.075257838 3.2708499
-1.055214 -0.30420786 2.377424
0.9306041 -0.036396842 1.499254
1.1240679 -0.063702777 1.3784468
-0.50964773 -0.054771509 1.0707834
-0.61602294 -0.16928381 3.0310018
1.4876097 -0.37764722 1.7449901
1.0283146 -0.0069319084 1.2682264
1.3796149 -0.41300902 1.8834403
0.33680803 0.029828651 0.57066607
0.12234914 0.044248268 0.47582746
-0.206236 0.052361097 0.2713697
-0.83556712 -0.015710421 1.0245783
-0.55352509 0.035851695 0.78925681
-0.16320306 0.052818112 0.67144322
0.33298689 -0.049751941 0.54467463
0.21346039 0.051749915 0.3157351
0.043513954 -0.16009822 0.7574718
0.33637637 -0.10774188 0.56191087
-0.35701168 0.05445065 0.78047585
