# .PCD v0.7 - Point Cloud Data file format
VERSION 0.7
FIELDS x y z
SIZE 4 4 4
TYPE F F F
COUNT 1 1 1
WIDTH 535
HEIGHT 1
VIEWPOINT 0 0 0 1 0 0 0
POINTS 535
DATA ascii
-0.28879786 -0.33115068 1.6368361
-0.48607045 0.0022412818 1.2335336
-0.25599444 -0.34000793 1.695189
0.21407871 -0.026402233 2.1234014
-0.32213122 -0.19278675 1.099256
0.57204807 -0.10805488 3.7295973
0.34251326 -0.21878712 4.1453772
-0.26845449 -0.29325604 1.9842489
0.30009133 -0.15760913 0.92760229
-0.45788699 -0.16414227 2.1548359
0.35427999 -0.22424683 4.3036251
-0.18739818 0.048340712 0.68770695
-0.50466835 0.024730528 1.2157233
-0.53370643 0.023217924 1.2133119
0.36318779 0.012486199 1.876811
-0.54123569 0.013474 1.0827296
0.43734831 -0.197438 2.6151245
0.34413356 -0.20257241 4.159647
-0.38363278 0.058223665 0.63846636
-0.55049407 -0.11776707 1.271549
-0.26105934 0.070761532 0.95300269
-0.42443734 -0.079456292 1.7679329
-0.55139834 0.02164375 1.2549164
-0.54706329 -0.11552181 1.2585239
0.90718144 -0.07076329 1.8636329
-0.26925081 -0.33774227 1.8222518
-0.51679122 -0.047310509 2.1035502
0.33433801 -0.37931493 4.1554985
0.68957287 0.024380809 1.1683486
-0.40825754 -0.16810901 2.4172728
-0.49740076 -0.031196943 2.4146745
-0.79447812 -0.094714664 1.7932813
-0.18634148 0.04959964 0.71152425
-0.43997914 -0.18633151 1.9137783
-0.29083115 -0.20101967 1.2798715
-0.42799664 0.03625264 1.5034132
-0.54029155 -0.019221185 3.1439297
-0.37035823 -0.18770446 1.115171
-0.51927614 -0.22853735 1.2146454
-0.45364892 -0.15639207 1.1053841
-0.5846464 0.003508633 0.89155674
0.6564694 0.0077168699 0.79201341
0.38354892 -0.1609534 1.055855
-0.53868127 -0.22386654 1.2247765
0.31028956 -0.34058407 4.421773
-0.37251735 -0.1892167 1.1261556
0.65588474 0.0079945754 0.78955817
0.3334505 -0.27820605 1.752346
0.6298582 0.034137122 0.83206725
0.12957768 -0.015584266 2.1002023
0.46277714 -0.19012332 2.1460693
-0.28242534 -0.21588922 1.8076043
-0.58235461 0.015114996 0.8771596
0.38721037 0.042013202 0.70341659
-0.56524497 0.025000859 0.88145041
-0.47554499 -0.19495738 1.1376727
-0.19322182 0.056898523 0.51491594
-0.29619473 -0.28655875 1.7250769
-0.24956171 -0.29389438 1.7028556
0.16372345 -0.025337247 2.8206108
0.67055547 0.025884869 1.0294149
0.32148808 -0.30179289 1.7566009
-0.212819 -0.19755158 1.7089758
-0.58200437 0.0034300108 0.88771391
-0.18411715 0.050237544 0.71310282
-0.30132383 -0.30141941 2.4684169
-0.31187314 -0.16791055 2.345753
0.32273328 0.014576471 1.8811555
0.3360635 -0.22595698 1.5652714
-0.55907118 0.019368146 1.0020449
0.43176115 -0.015289424 1.7015529
0.29266775 -0.14471707 0.92339873
-0.42314965 -0.22614661 1.0758371
-0.2999506 -0.28660247 1.7339799
-0.59321994 0.0067101698 0.88970685
0.38620847 -0.19230205 0.93517089
-0.55161595 -0.11900321 1.2705364
0.15084393 0.057263896 0.35048962
0.50074792 -0.18191506 2.0808237
0.22855251 0.039463237 1.2701817
0.29289579 -0.24647984 1.9251294
-0.49714726 0.011333419 1.1812468
0.37988371 0.041739888 0.68897748
0.4201358 -0.073774844 1.7800188
-0.87067866 -0.17513074 1.2086406
-0.19256233 0.056295671 0.60465479
0.65727991 0.009055119 0.79350686
-0.57934994 0.01417922 0.86535621
-0.43387145 -0.21824875 1.1825774
0.36542523 0.041012928 0.61906242
-0.31919479 -0.37152869 1.6868591
0.15290324 0.048874699 0.59949756
0.3055445 -0.17564107 1.0015597
0.033583567 0.053771619 0.69121647
-0.59582072 0.00089788996 0.88205791
0.17501979 -0.42376584 4.3713741
0.16415711 0.053524625 0.6675396
0.3823691 -0.16176577 1.0541496
0.39015424 0.027943937 1.0674415
0.20193453 0.05788666 0.34624934
-0.38428569 -0.22357851 1.1114771
-0.42710274 -0.21533273 1.1581514
-0.41135573 0.034490928 1.5723422
-0.56905621 -0.17242709 1.3495996
0.52672511 -0.12370805 1.9488728
0.3175472 -0.18179482 1.783869
1.499701 -0.36614215 3.9945047
0.14174919 0.045706116 0.52228904
1.4771034 -0.33622149 3.6924107
-0.47848648 -0.11650615 1.208035
-0.13212572 0.033740994 1.1641901
-0.43756473 -0.032926038 3.0932486
0.92765641 -0.068718277 2.8191035
-0.058188856 0.058469221 0.47417712
0.35676223 0.049052179 0.43859792
0.43514925 0.037000868 0.70843554
-0.42805719 0.03461732 1.503963
0.099491134 0.050654948 0.69436598
0.31644964 -0.14028114 0.94980741
0.16178821 0.054038044 0.65459442
0.44929641 -0.18266332 1.9614642
0.28006673 0.034757704 1.6472247
-0.89602506 -0.093398713 1.6199274
-0.042205811 0.057350822 0.75685859
-0.48550254 -0.11833862 1.2333612
-0.26982898 -0.20251437 1.6794558
-0.93493861 -0.086378396 1.1578555
-0.5366295 0.12287514 1.3250818
0.61336756 -0.18660873 5.4173965
0.28647852 -0.455964 4.6284933
0.2772525 -0.45633402 4.5478525
-0.19243951 0.047475196 0.72080469
-0.22008948 0.048220724 0.53931117
0.35924041 0.043878969 0.57534266
0.074057743 0.057353437 0.30303502
-0.32111573 -0.26459074 1.5350442
0.24708895 0.049329273 0.74833131
-0.47582203 -0.11615091 1.2061851
-0.5479331 -0.23977676 1.3009956
-0.64851958 -0.054654211 2.1168978
-0.48201114 -0.28030515 1.2388246
0.24652557 0.04995764 0.74728203
0.38735443 0.015513329 2.0683329
0.38373005 0.0086050499 1.0700846
0.32387787 -0.20563695 0.96139431
0.32748413 -0.20669128 0.97173834
-0.20230098 0.055903226 0.34318304
-0.31506735 -0.34652945 1.7089748
-0.27069414 -0.33695844 1.6545782
-0.46035409 -0.17571406 1.1653616
-0.039529309 0.053938404 0.69087577
0.75023031 0.023371547 1.6030555
-0.55199933 0.020743633 1.0801046
-0.48063666 -0.1175173 1.2209792
0.017608523 0.052808888 0.51355767
-0.31281853 -0.21824493 1.1479352
-0.37180346 -0.19428053 1.1304824
-0.093385354 0.051930852 0.63021064
-0.51659429 -0.19311365 1.1362669
0.15146352 0.053767599 0.50702119
-0.3823837 0.058408253 0.63767266
-0.33109361 -0.23606196 1.081337
0.37189662 -0.29485887 1.9324231
-0.20387955 0.050296023 0.52675056
-0.54496706 -0.11431501 1.2523832
0.42722726 -0.17437844 1.8240094
-0.26480925 -0.27567187 1.4147396
0.22377382 -0.2520417 1.1223686
0.099088654 0.050744824 0.67717957
-0.50187296 0.017384283 1.2122433
-0.59825784 0.02673598 0.8761282
-0.3217566 -0.19247565 1.1027727
0.40765828 -0.1265936 2.8273618
-0.056809023 -0.19974111 2.4144361
0.2282785 0.054885522 0.30804062
0.18616624 0.055766582 0.61138773
-1.8280911 0.42181385 2.7989919
-0.1957043 0.057194132 0.60505557
0.17092125 -0.047380336 1.8745623
-0.28944403 -0.4788416 4.0214853
0.13250442 0.059339695 0.2909472
0.29527622 -0.19254407 0.94497108
-0.84928954 -0.17881343 1.3915648
0.23672976 0.054607145 0.62011385
-0.070309713 0.060304299 0.34137368
-0.20194097 0.055861145 0.34187841
-0.572478 0.026901761 0.74746156
0.7437942 0.024968691 1.5814466
-0.3189255 -0.22563952 1.1816249
-0.059482679 0.058518223 0.31801796
-0.51801276 -0.15966931 1.2055569
0.17824705 0.056107648 0.59565425
-0.43345809 -0.21803924 1.1818602
0.29771554 -0.15589841 1.0973465
0.78850013 0.021924896 1.7148004
-0.26046032 -0.27437106 1.2129507
-0.53902102 -0.045018882 1.7547696
-0.061421126 0.060294725 0.49459219
-0.043803155 0.05516465 0.54560304
-0.49925554 -0.17161135 0.83666444
-0.12032543 0.056606777 0.71884871
-0.26716745 -0.24571115 1.2597108
0.86078799 -0.10792639 2.293474
-0.32332784 -0.36794257 1.7347834
1.0237274 -0.32630295 2.5491917
0.54818952 -0.10029592 3.5550344
-0.47856164 -0.10159079 3.416321
-0.44341105 -0.20185965 1.0935502
0.37657714 0.04206571 0.55293751
0.20373504 0.058493577 0.34840465
-0.20347612 0.050616592 0.52644587
-0.53474718 0.050104924 0.64798927
-0.19874041 0.055473007 0.4522779
-0.20517711 0.050491937 0.53085828
-0.058835685 0.058414213 0.32357454
0.075592056 0.058678664 0.32049847
-0.19127177 0.057660192 0.64080095
-0.4675492 -0.18444572 0.80231071
0.5973084 0.032157436 1.0566108
-0.059696496 0.058249108 0.32078695
0.26426542 0.041018818 0.5488615
-0.90275818 -0.17597738 1.1192224
-0.54390991 -0.16874418 1.2741008
0.7239995 -0.024719348 1.3823631
0.45321083 -0.1212358 1.5286174
0.30369574 -0.14837283 0.96527672
-0.060951576 0.059416115 0.47775126
0.74468881 0.02193982 1.5967443
1.0885901 -0.27740148 2.0329015
-0.086926892 0.050457675 0.6106317
1.5294893 -0.37388694 3.4477713
0.036375925 0.054463271 0.68862295
1.3499552 -0.055372052 3.249965
-0.094370201 0.05424469 0.67262816
0.60384208 0.033296227 1.0672541
-0.33615798 -0.23362446 1.7947378
0.46025443 -0.053635113 2.1210001
-0.31364936 -0.21842781 1.154424
-0.044092521 0.054003961 0.51872635
-0.29247665 -0.38037705 1.7156656
0.38160533 0.029353209 1.0377362
-0.35978431 -0.25215101 1.9241953
1.7832866 -0.28438526 4.2964249
-0.42374617 -0.18487972 1.1973033
0.27129209 -0.37472931 3.9875553
2.4986825 -0.60217237 6.7494345
-0.72143233 -0.082468644 2.628937
-0.35087132 -0.29504043 2.5425189
0.62604445 0.035298154 0.86173868
-0.22974922 -0.42661083 4.1620235
-0.24985583 -0.33816576 1.6707256
0.21602581 -0.026410131 0.64738965
0.66197902 0.035697997 0.87503672
0.48316938 0.024266012 0.63799357
0.08417584 0.055622026 0.43353009
-0.35276687 0.054214649 0.57410836
0.36135179 0.048572138 0.44171262
-0.51922357 0.056254745 0.70069194
-0.45884359 -0.16482012 0.83085155
0.51282746 -0.17081325 1.0364339
0.36189377 0.041205078 0.61525226
0.37474358 -0.13426679 0.7290771
-0.88658202 -0.18414162 1.3090456
0.15139888 0.057670414 0.34965825
0.37238723 0.04198315 0.64014173
0.22466122 0.053694766 0.30141377
-0.20699807 0.053166658 0.38010621
-0.21446978 0.052137882 0.41687655
-0.20509522 0.056072097 0.28238916
-0.18834041 0.057435274 0.52424717
0.26573747 0.042113792 0.55387068
0.22517626 0.053761013 0.302423
0.45777816 -0.21791722 0.95384884
0.38821125 0.007128682 1.0246091
-0.39036751 -0.22565058 1.0551541
-0.17939557 0.052098319 0.59454465
-0.36738813 0.05649953 0.55203199
-0.11047341 0.057434596 0.55315804
-0.50289124 0.041242637 1.0480938
-0.48205203 -0.16203673 0.75326681
-0.51594901 -0.1462357 1.2589359
-0.19246973 0.052189596 0.57574987
-0.50929749 -0.17783779 0.79832435
0.66801685 0.027482746 1.0630095
0.45435995 -0.19379796 1.1565826
0.66348547 0.023290586 1.1248181
-0.54664528 -0.21578066 1.2650948
-0.434129 -0.14827777 1.1514494
0.90839446 -0.15347271 1.6922481
0.38318038 0.024136357 1.0476749
-0.26162994 0.063426778 0.42357898
0.075634286 0.058369756 0.31728101
-0.11610292 0.055516019 0.68715596
-0.36611938 -0.16564243 1.1863122
-0.10939626 0.05694665 0.55087614
-0.1068864 0.055860821 0.53830457
-0.50323796 -0.17625079 1.6652577
0.27037585 -0.28402123 1.4327028
0.73912781 -0.017938228 1.3661606
-0.46525282 0.014608915 1.6094837
1.1960204 -0.12486047 2.4592593
0.66027218 0.035923574 0.89483404
0.3556689 -0.0043211114 2.0287244
-0.63516361 -0.054149486 2.0915778
0.39559013 0.028256238 1.0808349
1.4206958 -0.24935478 2.8623102
1.1646483 -0.033255987 2.9064672
0.36075395 -0.10557003 1.8001814
-0.5181005 -0.11497847 3.1347592
-0.4653964 0.014127781 1.6183791
1.5045978 -0.24166715 3.4757912
1.5442585 -0.26327735 3.3521502
-0.81526041 -0.1868999 1.7057133
0.87894762 -0.042147785 2.9092014
-0.52973312 0.020278314 1.1575711
-0.21967663 0.060714677 0.38401055
-0.87444323 -0.1831407 1.2891591
0.019174099 0.052522574 0.52483702
-0.9098677 -0.092952684 1.5212541
-0.90798205 -0.086814649 1.5175495
-0.52135277 -0.14209503 1.2394397
-0.36445403 0.0564835 0.483639
-0.56836265 0.032748796 0.82107902
-0.20422126 0.05662775 0.34671664
-0.57912356 0.0030040722 0.88472176
0.51954639 0.027257252 0.66659307
0.20626704 0.058886521 0.35666227
0.13992788 0.058558762 0.27729416
0.13744827 0.052561335 0.31389642
0.14690213 0.055832352 0.34465098
0.074866846 0.05868002 0.24642253
-0.10644029 0.055516891 0.52220392
-0.22516702 0.053433001 0.30317569
-0.81951624 -0.18439066 1.6341851
0.24410443 0.049104638 0.73628497
0.69170052 -0.00071773492 0.95525885
0.23080166 0.054496974 0.33629918
-0.36246157 0.055611741 0.47900248
-0.2162082 0.052760527 0.45533729
0.12994368 0.054697186 0.24930573
0.37673956 0.045116827 0.58939886
0.25458634 0.052062429 0.41570854
0.29813677 0.041172639 0.50717521
-0.46790737 -0.16348283 0.85274982
-0.20508923 0.056678478 0.34848285
0.54584908 -0.17944054 0.99933577
-0.51285237 -0.2595295 1.1494138
0.37883794 0.042531691 0.55644894
0.22802536 0.055529661 0.29321671
0.12966348 0.058305807 0.28283763
0.17551555 0.057862863 0.35523605
-0.3101598 0.047679041 0.44280434
-0.03831929 0.058230676 0.35949111
-0.46584713 -0.16263092 0.84484768
-0.057896569 0.057551824 0.31819701
-0.47504944 -0.16564526 0.82885838
0.56344831 -0.18673827 1.034904
0.47216028 -0.20226899 1.2083013
0.54817355 -0.18057427 1.0049076
0.55080706 -0.20492651 1.0416765
0.18699329 0.055522934 0.60790992
-0.095982984 0.059429377 0.32898974
-0.53028816 0.023745742 1.1610339
-0.46657854 -0.091013648 1.1710703
0.18010555 0.055357948 0.65107727
-0.094579265 0.055872392 0.69374514
0.16004692 0.050878704 0.64149976
1.0320214 -0.27120957 1.8013928
-0.46555901 -0.1796785 1.1806605
1.0641865 -0.26661971 1.8015628
-0.412655 -0.15736108 0.87740159
0.46282935 -0.19529831 1.1754189
0.66823179 -0.19270565 1.3313074
-0.48208725 0.014071599 1.335706
1.2526953 -0.2425434 2.0584424
-0.0325571 0.057103872 0.47719145
1.1150604 -0.29090583 1.9500101
-0.20879324 0.055981636 0.44690585
0.16156609 0.057420954 0.47270846
0.67802328 0.02974464 1.6932206
-0.52312964 -0.1471245 1.2765212
-0.51297134 -0.20118302 1.1830821
-0.032698199 0.057496689 0.48145127
0.17259674 0.053344879 0.61814594
1.1379145 -0.29762584 1.9912822
1.0712464 -0.28096843 2.0106046
0.087191209 0.057649061 0.45950127
0.088175848 0.058466278 0.46791315
-0.89569402 -0.096334979 1.6431785
-0.060058281 0.058457173 0.46529245
0.39764678 0.036165968 0.64059401
-0.19783093 0.060413346 0.49906278
-0.32300889 -0.17453103 1.3453782
1.1481264 -0.26307446 2.1704447
0.89839834 -0.047674656 1.7804496
0.32561415 0.032454416 0.95529842
-0.41234648 -0.11941234 1.4801219
0.89969438 -0.049080633 1.8309393
0.45010364 -0.0050898958 1.5416584
-0.32320094 -0.22712448 1.6994607
0.30411202 -0.24735928 1.8493979
-0.022313163 0.050629653 0.7652688
-0.18889455 0.060613707 0.33522439
-0.55159038 -0.14572562 1.2633631
-0.66519326 -0.087281987 2.0462582
1.0951889 -0.18973915 1.9895713
-0.89390677 -0.17132957 1.1062703
-0.49690109 -0.088939033 1.2461362
-0.54338068 -0.14326914 1.2412715
0.11848862 0.04546196 0.89678812
0.54575348 0.023199283 0.75102305
0.28504485 -0.21840726 1.7613251
-0.50566876 0.027541583 1.2178297
-0.54857707 -0.13759412 0.82620263
-0.84805268 -0.078519396 1.1527064
0.97348565 -0.077962846 2.9212654
-0.20410447 0.05861593 0.29650235
-0.532875 0.048078209 0.98715353
0.38324237 0.039633814 0.64737678
-0.060403854 0.060654208 0.34069133
0.48897749 -0.17972125 1.0935595
-0.20948042 0.058742367 0.26029968
0.63563281 0.031164767 0.84497142
0.23165138 0.05660294 0.29780698
0.29895967 0.041732997 0.50792265
0.31302351 -0.15998004 0.95842099
0.45120674 0.039932195 0.75972128
-0.18333767 0.055309944 0.441118
-0.47355878 -0.16047883 0.79051638
0.36779833 0.047579698 0.48708653
-0.32042122 -0.19328111 1.0410776
-0.20803903 0.060005091 0.30278611
-0.4648146 -0.16464865 1.1040657
0.075571582 0.05880294 0.32043862
0.53184146 -0.16171938 1.0043023
-0.54211348 -0.22508842 1.2035804
0.062104419 0.057578154 0.35502553
-0.60161817 0.035004966 0.87264085
0.8337239 -0.12382672 0.99202943
-0.21926655 0.056459241 0.33487749
-0.068166986 0.059431985 0.33309889
0.2344036 0.070845872 0.34994411
-0.58298343 0.0097755324 0.85886669
-0.58414227 0.026062408 0.91304445
-0.52204585 0.02080518 1.1786418
0.39023328 0.040323712 0.66170979
0.055348724 0.059498988 0.28141427
-0.5436303 0.037799802 0.84100175
0.070873991 0.05663706 0.30976677
-0.20788653 0.053683169 0.38301992
-0.54964763 -0.20974632 1.132071
0.19042175 0.060998127 0.29008508
-0.87657511 -0.18241069 1.2913423
-0.59300226 0.0069723334 0.88456774
0.28218424 0.050160594 0.4959383
-0.20432104 0.057055861 0.25163007
0.68404073 0.00078148022 1.0014296
-0.54002208 0.037322044 0.83567262
-0.66512913 0.061944865 1.2709141
-0.44529265 -0.1736052 0.81810665
-0.18761103 0.054863758 0.58717728
0.37684804 0.045887332 0.45791888
0.69506383 -0.026976949 0.89007068
-0.21241234 0.048329484 0.31354952
-0.5531047 0.045204517 0.69597793
-0.18865176 0.047389813 0.70178962
0.49949181 -0.1700892 0.92180324
0.16591154 0.053710021 0.67145896
0.53857869 -0.20038731 1.0151863
0.5542509 -0.16704486 1.0446806
0.22702651 0.053617053 0.32947087
1.2653514 -0.069739841 1.8582759
-0.54623586 -0.20858079 1.1239254
0.26126307 -0.20671977 0.99631858
0.2342184 0.055359177 0.34317899
-0.49341798 -0.063465357 1.2247429
-0.11097507 0.05288969 0.64642882
-0.43427366 0.034386657 1.5247955
-0.069470674 0.060126662 0.33907104
-0.38037026 -0.048957787 1.0849342
-0.49743885 -0.20739746 1.1147809
0.32788688 -0.020484691 1.010586
0.29023832 -0.20324253 0.93725276
-0.55068213 0.083620086 0.86052275
1.5335304 -0.068716772 2.3806407
0.46987414 0.004237039 1.6064227
-0.45695919 -0.18196955 0.80268526
-0.57868671 -0.13170272 1.7461936
1.3028743 -0.21244554 2.081176
-0.10663845 0.055420138 0.5256753
0.017574057 0.053675286 0.52601433
-0.18116052 0.053064212 0.60098553
0.017282695 0.057127587 0.55981755
1.2363063 -0.24068123 2.0338051
0.33312374 -0.14715502 1.0002406
0.28127038 0.042735998 1.1052878
1.3365833 -0.20834571 2.1053817
-0.097849444 0.055297628 0.67220783
-0.50874394 0.0022284929 1.2406788
1.4770329 -0.13107795 1.6856635
0.076889768 0.057228476 0.31281614
1.1215483 -0.20230027 2.0354788
1.1170155 -0.25538093 2.1099975
1.3654326 -0.26052517 2.2627995
0.077416256 0.05726777 0.31532836
0.40079737 0.030203486 1.080137
-0.5559898 -0.093590818 0.69169903
-0.20873149 0.056236207 0.32216454
0.036839828 0.053978093 0.66650963
1.1754091 -0.20709734 2.0104487
-0.70247215 -0.089501344 2.0231841
-0.76091272 -0.082141474 1.3665864
0.52838033 -0.13730581 2.0550644
0.15720911 0.054025084 0.51364541
-0.82323927 -0.089890361 1.4802208
0.61989629 0.027371541 0.86465526
-0.36465216 -0.16539286 1.1780529
0.32783884 -0.24729493 2.0302384
-0.67262572 -0.030862929 2.3572056
-0.29754812 -0.33855295 1.7246428
-0.53090012 -0.18881354 1.0334561
1.1278188 -0.25232932 2.7309444
-0.88312685 -0.18069488 1.2303495
0.37399042 -0.16994968 1.9671028
-0.31802189 -0.19127449 2.2087028
0.13230161 0.04836344 1.0267718
1.5082121 -0.29988289 3.3683856
0.27631408 -0.16884023 1.8237627
-0.67706192 -0.031096505 2.3693836
-0.1749575 0.045557044 0.31711841
-0.73138404 -0.081197217 2.6778514
-0.039235875 0.055476338 0.73270941
0.36247432 -0.16895297 1.9034648
-0.81813359 -0.18273006 1.5545223
0.38754523 -0.31005979 2.0395958
