# .PCD v0.7 - Point Cloud Data file format
VERSION 0.7
FIELDS x y z
SIZE 4 4 4
TYPE F F F
COUNT 1 1 1
WIDTH 451
HEIGHT 1
VIEWPOINT 0 0 0 1 0 0 0
POINTS 451
DATA ascii
-0.059462667 -0.20253953 3.2855971
-0.062111795 -0.2024678 3.3225915
-0.11540604 -0.38720974 3.5795324
-0.046298206 -0.0066717938 1.753732
-0.060358644 -0.20179927 3.3408644
0.74233085 -0.056321234 0.95290446
-0.07560885 -0.37459731 3.4583313
0.72207618 -0.033425562 2.5125058
-0.082585335 -0.002582781 1.668854
0.67117608 -0.053146288 1.9515522
0.9462477 -0.36023313 2.6065762
0.076886058 -0.16805077 4.6776781
-0.15696788 -0.41799933 3.4806383
-0.16909981 -0.44030109 3.7061522
0.21153569 0.032556251 1.1547539
-0.62072444 -0.36993355 4.2200403
-0.70983064 -0.47935605 3.2330368
0.99605 -0.026943102 2.3994787
1.0371212 -0.039498568 2.3862307
-0.12302142 -0.37113452 3.2678101
-0.68585193 -0.43399081 3.512017
1.2180735 -0.2450496 2.2349117
1.1922076 -0.36116526 2.6075671
0.18661869 0.012665482 1.1783717
0.97930431 -0.023198597 2.3700521
1.1066452 -0.29794583 3.0158441
0.97312069 -0.02414275 2.3433607
-0.66544759 -0.45070392 3.2838824
0.75685686 -0.034077168 0.92394471
0.3768934 -0.12501079 1.1716225
0.3740657 -0.12549868 1.2664082
-0.98433757 -0.059312619 1.6666906
0.92043138 -0.19618416 1.1311948
1.1357989 -0.26858935 2.1137774
0.28118908 -0.04585699 1.5247133
-0.68533301 -0.42278126 3.4631183
-0.81480718 -0.092464335 2.0337298
-0.73417747 -0.26709414 3.5830948
0.18626648 0.04205732 1.1369565
0.34052408 0.030769639 0.57439089
0.19366688 -0.14662957 1.0122731
1.5919538 -0.069146119 2.3832796
0.34903395 -0.13705939 1.4253604
0.19193375 -0.15494108 1.0092819
2.056648 -0.085831814 3.2781098
0.081421256 -0.30625317 2.472244
0.93556643 -0.19855571 1.1724279
0.93066126 -0.22416601 1.091737
0.14723378 -0.20609868 0.97734547
0.18668538 0.013887979 1.1877329
0.23411816 0.04062634 0.77419305
0.34244329 -0.10977226 1.536083
0.34709996 -0.0061913244 0.91433048
0.73928893 -0.083554372 0.92615271
-0.80108058 -0.05430191 1.8267281
0.64746791 0.029774658 0.7871573
0.98577619 -0.024164591 2.3791397
0.38878894 -0.083448343 1.339968
0.34473658 -0.041224107 1.0151532
0.3863427 -0.071696825 1.4212692
0.052198529 0.042838078 1.1912391
-0.033920199 0.047262304 0.91538739
0.75087708 -0.022907414 1.6216028
0.35185015 0.020991428 1.0735495
0.76186407 -0.029938541 0.9094069
0.18288141 0.043205988 1.1079633
-0.3616389 -0.35943764 3.9489248
0.32230985 -0.044305079 0.54561877
1.5369339 -0.060466647 2.238034
0.19094539 0.043373689 1.178508
0.38955837 -0.080353901 1.441632
-0.52861863 -0.002902776 0.67988062
0.10266882 0.04610078 0.90267968
1.17409 -0.037360817 2.2254493
0.17974728 -0.1615791 0.99076152
0.22039115 -0.17607635 1.0267355
0.34928578 -0.020076346 1.0895698
0.1714837 -0.195979 0.97960734
0.31196129 -0.21642998 2.0014122
0.38135767 -0.075552322 1.4036252
-0.018010616 0.041906811 1.0893743
1.0338311 -0.091657825 2.1948469
0.26470602 -0.041523308 0.90182137
1.0140605 -0.20357302 1.2457263
0.088804543 0.063381031 0.58794117
0.75044662 0.028736122 1.1929648
0.19012797 -0.16441166 0.99456668
1.091266 -0.033276789 2.2459667
-0.79892886 -0.14849159 1.1176755
0.013422251 0.039593741 1.6612628
0.18972808 -0.1640878 0.9975152
-0.76006126 -0.087003201 1.9294832
-0.17750919 0.047699835 0.67810822
0.34020799 0.019727241 1.0280287
1.0777576 -0.043030947 2.3448613
0.35374397 0.035971135 0.76011801
-0.76331592 -0.48478901 3.2802365
0.3513304 0.024710504 1.0152104
-0.78371215 -0.40017831 3.0366566
0.3120448 -0.036127329 1.0578077
-0.78907919 -0.17822087 1.0761774
0.55192792 -0.30660516 5.0771074
0.75103372 -0.060013242 0.92605734
-0.71728277 -0.36447725 3.1119354
0.73272133 -0.040709816 0.94616413
0.37624574 0.022525223 1.0244982
-0.84398103 -0.43518838 3.1851661
4.4412813 -0.19387871 6.5280151
0.1354773 -0.54937071 4.5510607
-1.0023276 -0.0098854825 2.5063169
-0.12884748 0.036076725 0.55977869
0.05729723 -0.53080779 4.6752777
1.3647603 -0.32330966 2.5282056
0.40462554 -0.13541442 1.373462
-0.46023893 -0.23693702 1.1167128
-0.82114589 -0.13421401 1.1459215
0.4073866 -0.081993513 1.4382322
0.21064365 -0.17661682 1.0133431
0.13696265 -0.54648733 4.4945259
1.1819679 -0.036497533 2.2358387
-0.2888943 -0.11152861 1.8797591
0.56300938 -0.31496876 5.1798973
-0.83937812 -0.42923969 3.2951248
-0.76055908 -0.28609559 3.1084168
-1.0038847 -0.41474462 3.4788663
-0.74295497 -0.49849975 3.3838809
0.23055899 -0.16269967 0.91943884
-0.129585 0.055658773 0.4187851
-0.40629423 -0.23982716 2.8688991
-0.22312891 0.052063942 0.28265548
0.54572833 0.23018363 1.2654779
-0.68714738 -0.20098242 1.9959428
-0.82804847 -0.36029595 3.2418458
0.35833949 -0.12380857 1.4437644
0.74278778 -0.088019617 0.94091868
0.74418521 -0.088242427 0.94478917
-0.79353642 -0.17515093 0.98827386
0.17900836 0.051355436 0.61916661
0.75033891 -0.025620252 0.93455768
0.062705278 -0.51058239 4.4521732
-0.091760784 0.058319122 0.24828029
-0.53168488 -0.20090184 2.121114
0.26567405 -0.17315906 1.1444061
1.0957284 -0.031574778 2.2479379
-0.64081979 -0.41916364 3.254925
0.21512502 0.053224809 0.44664574
-0.46499741 -0.23906225 1.1378291
-0.09407407 0.05479176 0.45601869
-0.74036694 -0.2706677 3.6217439
1.0647373 -0.042909212 2.3114026
0.17705613 0.057785608 0.28006148
0.71463829 0.011372125 0.94527364
0.10137391 0.045893304 0.88538313
-0.73082924 -0.26321509 3.0337112
0.15174651 -0.21298626 1.0160978
-0.78197074 -0.45455968 3.1980054
1.0499734 -0.09431266 2.2344925
-0.49571609 -0.16674116 1.1148708
-0.6440258 -0.091387063 0.82293797
-0.48862833 -0.18757689 1.0516021
-0.06015119 0.05622527 0.3799758
0.66901934 0.032152832 1.1215146
0.43087208 -0.13535455 0.59595346
-0.21854782 0.046236366 0.70053101
0.21179479 0.056399301 0.25928926
0.35750747 -0.16819206 0.90874195
-0.48603356 -0.19080529 1.0543215
0.32218254 0.02561908 0.55673122
-0.20816696 0.056913711 0.30054045
0.22223079 0.048988253 0.44021726
0.37543356 0.022830389 1.0260274
0.17609167 0.050771557 0.61025834
-0.73234475 -0.084926695 1.8598983
-0.54921782 -0.24589646 1.8597109
0.24550927 -0.17174688 0.97325659
-0.45715874 -0.22837019 1.0939968
0.080058336 0.055559725 0.50990677
-0.72631371 -0.078584217 1.8149059
0.34970397 -0.13952702 1.4398134
-0.19450539 0.060404453 0.33439493
-0.51013845 -0.21059689 1.2193139
-0.19354922 0.058776993 0.30236745
-0.20418561 0.053515419 0.31672955
-0.094074547 0.055144295 0.45901442
0.14098603 0.059010517 0.24764705
-0.19377917 0.054221042 0.40811539
0.21445388 0.052587699 0.30863762
0.27319545 0.047968235 0.35284901
-0.7067163 -0.39047441 2.1116807
0.21235311 0.05653061 0.25977945
0.077099741 0.056879234 0.3974297
0.23423785 0.050188493 0.28732848
0.23895174 0.042727198 0.79015088
0.22198915 0.048853971 0.44150782
-0.75539351 -0.031725183 1.897949
0.17301953 0.058022492 0.2814734
-0.059976548 0.056109495 0.38278556
0.31471962 0.0080340989 0.55414867
1.1554172 -0.08111731 2.2129242
0.72605973 -0.068382815 0.92749763
-0.204054 0.053901069 0.31517768
-0.60239285 -0.25778401 3.4061115
0.34895778 0.03494361 0.75006461
0.91959715 -0.20130014 1.1345751
-0.56761163 -0.14616883 1.0681217
0.2091462 -0.16176599 1.0012624
0.85941303 -0.16555014 1.1168468
0.44324046 -0.16399598 1.0781696
0.75445259 -0.063037708 0.9288671
-0.68701029 -0.33585978 2.9780886
-0.61471164 -0.41477665 3.6408432
0.41697013 -0.13876671 1.4192345
-0.63965017 -0.37939513 2.0766852
0.37233895 -0.15943593 0.99509001
0.23024237 0.050346766 0.3018105
0.35249346 -0.053026557 1.4774849
-0.17460567 -0.094710268 1.1997321
0.71651864 -0.16109294 1.0045657
-0.049553126 0.054131031 0.48137188
-0.58465135 0.0023915768 2.4633696
0.15524542 -0.23193842 1.00441
-0.056155682 0.058818102 0.26695299
-0.18303573 0.05634927 0.31119013
0.0053697228 0.056271046 0.40303898
0.72463477 -0.039703652 0.93643498
0.23875391 0.04780335 0.38962293
-0.49058735 -0.23437643 1.079654
-0.17734486 0.055667877 0.29056001
0.36233127 -0.16252765 0.86162066
-0.049793154 0.053406276 0.69694614
0.070818573 0.058984421 0.2749722
0.09129262 0.06448476 0.59355211
0.46269423 -0.14356762 1.0074646
-0.14038777 0.058608625 0.30503821
0.7473861 -0.05119434 0.93030953
-0.8833456 -0.23276556 3.1648552
0.22887683 0.039013177 0.75246882
0.18310046 0.060161751 0.38831258
0.4581666 -0.17055589 1.1219494
-0.90849686 -0.38241723 3.1371419
0.20198917 -0.20717433 0.92388177
0.34494752 -0.1385591 1.4173963
-0.63320649 -0.41522852 3.7131126
-0.39262068 -0.074265003 2.1612456
0.2616179 -0.19719806 0.88319778
0.92716527 -0.22131464 1.1757581
0.41210818 -0.14170131 1.5253928
1.2337769 -0.068262152 2.2699168
-0.06013608 0.058255184 0.40624285
0.47114331 -0.13333762 1.0531728
0.28840929 -0.013017625 0.94746566
-0.75004637 -0.077882215 1.480777
0.369968 -0.06061127 1.5266874
0.30771208 0.038002461 0.54444671
0.90215504 -0.15379852 1.0672834
0.1780265 0.051753487 0.62600327
0.076402992 0.056659035 0.40127039
0.92548543 -0.20255402 1.098222
0.25243968 0.11025918 0.62590075
0.20180207 -0.16579306 0.93909407
0.31997848 0.03259977 0.55149627
0.0034888089 0.057666034 0.3177352
0.21642828 0.053832322 0.44916677
-0.21359539 0.045641162 0.67813039
-0.19062853 0.045319319 0.67345619
-0.20643026 0.051199555 0.3019526
0.23452997 0.04280708 0.76964045
-0.10810578 0.05975008 0.32624197
-0.50562996 -0.18091202 1.1357381
-0.17011619 0.058701091 0.40286064
0.92015481 -0.15615237 1.0923212
0.34917641 -0.12761977 0.93275619
-0.047180891 0.051849049 0.4561305
0.31392694 0.0090212077 1.0697157
0.33965254 0.035182692 0.5674789
0.090891659 0.051343046 0.71738887
0.33255792 0.010449365 0.55923128
0.45324922 -0.073182419 3.4350183
0.77708554 -0.018886022 1.3498743
0.32736617 0.020676684 1.0125206
0.323681 0.0096516181 0.53906155
-0.06077534 0.056802943 0.39381576
0.38526428 -0.058969788 1.4697583
0.74500597 -0.028844021 0.8903594
-0.16145289 0.058368865 0.38601375
-0.70043635 -0.38585535 2.0873806
0.074747443 0.056080893 0.39626455
1.4718955 -0.03748665 2.2793491
-0.087972462 0.051861826 0.42199636
1.4105581 -0.033933654 2.1797168
-0.47868437 -0.22865885 1.0517724
0.10197502 0.059969485 0.3267107
0.22840989 0.05189601 0.63581681
0.17919493 -0.2296972 4.0938473
0.096261263 0.054288164 0.76444006
0.070632875 0.059188437 0.27544355
-1.0720136 -0.041446395 3.8060634
-0.95148492 -0.3488903 3.3217094
0.31901902 0.031128727 0.54926753
0.34988493 0.043056108 0.59239888
-0.065529883 0.059794776 0.27526021
0.37609184 -0.01777279 1.5146759
0.56315988 -0.17483169 1.1639631
-0.79477334 -0.051856808 1.9402139
0.30514878 0.038533058 0.60398316
-0.19489676 0.014161957 0.27428365
-0.051015258 0.054085791 0.4794054
-0.18870676 0.057414941 0.39238334
-0.73947692 0.0031535104 1.8018367
1.5167571 -0.039216228 2.3513143
1.248468 -0.095749415 2.173723
0.50672185 0.21214703 1.0850222
1.0364809 -0.044871509 2.2512629
0.41430372 -0.16710684 1.0383823
0.076803654 0.056744382 0.39052558
0.21522141 -0.22047955 1.0612252
0.3941226 -0.02107216 1.5947483
0.071460038 0.059859805 0.27915382
-0.73813105 -0.26805657 3.1014407
0.33701521 -0.12325866 0.89947295
0.42406452 -0.15740275 1.0208046
0.37486655 -0.1718694 0.83057642
0.13866025 0.056945693 0.43981194
0.17731082 0.058080494 0.28016376
1.0623115 -0.065274462 2.2043579
0.43440348 -0.12668189 0.60651135
0.13129479 -0.21216246 0.95647931
-0.53162819 -0.16253376 1.0758088
3.2307873 -0.5687651 4.9975653
0.009093076 0.058091499 0.32072234
0.45876253 -0.10737466 1.5927112
-0.36383331 -0.086320855 2.6323936
1.5449154 -0.039196648 2.3915284
-0.50976408 -0.18596527 1.0902965
-0.090482801 0.051288605 0.25353432
0.30983764 -0.13564041 0.72186279
0.45438838 -0.13103113 0.60056472
0.68218237 0.031036941 0.93077064
-0.093115151 0.054410435 0.44638205
0.073100567 0.05821047 0.27240157
-0.21949768 0.053736415 0.2965343
-0.042709678 0.051697176 0.73918033
0.16640115 -0.18852273 0.93314028
0.31730628 0.025373265 0.54473257
0.41424859 -0.097161077 1.4029744
0.72392213 -0.03964664 0.93109989
0.23810858 -0.08866784 0.71121216
-0.16955101 0.063848525 0.45021439
-0.55276352 -0.17422307 1.4888585
-0.78347492 -0.35743085 2.2027671
-1.0026886 -0.40503272 3.4640911
0.32655215 0.012027653 0.54622746
0.30932939 -0.30838478 4.1202927
0.20095164 -0.010431312 0.83985686
-0.53326184 -0.13597244 1.0391915
0.1011771 0.059115343 0.32160473
-0.19883496 0.059140205 0.30593252
-0.22328842 0.055105284 0.30318618
0.44519454 -0.13357717 0.61141729
-0.19203591 0.056840822 0.30896354
0.079054236 0.055424269 0.33401442
-0.75614154 -0.10310189 1.4160297
-0.12769076 0.053323515 0.27045774
0.34274912 -0.14868084 0.91714764
-0.61362857 -0.15651128 0.9769938
0.37160265 0.037485436 0.81400824
-0.19309551 0.045335069 0.86639857
0.48218507 -0.14853907 1.1489937
0.43476892 -0.11283403 0.59376979
0.61376989 0.037462618 0.74849868
0.12880746 0.058356058 0.25658202
-0.11579287 0.060702626 0.36999321
0.22845131 0.050075788 0.29928374
0.17321527 0.056378171 0.31808352
0.17415166 0.059853755 0.32418132
0.3304401 0.041794226 0.56208372
0.22971302 0.049140163 0.50869679
-0.7608701 0.0018158033 1.8602302
0.34560901 0.034928076 0.54980493
0.47840869 -0.15111718 1.1390984
-0.14848745 0.061085448 0.3165195
-0.53467011 -0.13581631 1.0432656
0.085491478 0.050264791 0.63240266
-0.057825834 0.060738068 0.27933145
-0.71894121 -0.28319591 2.142226
-0.19174111 0.050581105 0.46673083
0.46039641 -0.17083186 1.1171749
0.23393387 0.049174689 0.56538868
0.53699368 0.034536004 0.6635468
0.15374535 0.057347283 0.3561492
0.37078553 0.037247643 0.81088495
0.15553409 0.057690375 0.36189938
1.5082214 -0.047536112 2.2244298
0.18608046 -0.0030205548 0.68929243
0.10981873 0.055340983 0.28974032
-0.17358577 0.060070917 0.41086507
0.45479083 -0.16886982 1.0966384
-0.19464576 0.059184872 0.30510235
0.17083418 0.012257075 1.2154272
-0.57178557 -0.17616856 1.1234334
-0.53254241 -0.14335495 1.0657251
-0.21048176 0.052456804 0.35408425
0.33335 0.017795745 1.0015912
-0.48389018 -0.18765163 1.0445454
0.29231292 0.035906091 0.51602578
0.1835584 0.06025736 0.29003215
-0.050660044 0.056056142 0.51038194
0.44857085 -0.12910751 0.59124088
0.23810869 0.048046563 0.3875134
-0.10726258 0.063238129 0.53462625
-0.43333238 0.025610453 1.6549432
-0.19608676 0.054728761 0.34995174
-0.65516984 -0.16828355 1.288944
-0.19505548 0.044493496 0.75554466
0.17508471 0.050758407 0.59584498
-0.17329633 0.04501465 0.70182538
0.92310083 -0.036328793 1.1120155
-0.48939312 -0.23304105 1.0793703
-0.15786171 0.041541867 0.9467926
-0.18816066 0.05758008 0.29097342
-0.6857754 -0.16249248 1.0477798
0.17326683 0.052970599 0.43135118
0.19342595 0.013308484 1.1518061
0.26548386 0.035852723 1.3934195
-0.6685257 -0.35731789 2.0571711
0.41936296 -0.08342433 1.4392846
-0.68421805 -0.16163313 1.1168311
0.41449249 -0.1129028 0.59686756
0.75180596 -0.19558603 1.5409515
0.7054829 0.014300458 0.93641067
0.30627316 0.034324564 0.55969501
0.11959982 0.039055388 1.1444671
0.12943083 -0.047723733 0.32286239
0.19653213 -0.20436957 1.6358984
0.13796091 0.039660435 1.3493621
-0.38100427 0.039839 0.87894702
-0.78302538 -0.26244944 3.0360239
-0.65534973 -0.18733081 2.7511575
0.31090474 0.0096022505 0.55415201
0.22303426 -0.20704937 1.6808646
1.4988189 -0.43490297 2.3911803
0.2235201 -0.20860773 1.6887481
-0.43953115 -0.17207482 1.0519955
-0.77050757 -0.25129491 3.0312192
1.0577352 -0.03053654 2.170831
0.13004255 -0.23152742 0.99205804
1.0478717 -0.034232534 2.1575582
0.97715437 -0.054108098 1.3527997
0.79246497 -0.001437068 1.3697469
0.26002973 -0.029628552 1.4380491
-0.59016967 -0.34430537 4.0079479
