# .PCD v0.7 - Point Cloud Data file format
VERSION 0.7
FIELDS x y z
SIZE 4 4 4
TYPE F F F
COUNT 1 1 1
WIDTH 500
HEIGHT 1
VIEWPOINT 0 0 0 1 0 0 0
POINTS 500
DATA ascii
0.61099756 -0.10736329 1.0023407
0.6267584 -0.13134097 1.0067041
0.61118877 -0.14706609 1.0008736
-0.62931252 0.049044229 0.89031625
0.71465617 -0.16558912 0.99351275
0.62528676 -0.13146381 1.0046668
-0.94156635 -0.010660388 1.6958007
0.3429105 0.029506505 1.0896577
0.50381142 -0.16844222 1.1650642
0.32757646 -0.14512013 1.0624094
0.91346133 -0.072967626 1.0641215
0.50890613 0.007551901 2.2129631
0.83182859 -0.03113538 1.0917356
-0.82635963 -0.023028776 1.6627361
0.80554622 -0.18716103 1.0603805
0.35617656 -0.15208575 1.2158917
-0.9270404 -0.012240194 1.6596013
0.20927522 -0.24389435 1.4060181
-0.96899247 -0.096247688 1.6484345
-1.2256298 -0.24505763 1.9388505
0.69331396 -0.13327286 1.6868342
-0.96152651 -0.089800403 1.6546797
0.32359704 -0.23456495 2.0815487
0.37926739 0.049029648 0.66808712
-0.95846909 -0.0087525658 1.4994491
-0.87868965 -0.14051816 2.016634
0.1354053 0.060516633 0.3810426
-0.91447914 -0.010534342 1.6349024
-0.96217054 -0.10405446 1.6604594
-0.21238607 0.038688995 0.61688495
-0.90476978 -0.098829113 1.9350492
0.32356811 -0.1545803 1.0472857
-0.90264463 -0.10056157 1.9260019
-0.89956355 -0.16877195 1.9249977
0.34004867 0.047144979 0.62665546
-1.1974096 -0.16469236 1.8939341
-1.0158644 0.03870482 1.5165373
0.16866523 0.060740907 0.43088746
-0.87785828 -0.14135103 2.0053067
0.75333774 -0.049455155 1.7843791
-0.14669552 0.054207757 0.63718617
-0.92198688 -0.10918172 1.9526361
0.77474368 -0.15252514 1.0099041
-0.90713888 -0.10363439 1.9293689
-1.0399376 -0.11549942 1.7735523
0.80209219 -0.1108349 1.0240922
0.43451941 -0.070167385 2.3631649
0.27280354 -0.18302317 1.6603669
0.41073874 0.042486697 0.65243506
0.60711503 -0.2015222 1.4239081
0.32799643 -0.15447664 1.0513901
0.33003289 -0.16903572 1.3947052
0.90107214 -0.11424065 1.058906
-0.14386094 0.053298615 0.6332221
0.23121862 -0.020744618 1.7548438
-1.0159653 -0.097011819 1.7595779
0.20830655 0.060797334 0.40325427
0.066296563 0.057823017 0.55613208
-0.062970504 0.056352869 0.4786967
-0.91310024 -0.020330749 1.9555959
-0.91732806 0.052283019 1.7233189
-0.25389817 0.006910529 0.74219608
-0.88933223 -0.078203447 1.5923868
0.77488369 -0.053165086 1.8131982
0.25207195 0.043583848 1.1976885
-0.20718148 0.012799207 0.62106514
-0.39866829 -0.12992907 0.6958524
0.25715366 0.044207551 1.2343839
-0.94610447 0.0040479219 1.6408168
0.20505153 0.047485005 1.5137192
0.25203118 0.050660472 0.44908464
-0.20370857 -0.048452489 0.62198246
0.37730303 0.041100219 0.56918681
0.29988873 -0.081604898 0.60618353
0.17251201 0.048086058 1.2301821
1.1424083 -0.23700581 1.3826369
-1.0715814 -0.14560826 1.6968442
0.20811057 0.058212373 0.28481972
0.52645093 -6.7455694e-05 3.1446762
-1.4044838 -0.17500699 2.2342472
-0.9169088 0.012552342 2.0774689
0.37966624 0.038763471 0.54207063
0.76301813 -0.041637637 1.6107301
0.63763261 -0.098593719 1.1837708
-1.0059568 0.024364084 1.6916078
0.52391088 -0.098075286 0.91414344
0.20733654 0.058099359 0.28423989
-0.89437848 0.023400925 1.6228174
0.82382572 -0.043922506 1.7925936
-0.037887033 -0.40670562 2.4732566
-0.96244854 -0.029280953 1.5500308
-1.0060059 -0.11348177 1.748108
0.57452393 -0.17103425 1.0975066
-0.96346557 -0.008561708 1.5161473
0.18312405 -0.20894839 1.0641851
1.1226358 -0.22218396 1.3312505
0.22743464 0.053988352 0.92867863
-1.2511327 -0.25815368 1.9834045
-0.49237025 -0.15316039 0.77745199
0.55974615 -0.021177834 2.4271264
-1.0062889 -0.13577086 1.5760449
-0.9419027 -0.10021242 1.6270403
-1.0145284 -0.1382056 1.5888513
0.38165319 -0.13292301 1.4837638
0.35935867 0.037186012 0.52374244
-0.70962727 -0.19842653 1.8531421
0.33209157 0.052325174 0.40291297
-1.1536628 -0.0078925136 1.5330807
-0.12170875 0.061135154 0.50733972
0.75856441 -0.052421924 1.777733
0.28689775 0.052617379 0.44538724
0.78696364 -0.0511517 1.8555719
0.19662914 -0.14354375 0.70448112
-0.038307559 -0.40066594 2.4605532
0.14094158 0.058813766 0.59415257
0.46779597 0.044095226 0.66837573
-0.93878007 -0.053093769 1.5276238
0.059309173 0.060752239 0.3123374
0.16272283 0.054851111 0.95618033
-0.94865316 -0.086390518 1.6252142
-0.03644314 -0.39075756 2.4037375
-0.91521132 0.021998925 1.6657144
-0.21331339 0.004342027 0.61570609
0.42690223 -0.12793125 0.6100173
-0.034225877 -0.380319 2.3171329
-0.90666002 -0.084142715 1.5947503
0.20086144 -0.18149258 0.94403815
0.42957032 0.040497404 0.92949963
-0.24489099 -0.11921167 0.70304728
0.35097075 0.045747273 0.85979974
0.37971917 0.046755258 0.57381833
-1.0082024 -0.092781298 1.5350817
0.60861194 -0.13671289 1.0250098
-0.26653579 -0.3623777 2.4050417
0.27736169 -0.18356837 1.5915786
-0.45517972 -0.14725752 0.68892515
-0.22216657 -0.075255975 0.62881005
-0.27433902 0.056811105 0.51821613
-1.0155956 -0.12880929 1.7141455
0.25713047 -0.023514822 2.601747
-0.21550199 0.04149925 0.6293304
-0.99032068 -0.051679388 1.5164398
0.38864601 -0.12879677 1.5108117
-0.20087288 0.053636283 0.29493427
1.0300266 -0.25771242 1.2215611
0.13336818 0.060476854 0.37560356
-0.12536618 0.056722794 0.47392321
-0.93686885 -0.086130686 1.6421813
0.20423469 -0.25454408 1.4850703
-0.032622632 0.062852189 0.33115911
0.26710209 -0.17112637 0.94721806
0.5481512 -0.02850103 0.91012895
0.38046223 0.045146126 0.73047042
-0.52160072 -0.042747747 1.5046486
-0.067512929 0.061354473 0.34836423
-0.62820029 -0.15424639 0.79530835
0.45698306 0.04377038 0.65595293
1.0018426 -0.2514689 1.1740984
-0.42507446 0.060620993 0.94956934
-0.12654816 0.056865588 0.30882299
0.38402873 0.04679269 0.58256674
-0.59428382 -0.17093924 0.7646147
-0.12108329 0.060758773 0.49003661
-0.91510242 -0.086805597 1.3691076
1.0037183 -0.25443554 1.1788713
-0.63139331 -0.15989007 0.80998492
0.24447361 0.050723754 0.46212184
0.56543893 0.036619458 1.0720924
0.16441518 0.060040571 0.4168545
0.2734285 0.055851541 0.3438549
0.63958734 -0.15157078 0.99439073
0.42572033 0.042364262 0.75051022
0.059852507 0.061053164 0.31479752
0.16629761 0.060210526 0.41826463
-0.12174508 0.060973138 0.49744153
-0.23823428 0.054037694 0.55891287
0.63141572 -0.13325119 1.0165875
0.4293586 0.042220607 0.75543404
0.3017104 -0.16205104 1.1571687
0.36494806 -0.16541432 1.3332008
-0.87637728 -0.13749081 2.0127182
-0.13928521 0.053096596 0.63346839
-0.97497475 -0.049227469 1.4877926
-0.9173674 -0.023303904 1.9749855
0.23248042 -0.23876229 1.6515216
-0.21932051 -0.037006192 0.95920217
0.74341971 -0.17760795 1.0139046
0.26071969 -0.20578021 1.6967012
-0.85785711 -0.2205743 2.0919185
-0.21359816 0.038699243 0.62194133
2.2076814 -0.088183388 3.8852096
-0.21565834 -0.32597548 2.4870772
-0.23863962 -0.19965939 2.2204719
0.92920643 -0.058805868 1.6032916
-0.1436666 -0.31815243 2.672801
-0.66737908 0.040496718 1.4593185
0.80964327 -0.11502027 1.033422
-1.097463 0.021690965 1.455022
-0.57118756 -0.19065082 1.4838618
-0.31842029 -0.14320615 0.72226691
0.16370466 0.060419105 0.52835798
0.65907413 -0.10036912 0.93091857
0.20787728 0.058170155 0.28513837
0.15849209 0.053321715 0.91510022
0.23478776 0.052019093 0.48528862
-1.0056208 -0.076228403 1.491232
-1.3004084 -0.26629937 1.9963638
0.35129994 0.020802923 1.337521
-0.33033445 -0.13928123 0.70808733
-1.2777559 -0.26024735 1.9534611
-0.65149939 -0.24481465 1.8178288
0.56418723 -0.019974522 0.85589063
0.68685555 -0.11365684 0.98218656
-0.061098892 0.057446219 0.5585326
-0.66045833 -0.15669915 0.84149504
-0.013276905 0.061662048 0.32076705
0.13852711 0.061435148 0.38645327
-0.062358852 0.055898014 0.46979487
-0.030750878 0.06266804 0.32992911
0.19112772 -0.20529549 0.97433615
0.23391029 0.051506009 0.485497
-0.070266828 0.060845878 0.60248291
-0.18836032 0.054310057 0.36022389
-0.26393193 -0.22494495 1.9633769
-0.76396906 -0.21405286 2.0188103
0.30623424 0.052233443 0.45251858
0.20739093 0.05793383 0.2842114
0.037153166 0.059771039 0.47935212
-0.22078741 -0.28114903 2.4858141
0.49828929 0.042282797 0.71691227
-1.0726253 0.0017386787 1.5143284
0.68243712 -0.11343333 0.97655547
0.02338383 0.053090345 1.0854321
0.58303672 -0.10929894 1.040659
-0.11218645 0.05600623 0.34215677
0.32582632 0.045578722 0.55447829
0.14414942 0.05891642 0.59888196
0.32066455 -0.18569419 1.0347719
-0.14028786 0.05331685 0.64870965
0.046647627 0.062722683 0.32533324
-0.61721808 -0.15678492 0.78665185
-0.88890064 0.043413483 1.9710342
-0.22643793 0.056736358 0.60983503
-0.17607123 0.049439926 0.63261855
-0.054314371 0.054750763 0.75141549
-0.88252628 -0.018248037 1.8578931
-0.21994695 -0.056760736 0.63025737
0.077064931 0.05417452 0.81189525
0.48151401 -0.018150587 0.70693791
-0.22417648 0.038618874 0.62492871
-0.19645216 0.055576 0.30473542
-0.16919692 0.047719706 0.59331429
-0.22887018 0.048246291 0.4596473
-0.25284976 -0.20171173 2.2971029
0.67887461 -0.16842549 1.0072398
-0.99842334 -0.0098948479 1.4680735
0.32553703 0.05147814 0.39230692
-0.28189141 -0.23925985 2.1176629
-0.1713227 0.056722958 0.35429835
-0.88327241 -0.27827287 1.8986119
-0.72729611 -0.2469445 1.9459592
-0.92824137 -0.26676989 1.9599637
-0.88279366 -0.27750194 1.8993763
0.38521531 -0.13209616 1.4991182
0.4074463 0.041253023 0.71118701
0.77842903 -0.11855336 1.034887
0.66421974 -0.11139581 0.94768214
-1.140511 0.0090834461 1.5802904
-0.23357177 -0.13376722 0.62628746
1.0540861 -0.031045441 1.5460545
0.24451607 0.047657222 0.78430724
0.44790599 -0.19252738 2.7624907
0.10324472 0.059950672 0.38444328
-0.23910946 -0.039884523 1.0692977
-0.066030547 0.055537235 0.47640622
0.251488 0.054117698 0.47400963
-0.63553274 -0.15534869 0.80417871
0.01035076 0.058571741 0.52381408
-0.37813276 -0.1396863 0.73473883
0.34038675 -0.16811319 1.4087561
-0.051971119 0.055950046 0.82117307
-0.32081616 -0.14670889 0.70936608
0.20673987 0.05760264 0.27455962
-0.067261979 0.061859552 0.35485923
0.30816466 -0.17941603 0.99187684
0.34359366 0.044884071 0.63584435
0.20573843 -0.15933029 1.0740124
-1.1260303 0.030610638 2.1130247
-0.28441277 0.054853141 0.49462748
-0.10800372 0.062254764 0.35387433
-0.91095793 -0.073261499 1.5506536
-0.17538103 0.051841177 0.62177026
0.19142349 -0.2051255 0.97863328
-0.20949501 0.044690691 0.99410474
-0.099827096 0.06182766 0.2776382
-1.1812913 0.014998477 1.5896589
-0.94326675 -0.26420248 2.0138545
0.68792379 -0.11127685 0.9827131
0.012586143 0.062134452 0.30433583
-0.86757582 -0.16689001 1.8599454
1.4629927 -0.062663868 2.3645229
-0.90015972 -0.26438314 1.8931526
-0.99157786 -0.08911448 1.7827464
-0.37569752 -0.1388621 0.72921586
-0.96694374 -0.030095227 1.9542125
0.86826873 -0.071583956 1.0734684
-0.10725057 -0.06849575 1.2558638
-0.38118857 -0.15551215 0.72875369
-0.11880399 -0.16719703 1.7625023
0.54538685 0.041238002 0.65218353
-0.10763991 0.058948327 0.30122924
0.27463555 0.056062017 0.34647346
0.1798524 0.062223505 0.27107298
-0.66000307 0.022051744 1.4667982
0.45565292 0.043614026 0.6441586
-0.19201124 0.054161984 0.33753407
-0.1050362 0.059845604 0.57052112
-0.10716711 0.061512027 0.35174906
0.60036176 -0.13442104 1.0078208
0.74341404 -0.17705689 1.0132821
-0.67529225 -0.22843011 1.7862757
-0.17739975 0.05709989 0.36635792
-2.5645308 -0.35994953 3.6740446
0.16993964 0.057539985 0.74536133
0.20550692 0.059542894 0.39632857
-0.91791004 -0.013728503 1.6382221
0.36150324 -0.16439512 1.3253623
-0.20841727 0.05180721 0.53895211
0.35619617 0.044780463 0.58595872
0.11456737 0.054695718 0.33173144
-0.12324671 0.05640997 0.25778997
-2.4954469 -0.34785175 3.5663934
-0.23880625 -0.37585443 2.4005947
-0.066863462 0.062239517 0.31264687
-0.42330828 -0.010441061 0.74593389
-0.20262229 -0.078357846 0.57501638
-0.96399069 -0.083884425 1.6500419
-0.18247648 -0.34236306 1.9838771
-0.66025901 0.016513217 1.6820761
-0.988047 0.043235332 1.8805486
-0.06625925 0.060574535 0.34276199
-0.073566586 0.060736943 0.31292582
-0.058310304 0.054106165 0.5117017
0.20295255 -0.26248038 1.5496651
0.19447383 -0.30100161 1.4845587
-0.35425401 -0.13024908 0.72753882
0.26691309 -0.15818204 1.2243823
-0.48299849 -0.043259565 1.9092108
-0.13605124 -0.29007363 2.6942663
-0.12740061 0.056329794 0.29392266
-0.21141364 0.04349459 1.0011029
-0.31493229 -0.14228655 0.71366477
-0.17449862 0.049711641 0.25960767
0.4619585 -0.13945326 0.6966939
0.38262981 0.046726108 0.57770026
-1.5360621 0.037907153 2.028316
-0.18649191 0.054132279 0.52430511
0.13045388 0.058039535 0.35634804
0.10565592 0.061928224 0.39489007
0.27280492 0.05589075 0.34269905
0.87334555 -0.055269316 1.0704898
0.52027518 0.04279802 0.69175291
-0.12771568 0.056686006 0.24449146
-0.037425067 0.064929105 0.34081841
-0.064936236 0.05999814 0.27458608
0.18038164 0.064547375 0.46593964
-0.20922199 0.039181016 0.60928404
-0.41827571 0.065418944 0.78156006
-0.40090111 -0.16287838 0.77043509
-0.19315636 0.056167547 0.37142229
0.2717323 0.055942573 0.3695302
-0.068736255 0.063986063 0.36959124
-0.19596648 -0.054270245 0.56252253
0.80860615 -0.17162992 1.0367088
0.31289878 -0.090694278 0.65007424
-0.16033962 0.046056312 0.53797817
0.20461193 -0.20877638 0.91750276
-0.38086534 -0.15314932 0.72919035
-0.152839 0.054428395 0.3298794
0.32636079 0.035769351 0.65134358
-0.27300698 0.056424953 0.55729473
-0.18928641 0.053388905 0.33207917
0.31498444 -0.038771804 0.64990258
0.88866234 -0.047817618 1.0608202
-0.12269402 0.055740874 0.3485719
-0.16072251 0.052019369 0.45399618
-0.11741193 0.05944892 0.47030091
0.020002302 0.062650695 0.29079008
-0.40212899 -0.12635928 0.71185124
0.10972106 0.064875051 0.41806793
-0.15805221 0.055649433 0.39021373
0.10053474 0.0620628 0.29666173
-0.1237615 0.055578671 0.30000961
0.13625653 0.060477454 0.37656116
-0.2072241 -0.058089241 0.60074127
0.33275193 0.036116447 0.66475236
-0.044719297 0.049878258 0.22370505
0.2382246 0.052956104 0.49389839
0.31548655 -0.047717791 0.66830575
0.29774687 0.031133767 0.46381438
0.21838066 0.056961354 0.42862642
-0.22575513 -0.065425083 0.57546329
-0.28399435 0.061265029 0.61849737
-0.37075678 -0.177766 0.78415084
-0.11476609 0.058823064 0.36068976
0.16276944 0.058170021 0.50490439
-0.38224426 -0.14113665 0.74242306
-0.057528179 0.063756764 0.30040765
-0.19128907 0.055616885 0.36688602
-0.3978529 -0.13447426 0.68103111
0.30089143 -0.10132693 0.61841428
-0.23204815 -0.12285957 0.58360803
-0.069958642 0.064689152 0.37616968
-0.17838718 0.055355649 0.38173401
-0.16073403 0.056611873 0.39748311
0.27946582 0.054580778 0.4751147
-0.28687596 0.055148318 0.50108445
0.31000313 -0.038806602 0.63829517
0.29411411 -0.05509644 0.59600425
0.30340293 -0.046208024 0.63920486
-0.18879415 0.053874727 0.29436278
0.84319538 -0.15628873 1.0566891
0.13578469 0.0085170548 0.45746756
-0.10089597 0.052710854 0.41605222
0.73919779 -0.15822187 1.0307547
0.37765142 0.047813032 0.66361499
-0.60506374 0.040102158 1.1630193
0.62950814 -0.15210484 0.95259905
0.78585011 -0.11064006 1.0054926
0.32732537 -0.1906645 1.0648199
0.15154043 0.06250532 0.63864684
0.34607512 0.038754404 1.1425713
-0.83799648 -0.021304082 1.6694928
0.14053655 0.058180928 0.58427942
1.0067714 -0.025934361 1.2520579
-0.11307023 0.057509825 0.35369396
-1.281819 -0.26335651 1.963226
-0.1077787 0.062163725 0.35583937
-0.1461405 0.051959168 0.73083341
0.24434757 0.048028238 0.78516448
0.060480874 0.061035477 0.31278753
0.00045933574 0.06307371 0.30542552
-0.12215507 0.054485612 0.29315841
-0.11056617 0.058628343 0.30409122
0.32860839 -0.013483323 0.48187363
0.35581356 -0.014641978 0.53354394
-0.94515526 -0.10022161 1.6355988
0.23460028 0.051636409 0.93810332
-0.20011121 -0.040266283 0.24883795
-0.20082247 -0.048957117 0.61563194
0.2701498 -0.13494374 0.93594372
0.74886382 0.018747861 2.0551701
0.18849038 -0.16201203 0.99731839
-0.061444078 0.058887422 0.57927191
-0.84229755 0.0087629296 1.9128412
-0.00036625937 0.062004715 0.55201709
-0.97478187 -0.068187937 1.5111285
-0.9857887 -0.0065864632 1.5517582
0.25112346 -0.1484255 1.1618284
0.33285308 0.034132939 0.51820934
-0.82750213 -0.1828225 2.1934195
-0.98537207 -0.11853565 1.5834814
-0.99571419 -0.11926423 1.6004509
0.82305151 -0.20877747 1.062291
-0.084615946 0.050172649 0.93800569
-1.0684205 0.02389504 1.9531099
-0.054604825 0.056171887 0.81943274
-0.20032886 0.050931543 0.61571276
0.34134051 0.061970547 0.57599425
-0.12142307 0.047546029 0.97514784
0.4894551 -0.17288391 2.2445865
-0.9252848 0.021426709 1.679624
0.01504283 0.059834551 0.542557
0.72043025 -0.032646503 1.2338437
0.33845013 -0.017550245 0.68315542
-0.15013091 0.054456428 1.0473555
0.32905033 -0.13196363 1.7365476
0.42299169 -0.20571806 2.0188279
0.17570561 0.050465681 1.2555979
0.22104469 -0.17416738 1.2027322
0.36340618 0.036188282 0.60617244
-0.33544546 -0.16308206 2.2467008
-0.21792874 -0.043154642 0.62374628
-0.2392543 -0.37570173 2.3915162
-0.36837012 -0.1849604 2.5033274
0.36262569 -0.015897013 0.52133906
0.70051932 -0.013396502 1.6931001
0.28530273 -0.067768559 2.4264374
0.30678684 -0.20278911 1.8572906
-0.04987805 0.055865105 1.0691919
-0.046263423 0.052127026 0.98191798
-0.17652838 -0.33989739 2.36696
3.6439314 -0.32492912 5.6669207
-0.2321533 -0.27154768 2.0055451
-0.11263949 -0.32608122 2.9260697
-0.15402204 -0.26438421 2.5932994
-0.20010176 -0.25580579 2.2438374
-0.40849805 -0.013585158 2.8412433
-0.11871459 -0.31931955 2.8126011
0.4270587 -0.14688413 3.235558
