# .PCD v0.7 - Point Cloud Data file format
VERSION 0.7
FIELDS x y z
SIZE 4 4 4
TYPE F F F
COUNT 1 1 1
WIDTH 321
HEIGHT 1
VIEWPOINT 0 0 0 1 0 0 0
POINTS 321
DATA ascii
-0.13993782 0.049688011 0.27913749
-0.15443915 0.048934691 0.26706791
0.96002972 -0.070582926 1.4815912
0.9607327 -0.21731728 1.5070484
-0.077258915 0.0591725 0.28653699
0.67779624 -0.15351816 1.4889879
-0.92605293 -0.032254245 2.0032163
-0.72315878 -0.074260309 1.4537618
0.28221014 -0.18333723 0.94726235
-0.1853414 0.049583621 0.63386148
-0.19735214 0.048800737 0.61918455
-0.58336711 -0.0076793046 0.9474737
-0.84223616 -0.11757202 1.3711262
-0.18902318 0.037746627 0.30599976
0.22728764 0.054912992 0.72096711
0.12866603 0.06136832 0.32875031
0.25743029 0.055749346 0.343656
0.21475463 0.064276129 0.33426255
0.21067275 0.063467674 0.32670164
0.21598384 0.061652225 0.43201721
-0.76571846 -0.19067568 1.3480127
-0.75497925 -0.18544585 1.3369718
-0.60107625 0.013409743 0.96318382
-0.73648518 -0.22332098 1.3751149
-0.63353515 0.016378762 0.97448546
0.24477236 0.066987194 0.37761241
0.19992207 0.065126903 0.32452017
-0.86743516 -0.11996157 1.4170661
-0.59699076 0.014990017 0.95392853
-0.18878375 0.036740318 0.30485064
0.51518726 0.045920629 0.80155927
-0.88401735 -0.1279324 1.4266806
-0.15699811 0.049316414 0.27593952
0.21521904 0.059654254 0.32269996
0.20453137 0.063075788 0.43792564
-0.59310496 0.015869929 0.94632751
0.39609683 0.048361674 0.63456565
0.13050084 0.062996976 0.28862488
0.21874355 0.059810445 0.30668992
-0.74179459 -0.17382461 1.2173297
-0.72680855 -0.18430914 1.2590134
-0.66021061 -0.19791131 1.1282885
0.069976352 0.056323595 0.5274471
-0.18769604 0.036137983 0.30128837
-0.14432985 0.05018495 0.57041699
0.38495222 -0.098051719 0.77362329
-0.6984638 -0.19179243 1.135391
-0.21719953 0.019992882 0.70132858
0.10506388 -0.22962494 1.0815206
-0.74691945 -0.17596669 1.2225564
-0.79029036 -0.19894257 1.1904182
-0.86224574 -0.10456504 1.3453031
3.2399611 -0.60483605 4.3837638
0.49873042 -0.15729773 1.3860412
-0.17726094 -0.081905231 0.63312453
0.1538672 -0.13095042 0.71054488
-0.22367573 0.051376812 0.64643842
0.99780065 -0.26900604 1.5694008
0.53329903 -0.034330495 1.6669748
3.345118 -0.60330892 4.5604367
0.4380663 0.047331013 0.60438913
0.38034719 0.027825877 1.5197823
-0.1556374 0.04954765 0.2706821
0.34423935 -0.16897917 0.86756569
-0.84391642 -0.23773558 1.3667331
0.33057523 0.027371585 1.3412473
-0.38929334 -0.19546381 1.0590205
0.090941079 -0.20325428 1.0887487
0.22907709 0.058397997 0.37784857
-0.037850533 -0.19043238 1.0606782
-0.89867073 -0.033867426 2.1831515
0.47815466 0.045694888 0.72037715
0.067888193 -0.21936205 1.0928769
-0.23345593 0.05006925 0.55400491
-0.14184482 0.046965644 0.8024773
-0.76188308 -0.17826037 1.2518475
-0.80509865 -0.051489025 2.1034207
0.19751868 -0.20769686 1.3089085
0.35541815 -0.15017609 1.4360611
0.34927836 -0.16222994 1.6554902
0.34894013 -0.17144972 0.8834843
-0.016835287 0.058251332 0.3651396
0.43588915 0.047808673 0.60013026
0.38389334 0.027008828 1.5184138
-0.23723666 0.050354633 0.56544548
-0.19045873 -0.047618985 0.68862981
0.089180522 -0.19524498 1.0420487
0.066630095 -0.2192111 1.0912313
-0.72051156 -0.17979872 1.2384419
0.10773611 -0.2308449 1.0914981
-0.19868793 -0.070096284 0.67714983
-0.18143685 0.044940539 0.75543433
-0.22007513 0.020491917 0.70400125
0.37904829 -0.15225653 1.5360389
0.076924615 0.055486489 0.77244705
0.39139956 0.04768474 0.62326473
-0.19810766 -0.025523443 0.31945121
-0.16978607 0.048840124 0.58049387
0.22374345 0.055155743 0.52192461
-0.38687533 -0.16797389 1.2850411
-0.18151511 0.05016619 0.26016486
-0.025406837 0.057188459 0.37649381
-0.076894127 0.053746413 0.26311857
0.78281963 -0.14714798 1.4338808
0.4999519 -0.12868339 2.4119396
0.1594912 0.023083711 1.118206
0.93859583 -0.068700358 1.4430199
0.24791406 0.049313214 1.1864371
0.58408821 -0.0025242781 2.6288483
-0.036254331 -0.18899851 1.0581133
-1.0929154 -0.13415888 2.7224317
0.37804276 -0.11604842 1.4537866
-0.19746508 0.049697384 0.61988312
-0.12663181 0.050573252 0.27124429
2.8807125 -0.24323055 3.9406998
0.21992569 0.058646671 0.55077177
0.39645755 -0.17343035 0.99714607
-0.20563884 -0.070216238 1.1390188
-0.57923079 0.0078865346 0.92734045
-0.26038387 0.050526887 0.57413322
-0.13315451 0.052432403 0.2763893
0.8602798 -0.11526668 1.4650309
-0.94850421 -0.081176944 1.299989
0.053665116 -0.2303789 1.0651035
-0.58429676 0.018824825 0.99846524
0.21776502 0.057544984 0.54295468
0.23399471 0.05514244 0.6668337
-0.048404999 0.061266486 0.29444796
0.84595996 -0.18549865 1.4656334
0.42153174 -0.16568698 1.7358618
2.8243811 -0.50026351 3.9222076
-0.22929749 0.0026420704 0.75865716
-0.0024781129 -0.23375672 1.1184254
0.59926897 -0.19491149 1.7147751
0.8922416 -0.16000414 1.4853046
0.47007215 0.045746822 0.7071467
0.3936744 0.048097402 0.63050383
0.10395989 -0.24573229 1.3099935
-0.90285796 -0.035649642 2.1954086
0.11469422 -0.28472149 1.5634997
0.073068202 0.05776085 0.55727255
-0.18969727 -0.024068946 0.29744595
-0.18496586 0.020169031 1.0340376
-0.92017359 -0.030627932 2.2596433
0.25994182 -0.25174192 1.8309574
-0.26099184 0.050893962 0.57719392
-0.21274488 0.019101247 0.68734223
-0.044619553 -0.23743819 1.139112
1.2323679 -0.27535966 1.8559532
0.19110818 0.050312079 0.46639413
0.13274837 0.061226271 0.30469662
-1.5169989 -0.25997543 3.2650735
-0.1949801 -0.0310889 0.68525094
-0.93207449 -0.1212536 2.1510074
0.21366821 0.056441516 0.53053236
-0.088354625 0.053183533 0.36546397
0.29722518 -0.10388864 0.64920586
0.91589713 -0.18479712 1.4045365
0.18201432 -0.271359 1.3731339
0.21010467 0.071224771 0.35684544
0.055261031 0.052978639 0.2318967
0.26208964 -0.015329871 0.53862852
-0.17744792 0.049081579 0.52930599
0.071351051 0.062815189 0.30096245
-0.13220385 0.053664904 0.38713866
0.96464199 -0.10001417 1.4751375
0.76649952 -0.13831681 2.1434252
0.28827825 0.037295334 1.594408
0.42321813 0.025481854 1.9390335
0.068857178 0.063254021 0.34278274
0.072670631 0.056859106 0.5438748
-0.95365226 -0.11850743 2.2337983
0.068480276 0.053584691 0.50691736
3.599957 -0.30290869 4.9265065
0.22636975 0.05787925 0.37202466
-1.0174897 -0.12410208 1.6259866
-0.12070753 0.051991578 0.27516443
0.3586126 -0.22810017 2.2639084
0.31170228 0.054704998 0.36799836
-0.61112607 0.038892258 1.3841763
-0.077628173 0.054266628 0.39055818
0.42408121 0.046780866 1.1376264
-0.91183394 -0.031113494 1.9607968
0.9667995 -0.071995519 1.4983041
-0.079819389 0.055879388 0.27314842
-0.072692372 0.056507006 0.31113523
0.13107708 0.063039847 0.34182727
-0.18907849 -0.057390239 0.27004594
0.069585323 0.055834126 0.52729183
2.128118 -0.34497055 2.5981123
-0.2064833 0.052633774 0.54830265
-0.19927226 0.049178071 0.62648481
-0.036691543 0.043398224 0.7758469
-0.19446778 -0.046081439 0.2789095
0.38134533 0.04131842 1.0697927
-0.79002589 -0.15826149 2.3951366
-0.20658317 -0.020382849 0.29017365
0.44538981 -0.13621308 1.9546349
-0.12700222 0.050875042 0.25920415
0.22220327 0.057108618 0.5602169
0.12747584 0.061212551 0.3297736
-0.67716289 0.036571432 1.5510538
-0.43585023 -0.18289964 1.1675692
-0.071894318 0.055701692 0.26519036
0.16404274 0.058692381 0.8628034
-0.16700561 0.044044498 0.78104585
-0.20344765 -0.019770712 0.28692788
-0.91109014 -0.033750035 2.2233443
0.065729052 0.061538219 0.29919106
0.21758032 0.062663391 0.438501
0.51346427 0.047308192 0.68704635
0.50539076 0.04918506 0.7737233
-0.84523612 -0.17454425 1.3371961
-0.19015257 0.018883731 0.72892946
2.0546162 -0.29086116 2.8726344
-0.96476096 -0.13565448 2.2667844
-0.18275593 0.050830279 0.26118106
-0.99259609 -0.18185028 1.3126357
-0.070704199 0.058983579 0.47716802
0.49779525 0.045584768 0.66151065
-0.82893223 -0.17382517 1.2948346
0.20856646 -0.25837106 1.5770106
-0.23992221 0.052343771 0.47900933
0.40136114 -0.013733726 0.66878539
0.52642566 -0.15302522 2.5294433
0.0021160417 -0.22194052 1.036371
0.35053423 -0.1105925 0.70417041
0.034578674 0.061842207 0.27560061
0.059031673 0.056491669 0.25615686
-0.069921531 0.061471969 0.28530592
0.47919506 -0.15749396 0.71819896
0.81355172 -0.17724375 1.4755006
0.12948433 0.062911846 0.29240328
0.12927276 -0.12440351 0.67340988
0.22174306 0.056717739 0.36313093
-0.044813633 -0.23551376 1.1179509
0.36549747 -0.16128989 1.4735005
0.91494143 -0.068438232 1.4089673
-0.070915975 0.061501887 0.33046341
-0.067261539 -0.20299307 1.0704577
0.95727247 -0.16768505 1.5142908
0.077689774 -0.22755486 1.1264606
-0.60146862 -0.010560313 0.97478205
-0.087292515 0.052785289 0.25802648
-0.87353814 -0.12652849 2.4835384
-0.67733634 0.036346745 1.547492
-0.43651024 -0.18804905 1.2846498
0.19900292 0.062366627 0.42537886
-0.077197783 0.053801384 0.38518178
-0.22030295 -0.01639834 0.31208366
0.17889419 0.061740685 0.34780258
-0.044884466 0.058184918 0.27614045
-0.85396987 -0.19523194 2.4355145
-0.079095259 0.054754991 0.39439124
-0.87785274 0.029414726 2.5776272
0.38090593 0.046284366 1.0937126
-1.314554 -0.22425719 2.7629476
-0.12708534 0.051258486 0.27238852
-0.19101448 -0.058190692 0.27298981
0.82637525 -0.17825025 1.4426999
-0.22649673 -0.028873708 0.37882501
0.35814014 0.041440807 1.015697
0.56048363 0.050611082 0.86969048
0.35196188 -0.056126185 1.1051097
-0.21377444 -0.064874567 0.28923619
-0.80111182 -0.16302578 2.4287472
-0.18547429 -0.046143159 0.28760993
-0.07964059 0.056726221 0.40679228
0.77971196 -0.047126196 2.0998368
0.22493696 0.057420764 0.56761068
-0.027279345 0.060021218 0.39918226
0.26459956 0.024085069 0.59047145
-0.42219397 -0.21475697 1.0987532
2.1612759 -0.35355476 2.6435213
-0.13122071 0.048274733 1.1876886
0.024055168 0.05800011 0.32011151
-0.071571238 0.055352323 0.30608308
0.82784802 -0.15369913 1.4431481
-0.13506249 0.055017844 0.39709997
-1.3463423 -0.32448906 2.5575709
-1.0012035 -0.18608491 1.3287141
3.0905142 -0.47824922 4.2528605
3.197329 -0.58641583 4.2942123
-0.077167206 0.05126366 0.47883713
3.4012401 -0.58162999 4.4682326
-0.21730073 0.056132849 0.54549974
0.12842454 0.062553115 0.29151434
-0.046670705 0.060863618 0.29092228
-0.92867535 -0.13820331 2.6405902
-0.06930346 0.06297034 0.28859782
0.90915573 -0.061440662 2.2977583
0.24416435 0.054431807 0.32944888
-1.025326 -0.14252868 2.339287
-0.19644938 -0.03092679 0.69038612
-0.08525838 0.051034089 0.34731632
-0.19992162 -0.019869868 0.27809423
-0.13184007 0.053599969 0.38512671
1.1223717 -0.057367451 2.7142661
0.0062832129 0.061914328 0.26902544
0.59931344 0.053763028 0.93657571
-0.12216686 0.051775724 0.27119094
0.19878204 0.051742733 0.3107416
-0.13986833 0.051520027 0.24549031
0.5804584 -0.17944306 0.80884212
-0.93483567 -0.032551251 2.3016994
-0.13474344 0.051817492 0.38612378
0.53561777 -0.17904715 0.74967998
0.3344399 -0.0018134066 1.1187093
-0.072364502 0.060548194 0.49205989
-0.20043141 -0.024094595 0.32552272
-0.088337734 0.053405743 0.36592865
-0.071667694 0.060901597 0.50667644
0.064287364 0.058897194 0.30471957
-0.09716998 0.042914409 0.83381075
0.18825237 -0.30189183 1.4145262
-0.42020318 0.051678032 1.0838609
0.4511157 -0.0697072 2.4340389
0.31532601 0.054999709 0.37217057
-0.36390096 -0.14179456 1.1216397
-0.12780876 0.049865685 0.47935462
0.43124422 0.042962626 0.78224725
