# .PCD v0.7 - Point Cloud Data file format
VERSION 0.7
FIELDS x y z
SIZE 4 4 4
TYPE F F F
COUNT 1 1 1
WIDTH 522
HEIGHT 1
VIEWPOINT 0 0 0 1 0 0 0
POINTS 522
DATA ascii
2.0002241 -0.094667107 2.8460903
2.0892951 0.37790826 2.9590292
-0.10483733 -0.19241364 3.1049838
-0.06724444 -0.00099237636 1.5167794
-0.10159454 -0.19057964 3.0986691
-0.12070557 -0.36574996 3.2792864
-0.1714457 -0.31516173 3.4053478
1.1560872 -0.24077973 2.4734526
1.0948114 -0.35357395 3.0807509
0.019069225 -0.15415885 4.4128098
-0.20407161 -0.40925613 3.2948017
-0.21685305 -0.42946637 3.4987807
-0.75998223 -0.47162431 3.0538044
0.18223897 -0.07871154 2.6964374
1.0129433 -0.03550015 2.2044849
-0.1742669 -0.37278906 3.202014
1.2127039 -0.24761945 2.1095009
1.0818822 -0.29774436 2.8789997
-0.78064597 -0.074411869 1.6846228
1.3000456 -0.25762761 3.0654397
1.1946816 -0.24607548 2.3533335
0.5886122 -0.0163077 1.836998
1.0686821 -0.080804422 1.6762404
-0.71585381 -0.44284311 3.1068149
1.0838492 -0.17386678 2.9748793
0.67973137 -0.058230277 1.834353
-1.0073907 -0.047559146 1.4445834
1.1265442 -0.27020851 1.9667978
0.97356439 -0.063549861 1.1694169
0.25539282 -0.040325675 1.2219896
-0.72786593 -0.40981928 3.2323942
0.17428222 0.018073428 0.97575426
-0.8366369 -0.08237493 1.7927256
0.17632678 -0.15987888 0.80753613
0.17014179 0.046480093 0.9109931
0.53532815 -0.15352999 0.79960608
0.21980193 -0.15726547 0.85267496
0.27863738 -0.015016064 1.1479993
-1.0130832 -0.40821797 3.1513638
-0.77855992 -0.0067039132 1.6074548
1.5553664 -0.06662029 2.1769671
0.77672052 -0.02517068 2.9370112
0.32836011 -0.13179684 1.2054772
1.2261312 -0.34835497 2.3096032
0.052971154 -0.34227997 2.696898
0.16965434 0.018352136 0.95957994
0.22096983 0.044167601 0.54943705
0.31712064 -0.10339427 1.2914982
0.36635825 -0.067237794 1.2058253
0.50065577 -0.063441977 1.5432739
0.036457628 0.047622215 0.95789623
0.19239482 -0.14469452 0.7803607
-0.65208292 -0.15522891 0.91697168
0.17970309 -0.13942826 0.7959106
-0.45748058 -0.38083172 4.1964302
1.4917095 -0.057367306 2.0108895
0.17156401 0.046779085 0.92154169
0.36746642 -0.075219065 1.2159162
-0.54929829 -0.080169037 2.7434158
0.091104418 0.050616011 0.70152402
0.19582215 -0.15727046 0.79146338
0.36228552 -0.07098113 1.1918569
-0.032935351 0.04733232 0.88987637
1.000653 -0.087325633 1.9800253
-0.9943589 -0.23254561 3.0087748
0.72541785 0.031250522 0.96757698
0.7368772 0.023517899 1.2566075
0.17640767 -0.16083333 0.78605175
1.0524868 -0.02876047 2.0187378
-0.0079061687 0.045912236 1.4147739
-0.7851249 -0.077432424 1.7049365
-0.18831643 0.052368447 0.46886659
1.0414091 -0.038616668 2.1259108
0.35461655 0.039812692 0.5852983
-0.81079066 -0.47497156 3.0819159
0.33618233 0.028135162 0.79850602
-0.85121524 -0.40048328 2.9336953
0.84866548 -0.024272621 1.6049504
0.48677233 -0.29463199 4.856307
-0.7727586 -0.35931152 2.9630828
1.1434568 -0.032295816 2.0277061
-0.75161338 -0.45259851 3.2237811
0.31467381 -0.091330469 1.2899656
-0.89124072 -0.42598513 2.9887547
0.19490007 -0.14687602 0.79117155
0.21006534 0.036512561 0.95406342
0.079853922 -0.53827196 4.3221669
-0.41343185 -0.13668007 2.3536658
0.49918857 -0.30389503 4.9901018
-0.82884741 -0.42614782 2.9551377
-0.88599694 -0.41844791 3.0913396
-1.0462892 -0.39892554 3.2456636
0.077608258 -0.53823251 4.3529897
-0.54381907 -0.27763376 3.4342055
1.2114768 -0.032078061 1.9796848
-0.76741147 -0.20772763 1.9473877
-0.85780501 -0.34274521 2.970407
0.74813831 0.028415866 1.1127362
1.142318 -0.034048941 2.0185351
1.1144738 -0.066072911 1.876174
0.33386144 -0.11740708 1.2063589
0.16894069 0.054377779 0.39968443
0.0057430565 -0.50093722 4.2702727
1.0532522 -0.026865132 2.0122371
-0.69102263 -0.41210684 3.0808806
0.092597336 0.051494814 0.70884967
-0.80264676 -0.28396222 3.1660142
-0.8350637 -0.44800434 3.0277801
-0.22595963 0.050783388 0.47496176
0.29500952 0.040362112 0.39075279
0.16711369 0.054032762 0.39534378
-0.76529241 -0.076395661 1.6627212
1.2129493 -0.096498773 1.976294
0.071162969 0.057745144 0.28139257
0.23706558 -0.25223434 1.9046831
0.32743624 -0.13360439 1.2112923
0.24199399 0.029240783 1.1747532
-0.96022618 -0.30344588 2.9150653
-0.94612348 -0.39129218 3.0381961
-0.74311888 -0.38528198 1.9178061
0.32184651 -0.066064075 1.2813778
-0.58484876 -0.1395313 0.83178902
0.22207198 0.04515728 0.55196261
-0.77496433 -0.021922033 1.6618381
-0.52887654 -0.18010436 0.8818326
1.1224141 -0.077954933 2.0017352
-0.68943655 -0.2574456 3.4405384
-0.63086426 -0.25680318 2.9342022
-0.75947726 -0.33855528 2.921711
-0.7259835 -0.4352642 3.7953525
0.31326047 -0.16276111 0.90849543
0.36253747 -0.15700021 0.79691672
-0.53252208 -0.18087044 0.89078999
-0.05365923 0.053609394 0.39411092
-0.94334817 -0.22518945 3.0165019
-0.72430384 -0.38105229 1.9246416
-0.98208404 -0.38431144 3.0355592
0.3221238 -0.13198328 1.1863151
-0.70524728 -0.41314173 3.6304593
-0.42776236 -0.067762583 1.9881558
-0.18092582 0.056946695 0.48051476
0.40549353 -0.067110211 1.5851197
-0.58345866 -0.16685089 0.89658546
-0.20536426 0.051517364 0.47794032
0.15184024 0.055104606 0.4066925
-0.86688125 -0.40255466 3.0342007
0.22262475 0.045958254 0.55116415
-0.5035671 -0.16738699 0.87428951
0.75768316 0.029518139 1.1373348
0.38369516 0.013955183 1.2010813
0.35083696 -0.052527677 1.1884122
-0.73286486 -0.37819201 1.8805451
1.4269671 -0.034257859 2.0543451
-0.94095278 -0.21995881 3.0105314
0.13589004 -0.23852158 4.2873402
0.084174305 0.056595959 0.53015089
-1.0085244 -0.33995122 3.1511889
-0.8128438 -0.041363057 1.6999445
0.29330423 0.040502056 0.38463569
-0.80099344 0.012804747 1.6776719
1.3884932 -0.034080554 1.9896464
1.2132001 -0.092827916 1.9594302
-0.7819494 -0.25619128 2.8970795
-0.63405716 -0.47724351 4.1383586
-0.58438206 -0.003911484 2.8940935
0.44333509 -0.10164154 1.4130807
0.23947409 -0.023362216 1.1800246
-0.39928767 -0.076797992 2.4279728
1.509636 -0.058348145 2.0450101
1.4142588 -0.034398817 2.0260854
-0.52403426 -0.17957243 0.86967897
-0.050875723 0.054053389 0.48215628
-0.84425545 -0.36049905 2.0730257
0.26014128 -0.30219486 3.9770136
0.22999814 -0.0090515167 0.8399415
0.35756221 0.03965687 0.59529901
-0.19682106 0.049010396 0.61259842
0.21808192 0.050605096 0.28479481
-0.80532253 0.01221345 1.6891274
0.090990037 0.062626645 0.55539346
-0.75447094 -0.26956913 1.9405441
0.43024954 -0.16234338 0.86804485
0.21732745 0.050033882 0.32966948
0.3583788 0.039949726 0.59653854
0.44120589 -0.1675809 0.89311028
0.15356031 0.01733993 0.97513914
-0.70711875 -0.16622545 1.1388888
-0.20972052 0.050582826 0.55808616
-0.18037125 0.049083531 0.79697013
0.17704996 0.017637189 0.92929649
0.22767261 0.03818408 1.0602145
0.38791946 -0.076762468 1.1788888
0.10216972 0.043234911 0.89924049
0.16857114 -0.19231661 1.3592858
0.10547945 0.042119071 0.94343042
-0.42633817 0.049537085 0.74808836
-0.75704086 -0.19384128 2.8204064
0.19115266 -0.19224796 1.3825626
-0.46181187 -0.16754952 0.85169601
-0.057178348 0.055215225 0.40206337
1.0492146 -0.034214538 2.032814
0.24383762 -0.024832077 1.2796316
-0.65074801 -0.33567023 3.8567176
0.71621537 0.031535566 0.94942522
0.076613933 0.054611094 0.39091325
-0.84786272 -0.36016706 2.0912027
0.36635259 -0.13351583 1.2782636
0.36781088 -0.12682252 1.1904073
-0.750386 0.013933107 1.5565023
0.070660681 0.057527944 0.28082752
-0.46642527 -0.19792889 0.87770319
0.22556117 0.045117706 0.59711075
0.35838702 -0.075556144 1.1913857
0.21999744 0.050452787 0.33467555
-0.92134893 -0.15508513 1.9201756
0.28935805 0.03967604 0.37762642
1.4772403 -0.055053327 1.9879112
-0.059674948 0.056266017 0.40751839
1.1784383 -0.28891858 2.8867788
0.35673878 -0.054528471 1.1988311
-0.049963146 0.05344402 0.4785378
-0.47038612 0.055205248 0.83341408
-0.75834489 -0.22443327 1.9387488
0.13191858 0.052014243 0.43098474
0.17311558 -0.19345082 1.3904824
0.17918041 -0.13892686 0.79025126
-0.85880136 0.0040882044 2.0400567
-0.74584484 -0.38765556 1.9264121
-0.68840802 -0.15467706 0.87810707
0.17269728 0.018842954 0.98887539
-0.80994725 -0.3061049 1.9711981
-0.70135021 -0.16281289 1.116075
-0.79762089 -0.48268089 3.5593171
-0.6744324 -0.28583455 3.3267598
0.34011278 -0.047864135 0.44099092
-0.7821933 -0.077211276 1.6851902
-0.5034008 0.051164098 0.73349786
-0.53878677 0.063880622 0.8465066
0.21009633 0.045771174 0.38166952
-0.19076869 0.051827423 0.77464008
-0.20483205 0.052652687 0.48085499
0.35467222 -0.11255993 0.83583355
0.23909447 -0.17551297 1.117259
0.17941138 0.01847573 0.940238
0.36652693 0.022249259 1.1968675
-0.099357814 0.055685412 0.43866324
0.40892759 -0.083699912 1.2509446
0.33431432 0.0087993219 1.3173113
0.32155547 0.020568117 0.79430342
0.090152591 0.052266724 0.66175413
-0.81147528 -0.036053147 1.7535596
0.73898232 0.027421184 1.1202512
-0.79429626 -0.26282868 2.9041214
-0.10697526 0.053560883 0.44492292
-0.098656356 0.055746913 0.43621564
-0.14625725 0.048169479 0.88280392
0.40398243 0.025054127 1.6367383
-0.1722047 0.047859024 0.75410008
-0.039316535 0.049728885 0.69865751
-0.72184598 -0.53603572 4.7539024
0.43887004 -0.16747758 0.88679504
-0.10805127 0.058993567 0.31031275
0.42664829 0.036564078 0.88493204
0.21082941 0.051593442 0.2870369
0.099930316 0.044354551 0.86738586
-0.055900007 0.05832959 0.28088307
-0.98997724 -0.041238662 1.4165726
0.40242025 -0.12758362 0.63268828
0.16768548 0.056482706 0.30867314
-0.37167487 0.058735296 0.52158546
0.36815462 0.034225382 0.65223765
-0.1754199 0.077712558 0.36190534
0.37339398 0.041040041 0.62621045
0.089041978 0.051414203 0.64456415
-0.14029571 0.061722603 0.27975321
1.0585499 -0.07251586 2.0286908
-0.78406596 -0.010979995 1.6332321
-0.80831146 -0.04222938 1.6875463
-0.048103005 0.052048061 0.46539092
-0.75145316 -0.02807549 1.6256042
-0.83471286 -0.31849712 2.0440321
1.0489141 -0.054009985 2.0117502
0.16569862 -0.12207417 0.74492526
-0.046989262 0.050727613 0.62862182
1.1558706 -0.032694928 1.9476995
-0.52365911 8.4072351e-05 2.3402395
-0.70214975 -0.38637319 3.0498734
-0.18034551 0.057107501 0.49443555
0.34958765 -0.12837446 1.2184343
0.15347251 0.015849885 1.0014181
-0.46826324 -0.16391629 0.86452246
-0.6809808 -0.33955956 3.0013294
-0.66048563 -0.37504905 3.0607696
-0.21623531 -0.0088669248 1.6590366
-0.48955682 0.036360256 2.4315238
0.55125606 -0.12817298 0.9129324
-0.47274598 -0.15943408 2.6894078
-0.52849007 -0.17835283 3.009686
-0.40249434 -0.15113112 2.7986088
-0.95865774 -0.014869228 1.2978673
0.32971844 -0.1330234 0.8151803
-0.22753558 0.051346548 0.47738481
0.22155753 0.047585927 0.38255024
0.77196229 0.025503881 1.320363
-0.54578042 0.030881312 0.69698024
0.32997188 -0.13352728 0.81929827
-0.83884883 -0.1393611 1.8443775
0.36541048 -0.0094793402 1.3406487
1.1252677 -0.077410787 1.9417338
0.12948117 0.053917341 0.25585604
-0.50521839 0.044940565 0.68179107
0.91160977 -0.023096874 1.082654
-0.34111032 0.051179472 0.93882847
-0.56041157 -0.27157816 3.771966
-0.8182925 -0.25773764 1.9561119
0.22381946 0.050043307 0.26874995
-0.402316 -0.13500197 0.73260903
-0.21428761 0.042571336 1.2014127
0.34491941 0.020654514 0.79883981
0.31908867 -0.074854538 1.2853484
-0.1366975 0.050428826 0.84949541
-0.57932246 -0.056816127 3.4199224
1.1028984 -0.028436214 1.9347296
-0.76117718 -0.18139429 1.8978424
-0.14652702 0.044852775 1.0956888
1.3420107 -0.21497595 2.4840279
0.22024152 -0.16256616 0.79968071
-0.84092796 -0.29971841 2.1869922
1.131379 -0.07927838 2.0219502
-0.59528244 -0.12607382 1.0615053
-0.77914822 -0.34655142 2.9969101
1.0599314 -0.051269721 2.0283828
-0.17272487 0.053419307 0.649894
0.35106364 -0.054080177 1.1970854
0.10116157 0.054018632 0.80461979
0.2201995 -0.16316468 0.80013657
0.070857853 0.057672478 0.28244209
-0.80946517 -0.16002841 1.8945532
0.36356935 0.019880712 0.8236866
-0.49202988 0.044319138 0.93562269
1.0948218 -0.095423043 2.165143
0.33272091 -0.16653587 0.87870216
0.34457698 -0.016016189 1.0875497
-0.48622218 0.058551408 0.73922896
0.17725238 0.047322184 0.96199703
-0.02490887 0.053549621 0.37894702
-0.50556946 -0.17003068 0.87759733
-0.77019358 0.033497415 1.2122979
0.93732631 -0.058732416 1.750267
-0.57062292 -0.27946547 3.8531265
1.2593911 -0.30983624 2.3599572
-0.4512324 0.072076321 0.56937838
-0.53698421 -0.18069646 0.87803745
1.1731343 -0.033668932 1.9883065
-0.06354484 0.058401816 0.28185463
-0.72187054 -0.37559122 4.5847716
0.47214779 -0.14762729 0.64214349
-0.20077845 0.056714434 0.24809194
-0.79318368 -0.46719122 3.0116935
-0.38886914 0.049868617 0.87654972
0.21712211 0.055174746 0.4081955
-0.46466169 -0.21073033 0.91745472
0.32316175 0.040296681 0.41649103
-0.0040064156 0.056809485 0.41386604
2.3740332 -0.18231076 2.7922869
0.18289748 0.054852635 0.35897303
-0.36908063 0.058543235 0.51262236
-0.76774073 -0.15713671 2.9949384
0.40001372 -0.12541419 0.62609172
0.10240635 0.053498939 0.56364107
0.22387841 0.047730189 0.48089647
-0.40162095 0.064168766 0.50814581
0.42569599 0.035763953 0.88440561
0.29334602 0.040578414 0.38401222
0.46853068 -0.14127281 0.85376692
-0.1816152 0.05710607 0.48032451
-0.12981245 0.060450274 0.279773
0.32217106 -0.12921137 0.79410696
-0.19739816 0.050151676 0.61647224
0.18717238 -0.17251192 1.3667097
0.34525082 -0.052080926 1.2577019
1.3188566 -0.0035454594 1.5548353
0.21981499 0.047312595 0.42010069
-0.14072892 0.050586253 0.85297298
-0.85120726 -0.33496085 1.9560127
0.16299149 -0.1444075 0.77060151
0.34749284 -0.17089389 0.87712908
-0.61709809 -0.15901946 0.75863862
0.13342461 0.058083899 0.29517531
1.7686596 -0.40126887 2.3364792
0.14912096 -0.16043675 0.75120592
-1.0553509 -0.43027705 3.0913181
0.21364096 0.054120459 0.40089488
-0.6535567 -0.1701352 3.1402826
-0.57940626 -0.24479783 3.4668632
-0.52936947 -0.51753592 4.462522
-0.5716387 -0.31687006 3.8208866
-0.5886867 0.015913799 2.4446263
0.4612985 -0.18558308 0.94651556
0.40516409 -0.12795061 0.63796711
0.326628 -0.16081391 0.82379293
-0.83134341 -0.13739325 1.8274302
0.20034578 0.034676027 0.92216778
0.074634284 0.057402138 0.28314614
-0.23056921 0.051624756 0.48470974
-0.48238859 0.056703743 0.8599968
-0.13655183 0.05977625 0.27002764
-0.33622858 0.05000329 0.92652941
-0.52312851 -0.13170066 0.85395765
-0.20132592 0.056644272 0.24916029
-0.62156105 0.022685185 2.5629368
-0.68478215 0.010619812 1.8241992
-0.10430819 0.059317652 0.38852358
-0.5266484 -0.51011902 4.3830647
-0.49263999 -0.16476195 0.85080671
-0.99135828 -0.042143386 1.4178352
-0.759431 -0.028728958 1.6351862
-0.048666269 0.053329132 0.48652124
1.0685183 -0.02611348 1.8700271
-0.05990091 0.056077089 0.4026742
0.20807305 0.053011391 0.38976693
-0.4137322 0.062163178 1.1622529
0.069753498 0.056836385 0.27634001
-0.82409048 -0.28720316 2.1151619
-0.8257674 -0.45537356 3.0701003
-0.32125327 0.051370688 0.4387219
-0.43041727 0.068857342 0.61087966
-0.056067854 0.059870336 0.42622685
0.21513572 0.048521161 0.35014462
-0.11213633 0.057497952 1.1845369
-0.26826629 0.058903974 0.50786638
0.34133086 -0.14082725 0.94960213
-0.18566272 0.052358691 0.4643383
0.4543229 -0.13519554 0.82722282
-0.39819565 0.063298553 0.50254607
0.13561401 0.055084128 0.41828823
0.21197155 0.052220177 0.28896999
0.51099789 0.026223801 0.90922165
0.17922458 -0.1560244 0.78993917
-0.026438981 0.056064926 0.40361047
-0.52487314 0.046384081 0.65279317
-0.23572728 0.063493192 0.96052599
-0.054642975 0.05782989 0.27797198
-0.11611864 0.060802374 0.34435248
-0.72837365 -0.27120811 2.017374
0.33185074 0.021749571 0.82561779
0.18589386 0.058729433 0.33306265
2.6486597 -0.59668899 4.8941927
0.069128722 0.049597293 0.34885597
0.17496011 0.055788089 0.24842405
1.7737869 -0.40128729 2.34479
0.35560295 -0.14482889 0.64437056
1.9536264 -0.12410448 2.5765123
-0.74278498 -0.27622131 2.05686
-0.96784079 -0.093140811 1.2241621
-0.7898922 -0.24609271 2.8829737
0.31597665 -0.1655134 0.92699623
1.9151071 -0.37018582 2.3345661
-0.055047601 0.058225583 0.28046894
0.21388152 0.052475356 0.29210424
-0.024824709 0.052096568 0.36776471
1.4306463 -0.049091179 1.8255534
0.10428497 0.047506187 0.88637924
0.23165008 0.044416096 0.26497626
0.16537395 0.056819536 0.271029
0.17919686 0.056516506 0.31853557
0.1693894 0.054651003 0.39788246
0.20225218 0.042488575 0.50651455
0.088854104 0.057606563 0.24696827
-0.20836827 -0.01871869 1.3453307
0.17783055 -0.13394788 0.77150822
0.17115965 0.033803206 0.78212571
-0.48545811 0.05661644 0.92107964
0.29927871 -0.15513912 0.70918369
0.17759892 0.056505501 0.2531383
0.21761051 0.037865922 0.54876995
-0.027757972 0.057436526 0.41396427
0.19965634 -0.15052375 0.82644129
-0.96982586 -0.16317025 1.3872123
0.068950683 0.05010578 0.35953975
0.30614009 -0.13864481 0.72689986
-0.60876811 0.036183026 2.569468
0.0096392035 0.061096914 0.26117349
-0.12736163 0.069247365 0.37375498
-0.091336936 0.048029907 0.94797516
0.4677085 -0.15417165 0.8734498
-0.094338089 0.054553807 0.41230536
-0.83356905 -0.21593435 2.1692696
1.1827301 -0.1420657 2.422194
1.2951974 -0.10135606 2.104938
1.7911167 -0.064863324 2.491847
1.3103566 -0.10213417 2.1229753
-0.81162357 -0.15029466 1.8219919
1.7374955 -0.071060479 2.3381929
0.35472915 0.031687289 0.7829721
0.21315643 0.052280381 0.29087472
0.37147811 -0.10637674 0.91989756
1.7734677 -0.34230098 2.1551609
-0.82736194 -0.34653053 2.935997
0.0056408048 0.054679394 0.24560285
1.496948 -0.070553035 1.9167733
-0.69871819 -0.35634816 1.8571544
1.4768158 -0.028683376 1.9971061
0.07624498 0.055145446 0.39692807
0.21069494 0.053403504 0.39416718
-0.056106359 0.062702544 0.59191346
-0.6510427 -0.16807933 3.1031947
0.30354628 -0.084934324 1.2252045
-0.91531444 0.25293505 2.5849814
0.2462894 0.042696085 0.4480617
-0.83020902 -0.15036777 1.9537797
0.18925747 0.06115187 0.45292521
-0.98183501 -0.314863 2.992908
-0.10994825 0.060063537 0.31323457
-0.2032077 0.039133295 1.1088324
-0.056011468 0.060415834 0.42861652
0.031516761 0.0467772 0.86588907
-0.78068388 -0.077818766 1.6786098
0.15855077 -0.14113605 0.74899054
0.31781366 -0.16434687 0.92448521
-0.71782577 -0.17260152 1.1755381
0.7669946 0.029279828 2.1769028
