# .PCD v0.7 - Point Cloud Data file format
VERSION 0.7
FIELDS x y z
SIZE 4 4 4
TYPE F F F
COUNT 1 1 1
WIDTH 419
HEIGHT 1
VIEWPOINT 0 0 0 1 0 0 0
POINTS 419
DATA ascii
0.63916218 -0.10223459 1.2824646
0.65012401 -0.12552068 1.2735975
0.96165729 -0.30925605 1.3674002
-0.93020236 -0.012408415 1.8253776
-0.72749054 -0.058565691 1.2883409
-0.19916242 0.054757342 0.46186066
-0.62214756 0.01429816 0.80804086
-0.58875215 0.0030415086 0.79617059
-0.85723388 -0.10264627 1.2304162
-0.19080123 -0.071104981 0.51715887
-0.62368405 0.028602339 0.79894948
0.21936172 0.058833666 0.57002354
0.3247467 0.026681583 0.93152523
-0.76190996 -0.18180624 1.1395988
1.0242106 -0.28837067 1.4553233
-0.59918219 0.023203867 0.79477859
-0.82234842 -0.23046382 1.3988575
-0.76861352 -0.19016255 1.1204351
-0.88353419 -0.08554972 1.2708583
-0.85987824 -0.19528255 1.13333
-0.59972221 0.025719495 0.79711223
0.49972749 0.048091337 0.64417601
-0.88288593 -0.11131846 1.2532862
-0.58367765 0.023702307 0.81029391
-0.20662025 -0.055916645 0.5496031
-0.59964329 0.026259335 0.7967025
0.38812944 0.05132366 0.48855269
-0.89445513 -0.20213777 1.1978369
-0.85723805 -0.16668446 1.1476232
-0.76087552 -0.16258247 1.0864828
0.20160335 -0.25754988 1.3413917
-0.22018906 0.025826391 0.54469037
-0.81807232 -0.18793237 1.0648552
-0.74961549 -0.16120394 1.0596421
-0.87186849 -0.089646786 1.1939908
-0.85821909 -0.1852655 1.1595715
-0.18243715 -0.076125495 0.48839664
-0.22160733 0.056384869 0.47353709
-1.2029686 -0.085581094 2.0411868
0.20410946 -0.1510734 0.95717943
0.54904974 -0.030637441 1.6426126
0.14645995 0.063049197 0.46210778
0.37126803 0.037256964 1.3952713
0.3283574 0.035265684 1.2437323
-0.19725914 0.043223217 0.59566522
-0.9115423 -0.012782561 2.0216837
0.4862304 0.049870938 0.60619831
0.057247683 -0.21097524 0.94834864
-0.23838893 0.056308307 0.41063923
0.83938718 -0.10768083 1.3131089
-0.76279736 -0.16247836 1.0841219
-0.81172079 -0.031598546 1.9250585
0.20789665 -0.22378679 1.3707086
0.75797242 -0.18044831 1.3188783
0.43096662 -0.03458932 1.437574
-0.58959013 0.0055143442 0.86066031
0.37577099 0.035817668 1.3977691
-0.24230722 0.057000645 0.42202282
-0.19210017 -0.040108584 0.5241406
0.081525847 -0.19105868 0.92606211
-0.20209403 -0.055137873 0.52863407
0.48702407 -0.13002455 0.88304865
0.53130978 -0.16075015 1.4348966
-0.71721542 -0.16062425 1.0601988
-0.1666123 0.046445683 0.49654281
0.34670416 -0.13790734 1.3024646
0.37900537 -0.0024682637 1.3111559
0.25340736 -0.0065110521 0.3860144
0.21927434 0.058598027 0.37959623
-0.95302987 -0.12450369 1.9643143
0.48799446 -0.11609893 2.3174472
0.222776 0.043974429 1.5827764
0.25108388 0.059061907 1.1202257
-0.19973609 0.055409595 0.46393275
-0.83495766 -0.0294926 2.0946922
0.2151573 0.062196329 0.40821224
-0.1985282 0.027919015 0.58911788
0.84258795 -0.10887039 1.3196957
0.2136523 0.061328739 0.40293717
0.22541028 0.058653064 0.51360822
-0.88271362 -0.10522734 1.2663493
0.83390617 -0.17991108 1.3325959
0.59497666 -0.18825799 1.6122962
0.85924041 -0.15118112 1.3130503
0.3876994 0.051172443 0.4887743
0.86751086 -0.14897576 1.3209451
-0.7964381 -0.19192679 1.043559
-0.89421213 -0.014382375 1.9764353
-0.89273471 -0.009919906 1.9885231
-0.26634708 0.057537399 0.43326747
0.42408505 0.046246633 0.92954624
-0.19808425 -0.023779495 0.52843332
-0.92933059 -0.098766215 1.9502784
0.98192185 -0.19653726 1.4014667
0.25563675 -0.011979256 0.39319444
0.019401316 0.061046779 0.38594627
0.068240196 0.061295703 0.40151781
-0.93459177 -0.09387704 1.9875377
0.067431316 0.060671501 0.3944484
0.38645607 -0.23665158 2.4775553
-0.17787358 0.039481662 1.1174626
0.91802096 -0.16936608 1.4190357
-0.58501124 0.0059966817 0.82605028
-0.60288912 0.049812004 1.188071
0.40350091 0.053431161 0.96423233
-0.2078457 0.057625182 0.36015481
0.22799164 -0.10970049 1.1585867
-0.20520009 0.057300992 0.38416994
-0.049075395 0.056031644 0.77042103
0.38032579 0.049120925 0.95450699
0.21561499 0.060193978 0.41206622
-0.42380431 -0.16318868 0.95688784
0.15097243 0.061966054 0.68061781
-0.89581698 -0.012807747 1.9855083
-0.13984957 0.054581136 0.5391537
0.45808527 0.046364382 0.56116748
-0.24438292 0.057949811 0.334674
0.88025761 -0.15993392 1.3546028
0.48730385 0.051161267 0.61173689
-0.94160563 -0.10910386 2.0099549
-0.90265381 -0.014271708 1.9966458
-0.19717294 0.038198605 0.9211148
0.55444974 -0.15015459 2.6553936
-0.88927627 -0.086426444 1.9448985
-0.59208411 0.00069206022 0.79378223
0.60193175 0.067540094 0.92573845
-0.51565868 -0.22219132 1.0744497
-0.13681644 0.054157831 0.39434969
0.2303668 0.056675129 0.7033422
0.16618098 0.06553454 0.47636759
-0.40100461 -0.15409783 0.9882071
0.19907373 -0.31929204 1.5441571
-0.19822395 -0.22161679 1.1223661
0.3604039 0.050250895 0.9145478
0.13915895 0.059823371 0.66257298
-0.97519165 0.035436243 1.8110703
-0.8131659 -0.13572311 1.1314641
0.53123438 0.052168503 0.69201016
0.18921737 0.063558854 0.74679458
0.33949804 -0.049403504 0.95455909
-0.8202315 -0.21535233 2.1603103
-0.60243142 0.047149338 1.1848233
0.32003811 0.022474337 1.2600265
0.21609221 0.059920795 0.41298735
0.1408297 0.060615964 0.67709696
-0.42231789 -0.1994386 0.92458439
2.1694529 -0.35278767 2.5615706
-1.228857 -0.18023537 2.3690515
-0.19235316 -0.039718211 0.52612913
-0.87455052 -0.10965206 2.2510762
3.2284465 -0.5908289 4.279283
-0.081909649 0.056750923 0.34051973
-0.20937264 0.058477931 0.36466885
0.40370792 0.048846938 1.0218265
-1.0412028 -0.12355215 2.1840415
-0.1982366 -0.023635382 0.52795124
-0.27231902 0.059103526 0.34879601
-0.90600693 -0.0096244793 2.0264912
-0.39129597 -0.16618475 0.88149166
0.64875221 -0.0065374374 2.2093906
0.47456509 -0.05946961 2.5685906
-0.59489328 -0.21152091 1.0525601
0.33435181 -0.18869121 2.1018324
-0.19503015 0.055904225 0.48880911
3.3064868 -0.62003344 4.4039469
0.58144718 0.017826788 0.72363174
-0.10841813 0.057905942 0.31310236
0.32583618 -0.13320312 1.5645519
-0.19716093 -0.062054127 0.92121935
-0.85622692 -0.10176625 1.2309357
-0.20662346 0.042294085 0.52006471
-0.51009107 -0.20550269 1.0461107
0.59213817 -0.17990977 1.5528988
-0.19763136 0.0032473663 0.9117372
-0.90071064 -0.093393311 1.2460321
0.046949662 0.065174699 0.28961921
-0.19748813 0.055305652 0.45854068
-0.13042967 0.051137112 0.36610651
0.38209847 -0.16142952 1.4435869
0.084573805 -0.1903954 0.92106891
-0.055077258 0.05641003 0.54352903
-0.20434453 0.057601005 0.43743134
0.37297454 -0.16791867 1.7250425
0.31781504 -0.14437236 2.2895436
-0.12336659 0.051389746 0.89840543
0.065885663 0.061016805 0.30484647
0.28248397 -0.015813604 2.081265
-0.19881812 0.057973467 0.41191369
-0.24540606 0.057495005 0.43113613
-0.24924922 0.058726542 0.44115746
-0.59602267 -0.2125216 1.0538533
-0.062090337 0.061331347 0.40086466
-0.19365622 -0.061497346 0.52155185
0.36023137 -0.16873804 1.1816174
0.39357299 -0.17224362 1.7980558
-0.14285113 0.05955594 0.37212169
-1.0270509 -0.11066114 2.1854925
0.42184648 0.051736504 0.54139698
0.21949685 0.061142556 0.67681348
0.41454896 0.049710102 0.5410651
0.08251556 0.05784703 0.8391844
0.24916527 -0.16289249 1.5964984
0.6158638 -0.20154777 1.8358079
-0.17911345 0.040412419 1.1505418
0.63909954 -0.19545479 1.6831962
-0.049721967 0.056946591 0.79614317
-0.1029245 0.048598498 0.49304473
-0.53351444 -0.19057459 0.98926079
-0.90067482 0.051982485 2.0843253
0.067200035 0.062258653 0.30750954
-0.76483405 -0.16943079 1.0633395
-0.19969615 0.035775639 0.92832887
-0.30091643 0.0051454613 1.375104
0.17179456 -0.19879426 0.98774993
-0.50734508 -0.20407327 1.0389658
0.41397434 0.049987562 0.53977931
-0.85624349 -0.080835216 1.905634
0.81186569 -0.043004505 2.0743804
0.30847657 0.054577507 1.6794399
-0.1017752 0.058892287 0.39138669
-0.067240812 0.064821735 0.36768442
-0.062724255 0.061818667 0.35623413
-0.20023632 -0.021156823 0.50219691
-0.13982412 0.054530621 0.5367806
-0.54234231 -0.19262396 1.0084202
-0.19089508 0.056962281 0.49045193
0.48656648 0.048998095 0.61168087
-0.95627832 0.031850729 1.7816774
-0.18424296 0.011326019 0.88070571
-0.044656444 -0.17971142 0.91980278
-0.0055019376 0.057490639 0.59081769
0.29341078 0.050144717 1.5570308
-0.91068673 0.0025361832 1.9492446
0.13970676 0.059594646 0.65820944
0.23228994 0.050980486 1.7301372
-0.20615694 0.05759456 0.44218194
-0.69884503 -0.13224265 1.0168453
-0.18485412 -0.049429014 0.90941024
-0.1400269 0.058569297 0.36305428
-0.18866616 0.05582568 0.48343253
0.10264294 0.062180005 0.30686665
-0.52089691 -0.22373821 1.0827888
0.24576223 0.057590604 0.28630495
-0.10671456 0.051651187 0.60510409
-0.164318 0.059084333 0.35944402
0.4949142 -0.12756601 1.2847129
-0.073608711 0.0630344 0.32228279
-0.59641576 -0.18697952 1.1041939
-0.61838955 0.025295656 0.82403994
0.1807311 0.070067756 0.51666057
0.537063 0.048029967 0.62714291
-0.18568337 0.050193459 0.56937301
-0.21388023 0.048315868 0.3064217
-0.41008028 -0.18487857 0.91141081
0.2594586 0.055752009 0.37045187
-0.40606144 -0.18364093 0.90089083
-0.95901352 0.02623984 2.0472598
0.20064169 0.065465994 0.32052594
-0.18866076 0.050872371 0.57994103
-0.5544427 -0.221668 0.98677719
0.35386592 0.050292455 0.89952862
-0.54123837 -0.22648047 1.0304402
-0.21422866 0.057479821 0.45120978
-0.86230963 -0.089218222 1.183889
-0.41203335 -0.17438751 0.93353117
-0.19054054 0.04637678 0.50336969
0.2207256 0.055336945 1.6795686
0.30816382 -0.17592323 1.9353679
-0.18251638 0.053624064 0.4642086
-0.62888914 0.029665703 0.80878067
-0.19676226 -0.057384521 0.9003402
-0.26662585 0.05962842 0.40627772
1.1687183 -0.22347336 1.6331643
-1.4284906 -0.088691026 1.8724955
-0.43613571 -0.14654146 0.97963917
0.14894795 0.064524904 0.47099674
-0.97940016 -0.14154428 1.8972431
-0.58686554 0.0069404989 0.82690895
0.22086805 0.058870606 0.57254386
-0.64108694 0.059659466 0.83782613
0.42599222 0.051077068 0.58260155
-0.59185499 0.0026816111 0.79957402
0.56954706 0.010097943 3.2752647
-0.7041204 -0.13383584 1.0380028
1.129723 -0.24767366 1.5882691
-1.3490741 -0.17577378 2.5368433
-0.1785078 0.039802186 0.42294407
-0.21143991 0.059329748 0.36976218
0.38170743 0.040682338 0.78895152
0.30131802 -0.073219687 0.52171564
0.21207422 0.059285924 0.40438634
-0.7556079 -0.21304516 1.297183
0.8195349 -0.033916898 1.929058
-0.16113508 0.057922304 0.35123372
0.22147949 0.057176203 0.50293684
-0.061942048 0.061139666 0.39575392
0.83498943 -0.045457236 2.1404033
-0.69518644 -0.13046347 1.0119988
0.23796034 0.043518059 0.56745028
-0.81240863 -0.032179683 1.9990324
-0.070181444 0.060533397 0.30323035
-0.061396532 0.061066173 0.39945138
-0.86164558 -0.10156489 1.2324523
-0.24225643 -0.23323523 1.1114637
-0.11112086 0.057078727 0.35525119
-0.27217314 0.060735717 0.41669828
0.26572046 -0.01513957 0.36487663
0.64808822 -0.091072783 1.4122732
-0.16618203 0.059834935 0.36539453
-0.11601622 0.05707176 0.65178037
0.52972901 0.047729634 0.61698544
-1.0370549 -0.15053456 2.0180182
0.065641999 0.060949229 0.29676491
-0.57391554 0.0017406447 0.77027726
-0.19581379 -0.040253408 0.53917718
-0.4569954 0.066466637 0.70526612
-0.09846767 0.056448087 0.25804383
-0.26074481 0.056618266 0.42456055
-0.6627847 0.062100783 0.86859739
-0.95739782 0.021571046 1.9758769
0.21959038 0.058516778 0.57054305
-0.086030118 0.058666848 0.35901582
0.22095944 0.058957405 0.38309699
-0.57073593 -0.21984264 1.0788306
-0.06288261 0.062186264 0.35744596
-0.18802585 0.022069616 0.53912067
-0.063100956 0.059158459 0.54439032
-0.12278321 0.050753698 0.48213267
0.21679212 0.059763595 0.67225099
0.26331586 0.057331122 0.37780344
-0.068735614 0.066198729 0.37649363
-0.1884111 -0.039110325 0.51534164
0.45878783 -0.11885766 0.55294776
-0.8342343 -0.10350186 1.0139651
-0.21603487 0.059671819 0.41885406
-0.14187127 0.055586323 0.54653478
0.32215086 0.019502496 0.55407381
-0.70051557 -0.13146479 1.0203207
-0.14557329 0.057810009 0.41339403
-0.10886782 0.05789949 0.31478864
-0.60318494 0.0021484559 0.81698024
-0.57230437 -0.232899 1.1821578
2.115423 -0.3437086 2.4923458
-0.45750937 0.066173151 0.71105027
0.49149835 -0.069740355 1.2071395
0.43158364 0.053935692 1.0300146
0.45656499 -0.1198225 0.56095409
-0.1901122 0.022370799 0.54520154
-0.20406368 0.05696746 0.38202
-0.20164298 0.056530476 0.47099435
0.35434645 -0.023369962 1.5631245
-0.57763839 0.0063169049 0.81320739
-0.83595908 0.021969246 1.8778876
-1.2936808 -0.17321587 2.590487
0.83613998 -0.031099303 1.9860135
-1.4785093 0.40734684 3.1591787
-0.58186972 0.061355576 0.9942075
-0.13016698 0.056489088 0.30029637
-0.92797601 -0.031825311 1.8589593
-0.19896844 -0.063253887 0.93046248
-0.19473438 0.054121733 0.4534744
-0.99784017 -0.12392389 2.1319714
-0.59991968 -0.17575139 2.1374812
-0.7310338 -0.18789175 0.98483706
0.59913212 -0.16469176 1.364302
-2.540544 -0.19198485 4.2457886
0.21788371 0.058555223 0.40518409
-0.093875878 0.057826906 0.30476171
-0.16550307 -0.079894505 0.93314064
-0.59294909 -0.1877892 0.90877175
-0.55547327 0.030561442 1.2533258
-0.46594733 -0.13202788 0.80154085
-1.0761257 -0.10881469 1.7540981
-0.045355555 -0.18223876 0.92777205
-0.9306128 -0.011224292 1.8261927
-0.71083921 -0.15714568 1.1622884
0.50738353 0.061257534 0.70443904
-0.10584939 0.046048068 0.77588618
0.20160793 -0.19690154 1.2823085
-0.24212524 -0.20823258 1.0035559
0.46771306 -0.1220459 0.56494665
-0.69026303 -0.14713246 1.0254329
1.3300008 -0.24240351 1.8517305
0.065339245 0.060453169 0.29774797
-0.1981357 0.048107654 0.52664924
0.26731122 0.061043017 1.3024527
-0.56367391 0.011774404 0.8282311
0.9165594 -0.20427337 1.3907398
-0.76909357 -0.15194011 1.0243963
-0.15651031 0.055360653 0.3546316
0.14349011 0.0550045 0.38970262
-0.60752904 -0.17414655 1.0631632
-1.2588481 -0.27229685 2.4045129
-0.47877616 -0.15954407 1.0967311
0.4194316 0.049935862 0.57334793
0.21415466 0.057369947 0.37068129
-0.17973667 0.04240381 0.28571755
0.67982924 -0.022010684 3.0446153
-0.10086402 0.056263134 0.59255636
-0.56482828 0.060171038 0.96096826
0.16346474 0.064350396 0.46517015
0.20747045 -0.0092236884 0.30716515
-0.62136495 -0.19603525 1.0224285
0.35750613 -0.16144024 0.78062618
-0.242195 0.057721749 0.41973537
-0.91308153 -0.13028423 1.7664727
-0.10812838 0.055245236 0.34657514
-0.93881446 -0.10615315 2.0140066
0.34693402 0.034707248 1.024586
-0.17569882 -0.068411067 0.53918374
-0.20589571 0.057871677 0.38785857
-0.16045046 0.057026461 0.36628598
-0.066257484 0.061459087 0.57132685
0.42332423 -0.18477656 1.7844557
-0.71207428 -0.19062252 1.0203955
-0.10490997 0.056239039 0.29947555
-0.22424044 0.052074663 0.36732137
-0.98941439 -0.1432445 1.9210984
0.43239394 -0.13132001 1.8320607
