# .PCD v0.7 - Point Cloud Data file format
VERSION 0.7
FIELDS x y z
SIZE 4 4 4
TYPE F F F
COUNT 1 1 1
WIDTH 501
HEIGHT 1
VIEWPOINT 0 0 0 1 0 0 0
POINTS 501
DATA ascii
0.60099763 -0.11105231 0.90818995
0.6163395 -0.13500929 0.91170591
-0.97742206 -0.01350041 1.4154167
-0.63538688 0.047300033 0.78660005
0.33671364 0.031463657 0.62489718
0.70642388 -0.16971931 0.9043265
-0.96196872 -0.079310842 1.2529962
0.33528197 0.027484886 1.0273416
-0.91295069 -0.015422064 1.492806
0.80208206 -0.11965914 0.95234078
-0.86031735 -0.034207437 1.5134084
0.33569124 0.025986798 1.0081129
0.49261397 -0.17278938 1.069459
0.31452578 -0.14997321 0.95327085
-1.0110866 -0.12675777 1.5644839
0.22078896 0.052219547 0.73404378
0.48417151 -0.0013032099 2.0905428
-0.83308864 -0.027333289 1.5423043
0.80162412 -0.11983959 0.95192391
0.33432865 -0.15051955 1.0579877
-0.94317907 -0.017273583 1.5611348
0.2075486 -0.26759022 1.4485459
0.23831931 0.038795099 1.0867329
-0.97853857 -0.094207816 1.5570612
0.37037337 0.046216108 0.56690055
-0.89763111 -0.14738348 1.9181454
2.8813422 -0.55969149 3.8220189
-0.92202747 -0.01499083 1.5154295
-0.96900767 -0.1079411 1.5405231
-0.21730825 0.037532553 0.51797825
-0.92062479 -0.10509264 1.8301637
-0.92364806 -0.10732318 1.8345201
-0.91804761 -0.17507854 1.8265438
0.33788908 0.044934534 0.54309577
-0.85292983 0.0066036317 1.8160694
-0.89811665 -0.14908443 1.9106724
0.76309073 -0.1569277 0.91472596
0.13609594 0.056631971 0.49438566
0.4137131 -0.080013283 2.2651036
-0.95448226 -0.11650766 1.8840523
-0.22239649 -0.062345833 0.53793555
0.31734401 -0.15768892 0.9508937
0.31695104 -0.17393115 1.295007
0.061338052 0.056270406 0.45790106
-0.93429148 -0.026880197 1.8643126
-0.92552954 0.047019403 1.6061349
-0.89757818 -0.082543731 1.4773679
0.23868832 0.038468663 1.0818732
-0.21236822 0.011706812 0.52290493
0.24558397 0.039398901 1.1329265
0.19777796 0.042216852 1.4779403
-0.20799267 -0.048901938 0.51848954
0.48900127 -0.14865576 1.0154178
-0.23410374 -0.06246382 0.57936662
-1.3405114 -0.1785734 1.9707901
-0.9180885 0.0065091662 1.9286985
-0.84984958 -0.032883812 1.5562527
-0.98532647 0.019101238 1.5179636
-0.91201276 0.018662926 1.5288393
-1.2883054 -0.16506548 2.0190704
-0.059938908 -0.41809234 2.3877609
-0.96803945 -0.033254717 1.4314787
-0.21694064 -0.062001847 0.51303428
-0.97596914 -0.012586192 1.4120195
-1.2695017 -0.26432568 1.8787732
0.52464545 -0.030490287 2.2576282
-1.0261049 -0.14102989 1.4832225
-0.9581573 -0.10517412 1.528183
-1.035133 -0.14335054 1.4972796
0.36899048 -0.1392708 1.3911455
0.23626965 -0.26032668 1.6263256
-0.12474033 0.05980254 0.40288633
-0.060322464 -0.41441321 2.391876
0.2442452 -0.20179093 1.5379817
0.15055948 0.050291266 0.82674307
-0.057170466 -0.39918318 2.2991765
0.8321628 -0.065002106 1.8065538
-0.91985935 0.017131045 1.5430205
-0.21941534 0.0029878346 0.52100176
-0.054885313 -0.3942261 2.2549436
-0.93514788 -0.089838907 1.5238767
0.39235538 -0.1386418 1.488404
-0.2112788 -0.036436953 0.52440232
0.41575041 0.036319125 0.82002646
0.34146583 0.042516831 0.75994009
-1.0162055 -0.096136585 1.421701
0.59539324 -0.13971928 0.9241994
-0.29261243 -0.37864578 2.3576736
0.26023293 -0.18748026 1.4716144
-0.50863129 0.037004393 1.4274864
-0.98416823 -0.12860483 1.5090716
0.23980069 -0.033222213 2.6243145
-0.21961497 0.039898388 0.52685791
-0.99880117 -0.05529397 1.4044251
0.37565178 -0.13520682 1.4175982
-0.24839264 0.024381809 0.50271624
-0.12626021 0.054338373 0.35900635
0.19049154 -0.25917542 1.3822725
0.26352298 -0.17786969 0.87439722
0.63006198 -0.036196597 1.0034738
0.25777665 0.053290758 0.4161014
0.45401534 0.04151326 0.56888992
-0.43065149 0.057733033 0.84411317
0.30241978 0.031933259 0.56530052
0.34351933 -0.18827528 0.9404785
-0.12379313 0.059496727 0.38592392
0.74416298 -0.019400336 1.1447582
0.62752444 -0.15485026 0.89661187
-0.50740248 0.03736807 1.4204035
-0.24365896 0.053293332 0.46329612
0.29245996 -0.16703449 1.0673635
0.35436887 -0.17115632 1.2438917
-0.89649659 -0.14468859 1.9173517
-0.99175066 -0.053450532 1.3912797
-0.93116808 -0.029359061 1.8631098
0.21699855 -0.24294765 1.5418735
0.55688763 -0.15706238 0.94882494
-0.9041881 -0.2317889 1.8199492
-0.2184303 0.037324164 0.52233511
0.37404701 -0.24383347 2.4443297
0.77567792 -0.034549724 1.0022025
-0.23581198 -0.33167982 2.3586743
-0.26635194 -0.21561572 2.2158444
-0.16711269 -0.32946831 2.5822759
0.80056566 -0.11971433 0.94354826
0.15167014 0.050362695 0.82742387
-1.0206308 -0.08030609 1.3907342
-1.2899934 -0.26614931 1.842602
0.34377342 0.016009502 1.2621367
-1.2939318 -0.26547581 1.8450332
0.54869348 -0.022783507 0.74833685
0.67794943 -0.11752819 0.89057058
-0.064497508 0.054909702 0.44225317
0.1335157 0.060117688 0.28546518
0.2396414 -0.050863199 1.3812699
0.58911854 -0.1306625 0.99231571
-0.23996699 -0.28873768 2.3650401
0.28725404 -0.016269397 0.95813578
0.49281067 0.039465476 0.62638837
0.67259324 -0.11698516 0.88330597
0.5826813 -0.11398634 0.96789378
0.32706729 0.04466819 0.47397369
0.13891377 0.057715803 0.50489181
-0.14802414 0.05267426 0.56446928
-0.22407705 0.054215197 0.48745376
-0.1689678 0.044364646 0.4750157
-0.061947271 0.053535115 0.67684346
-0.92937976 -0.025457006 1.8304386
0.069715545 0.051365569 0.70960897
1.676561 -0.12407959 3.541199
-0.27952343 -0.21646501 2.2708333
0.6626305 -0.1706755 0.90269548
-1.0267431 -0.014264335 1.390384
-0.90331835 -0.2855601 1.8036904
-0.96162832 -0.27630872 1.8966095
0.093252271 -0.0030917106 1.9370728
-0.43132553 -0.020972952 2.6234422
0.67258918 -0.11793163 0.88347369
-0.22469825 -0.046246409 0.53156656
-0.24402758 0.050191455 0.39695889
0.23677477 0.044735298 0.68583697
0.44509155 -0.21323475 2.8098099
0.36423033 -0.23698805 2.3682401
-0.24939159 -0.042499129 0.97679371
-0.073701628 0.057626832 0.41156358
0.24798161 0.0530122 0.38157064
-0.38344771 -0.14085598 0.63238782
0.38405353 0.048165288 0.56200522
0.32240647 -0.17019375 1.2854536
-0.057580307 0.052367378 0.6989066
0.55807275 0.034906641 0.81619006
0.31163603 -0.19001397 0.94229895
0.24634023 -0.20508924 1.3019912
-1.0561727 0.023983818 1.8273668
-0.28662491 0.054074131 0.39218527
-0.94005746 -0.078707732 1.4758139
0.6116451 -0.0097490335 0.98177129
0.59507555 -0.14066002 0.926516
-0.21966526 0.042086471 0.90614778
-1.1637911 0.011009224 1.4388022
-0.99305755 -0.27894011 1.9865494
0.67789322 -0.11621559 0.88953227
-0.24294385 0.052291382 0.46232277
-0.94394797 -0.27747032 1.8571661
-0.98609477 -0.092954047 1.6398916
-0.90378737 -0.03342377 1.6764705
1.4870623 -0.10718855 3.8902733
-0.50968105 -0.012298794 1.8208156
-0.16554874 -0.21194956 2.1382425
-0.67956674 0.017755605 1.3839617
0.45852536 0.04168129 0.56676143
-0.60010391 -0.27126312 1.5808363
0.74005407 -0.18279724 0.93120545
0.15928656 0.053823061 0.62455302
-0.93451959 -0.018985167 1.5407519
0.35675824 -0.17278242 1.2607191
0.61687517 -0.09984757 1.0777881
-0.2602495 -0.38628063 2.3099813
0.26296511 0.051026858 0.39253861
0.31391811 -0.19230732 0.95285481
-0.2920292 0.055040374 0.40292388
-0.99408084 0.038336694 1.756505
-0.1104071 0.050954979 0.91501194
0.18795708 -0.31793553 1.4499643
0.27442077 -0.17471406 1.2344556
-0.16208972 -0.30702358 2.6591654
-0.22070873 0.040877271 0.90964633
0.49530318 0.039773852 0.65321654
-0.18957651 0.053311478 0.42209107
0.13523312 0.060765095 0.28806299
0.20533165 0.054772649 0.30568343
0.52317435 0.040246069 0.61334997
-0.21630892 0.038157459 0.51753527
-0.41565615 0.062225387 0.66275078
-0.1905714 0.054388195 0.26071101
-0.070066527 0.061831318 0.26057857
0.79219478 -0.17488083 0.93608719
-0.18206914 0.050020128 0.50498921
-0.35747114 -0.1373817 0.64080769
0.32741779 0.033982769 0.57385045
-0.26806256 0.053743009 0.437249
-0.17373139 0.054106817 0.38574344
-0.12434025 0.060046006 0.38706189
0.49205527 0.039611142 0.64815956
0.099328883 0.06000175 0.29195875
-0.21602389 -0.060120322 0.51326543
0.33765164 0.034456182 0.59564072
0.32105425 0.0312225 0.42139834
-0.1275629 0.054026209 0.36491328
-0.22876075 0.053475793 0.46923524
-0.11706889 0.057947159 0.26007897
0.16053098 0.058049634 0.41793591
-0.19025446 0.05443183 0.25987238
-0.1339837 0.057928544 0.39171022
0.29842952 -0.10455995 0.53177673
-0.15742378 0.054331359 0.28081936
-0.29162356 0.054872636 0.40415591
0.31066805 -0.06159544 0.5529266
0.17691965 0.0089515224 0.53958517
0.7769106 -0.13722636 0.92866236
0.719392 -0.16050564 0.9230147
0.3674354 0.044896848 0.56142467
0.31839168 -0.19517349 0.97245044
0.36221772 0.036728758 1.1459911
0.13451065 0.056520082 0.48511285
-0.15004782 0.054966133 0.35891789
-1.3015798 -0.26932839 1.8605819
-0.1491005 0.049071364 0.6153515
0.23789158 0.045463819 0.6922788
0.83776176 -0.083646514 1.2683797
-0.96110314 -0.10480739 1.5357447
0.22966552 0.049317654 0.85870451
-0.20681614 -0.05029121 0.5200842
0.72460985 0.0099163922 1.9439263
-0.87284565 -0.02854874 1.8640294
0.1870445 -0.17193036 0.94954175
-0.046413146 0.057572708 0.43157798
-0.0046104062 0.059911888 0.44270641
-0.0047653932 0.059243847 0.43757802
0.22301096 0.051829714 0.73995978
-1.0002378 -0.07415159 1.4291985
-0.9787491 -0.010505236 1.4131181
0.25665316 -0.16193657 1.15172
-1.019001 -0.12551832 1.5139787
0.20630766 -0.23956119 1.2897198
-0.09636008 0.049257219 0.89007062
-1.0264331 0.017845949 1.7314155
-0.061126485 0.053419001 0.71476716
-0.20395446 0.049768917 0.51227051
0.19609699 -0.25100225 1.4885218
0.46862352 -0.182045 2.1434646
-0.93961442 0.016277479 1.5767295
0.0092366245 0.057568729 0.42860669
0.70993245 -0.038056158 1.1431894
-0.16063003 0.051807255 0.9635883
0.33079886 -0.14731511 1.7478056
0.41801175 -0.22104 1.9950967
0.16398783 0.045430426 1.1499972
-0.22322279 -0.045402925 0.52600175
-0.26103768 -0.38645825 2.3033307
-0.37588453 -0.1855927 2.2977703
0.68651795 -0.021043945 1.6036873
-0.13628803 -0.33724594 2.8216944
-0.17783689 -0.2774621 2.5266619
-0.22397521 -0.26859906 2.1980875
0.60112911 -0.11324278 0.91437882
-0.14270858 -0.32866532 2.6980181
0.43730801 -0.17412627 3.5835373
-0.26820827 0.053978197 0.44266683
0.78109062 -0.16620374 0.94396406
-0.19745193 -0.073880449 0.5348224
-0.2738204 0.0554775 0.41045779
-0.087002859 0.060764011 0.34700757
0.65826666 -0.17593959 0.87474328
-0.18577787 0.04353093 0.52522665
0.6474883 -0.12697168 0.86380082
0.15442809 0.057649646 0.42207962
-0.31539553 -0.27269822 1.5438113
0.22909467 0.04847892 0.85387427
-0.14944971 0.055279739 0.44566828
0.32386649 0.017972162 0.6146552
0.00045387261 0.059891194 0.26139194
0.27319694 0.050431985 0.40976804
-0.27359363 0.055539548 0.45266825
0.64165729 -0.14220552 0.86209327
-0.15571904 0.054722287 0.29523784
0.7551437 -0.12627423 0.99489814
0.40159371 -0.20386092 2.2431653
-0.23119831 0.050703313 0.55194038
0.21993813 0.048197061 0.72539574
-0.21824273 0.048285972 0.51313251
0.25465506 0.051837813 0.36678118
-0.21948376 0.053208705 0.47629577
-0.16191493 0.055838045 0.29365987
-0.16110206 0.055874534 0.26621944
-0.24137685 0.033840701 0.57230645
-0.19024047 0.047934156 0.52360827
0.097259887 0.058853675 0.28333968
-0.25657719 -0.39316726 1.8853858
0.30855441 -0.0099063078 0.5592708
-1.2920846 -0.26822475 1.8502374
-1.269857 -0.26576263 1.8614902
0.31666774 0.032425418 0.54642767
-0.19391036 0.049134091 0.64492208
-1.1420735 0.007645614 1.4270227
-0.85980254 -0.075064965 1.153343
-0.52439231 -0.040369038 0.7037484
0.28189451 0.029074635 1.6256592
-0.1405983 0.05062753 0.52310461
-0.065291479 0.053705066 0.36711377
-0.91480881 -0.26648164 1.8081851
-0.84296209 -0.03540853 1.5374486
-0.17911308 0.047247726 1.1973519
0.25962189 0.05003804 0.51316577
-0.9806208 0.037808377 1.7258532
-0.22765845 -0.3123444 2.2160113
-0.21954823 0.040790327 0.52567536
-0.99638444 -0.29817435 1.9719217
0.11907424 0.040387712 0.65076977
-0.9440971 -0.08140146 1.4834082
0.35474688 0.065816507 0.50339073
-0.41832584 0.056928437 0.8182829
0.30883825 0.009819502 1.0936966
-0.88060349 -0.031137377 1.5748434
-0.27747348 0.056842163 0.45711797
-1.0214297 0.019521156 1.4167004
-1.0775131 -0.0071414327 1.4060278
-0.13384894 0.05251069 0.45216745
-1.1342126 0.0082510356 1.4167144
0.58315319 -0.11606918 0.83410913
-0.96465021 0.053503361 1.7241812
-0.56651109 0.057379819 0.939179
0.34943265 -0.17436478 1.055706
-0.94907933 0.0084331892 2.0787013
0.015586628 0.047573172 0.94440025
0.33419293 -0.20417035 0.97220629
-0.69625252 0.059430972 1.3315637
-0.50657624 -0.0076937946 1.813436
-0.25750184 -0.20471145 2.0984659
0.23800762 0.045580696 1.1487169
0.63655311 -0.048908081 0.88887817
-1.0546801 -0.016668942 1.3838007
-0.17478207 -0.33617428 2.0516391
-2.7693 -0.38342673 3.8075006
-1.0401798 -0.014312833 1.4070761
0.45374277 0.045538586 0.6417821
0.80228716 -0.055832401 1.2084405
-0.19265731 0.048872437 0.63831943
-0.40849513 -0.13892399 0.61674482
0.36039329 0.047023803 0.53117281
0.73984408 -0.062918507 1.7099118
-0.95543593 0.054508563 1.4265566
0.27523229 0.054123219 0.38039607
0.66945022 -0.11645377 0.8773635
-0.14183304 0.054345664 0.36516124
-0.19358024 0.011703248 1.1573741
0.24546877 0.051941656 0.39880866
-0.068726733 0.061102323 0.25574428
-0.1852423 0.055714469 0.24196297
-0.88561124 -0.028878868 1.8970709
-0.92527717 0.019085897 1.5513887
0.32618558 0.03615262 0.54032749
0.27452809 0.050813366 0.41245109
-0.049922988 0.045646418 0.79943401
-0.0018903483 0.057282716 0.42606968
0.71073514 -0.040556066 0.98502237
0.56920493 0.026220724 1.3771083
-0.15498601 0.054955129 0.23190695
-0.19341971 0.027284224 0.52226573
0.1962194 -0.29214007 1.4385705
-0.18111581 0.051107038 0.52504736
-0.11093846 0.063684598 0.3488906
-0.91285491 -0.23373558 1.8437672
0.13671407 0.058179401 0.49499232
-1.025799 -0.030473758 1.404767
-0.1770508 0.0449972 0.93791503
-0.90299696 0.011575872 1.8844252
-0.21907763 -0.42366177 2.7053149
-0.88665986 -0.022154376 1.5511684
-0.14781286 0.033996198 0.7084381
0.16698703 0.05951912 0.43207651
-0.20270421 0.048463345 0.41007823
-0.18858078 0.040866647 0.31288105
-0.073716179 0.05796013 0.48227483
-0.91666692 -0.10854331 1.8130178
0.31742072 0.0050634909 0.56523269
-0.95797271 -0.035852656 1.4472075
-0.18177646 0.055409104 0.28463763
0.2346828 -0.18064658 0.99741346
-0.14588107 0.05566569 0.37834305
0.073776476 0.054515067 0.76465732
0.17867182 -0.16370471 0.90647608
-0.71676493 -0.22718188 1.4377952
-0.30243015 -0.39199471 2.4541562
0.60995853 -0.143767 0.91254288
-2.661164 0.77690536 3.4775903
-0.50406539 -0.048824307 1.8242261
-0.30743092 -0.26928505 1.5223494
-0.90115929 -0.19288068 1.9650223
-0.23199669 -0.20805416 2.1788709
0.39901221 -0.0017613573 1.466105
-0.12266099 0.056229562 0.23886985
-0.99847502 0.046305522 1.4038038
-0.20993298 0.00038368348 0.53923649
-0.39644274 -0.14480284 0.69830114
-0.53548801 -0.011433088 1.9236612
-0.23349634 -0.095031314 0.54805344
0.65967464 -0.055584572 1.5429828
0.30501568 -0.0080349697 0.55106038
-0.14288343 0.053283062 0.42352098
-0.018618928 0.064538009 0.3308689
0.42338431 -0.17471066 2.2073829
-0.062335238 0.053441543 0.43396717
0.37087107 0.042576469 0.63140184
-0.25345558 -0.38586316 1.853864
0.31137496 0.0022930941 0.55827767
-0.99920756 0.050885297 1.4677157
-0.19793336 -0.22888699 2.4255168
0.58615547 0.057682566 1.471276
-0.16833788 0.055316851 0.24281627
-0.13713357 0.059312187 0.39955205
0.83185124 -0.21834208 0.9974001
-0.123858 0.056708794 0.2420848
-0.86041403 0.072411984 1.7180314
-0.13852638 0.059756007 0.29962093
-0.16139001 0.053347055 0.37432498
0.17659102 -0.17839544 0.89156991
0.62117279 -0.12633932 0.9716484
-0.14324808 0.058868565 0.46017057
0.168869 0.055629082 0.95361716
-0.31373745 -0.3671042 1.818763
0.18295467 0.059783593 0.43143409
-0.24417651 -0.42568463 2.457552
-0.017934846 0.061395112 0.31151289
0.23975949 -0.20990698 1.335726
0.45961112 0.035286978 1.0195115
0.7647925 -0.12379713 0.93876249
-0.21433741 -0.044201624 0.52179545
-1.0953857 -0.1472249 1.567019
-0.026740892 0.05442122 0.41473299
-0.13560113 0.056909099 0.28289753
-0.17319217 0.054256577 0.36466819
-0.1196378 0.053220186 0.68463653
0.61437362 -0.13426217 0.90797645
-0.22055843 0.0036344053 0.52569705
2.687237 0.33121341 4.7585154
0.58825397 -0.12793078 0.93720204
0.015698304 0.059171829 0.44317621
-0.9461475 -0.24362911 1.9056532
-1.0115165 0.051492125 1.4876766
-0.069133177 0.060236044 0.29949063
-0.29983857 -0.28014567 1.6760397
-0.22912684 0.033508562 0.54024154
0.33915585 0.02491257 0.71327299
-0.17193462 -0.097745575 0.52224547
-0.16298817 0.053937063 0.37941533
0.37024769 0.045007639 0.56242436
0.32300067 0.035577927 0.53320509
0.43583602 -0.14094675 1.144547
0.62515813 -0.15830442 0.87086993
0.79719442 -0.17052837 0.96248621
0.30161709 -0.0095300367 0.54390985
-0.21318161 0.0033008568 0.5057705
-0.18898614 0.054193448 0.2839424
0.62310082 -0.03052602 0.8745361
-1.0560529 -0.10106517 1.5476832
0.27082908 0.052277438 0.37434906
0.35115632 0.035245866 0.61183637
0.26734233 0.053524025 0.40422779
-0.93447107 -0.03106226 1.877665
0.31910008 -0.17103511 1.0606127
0.34983891 -0.12067366 1.3029203
-0.27975863 -0.26910421 2.0254169
-1.0147351 -0.016754285 1.4730861
-0.12839204 0.042383432 0.78919536
-0.78188807 -0.24862932 1.5736878
-1.0834486 0.065508887 1.6754413
0.31359228 -0.11559358 0.93535954
-0.22436899 0.033845253 0.52440256
-0.12723795 0.055919699 0.28624874
0.25558808 -0.17140001 0.85107929
