# .PCD v0.7 - Point Cloud Data file format
VERSION 0.7
FIELDS x y z
SIZE 4 4 4
TYPE F F F
COUNT 1 1 1
WIDTH 528
HEIGHT 1
VIEWPOINT 0 0 0 1 0 0 0
POINTS 528
DATA ascii
-0.98352838 -0.0058906619 1.258587
0.31619984 0.029711489 0.83291066
0.32273728 0.028811932 0.84598875
-1.0105658 -0.11648227 1.3915478
0.2147124 0.055515856 0.59587836
0.5080654 0.0064963521 2.1841693
-0.80486828 -0.021769131 1.2995075
0.34524661 -0.15528294 1.037779
0.5261324 -0.18992235 1.0619787
-0.947119 -0.010114223 1.3962616
-1.2698318 -0.24846643 1.7097126
0.23020855 0.043046288 0.95315039
-0.90908426 -0.13771383 1.7621385
2.9780693 -0.5788191 3.9162111
-0.93490487 -0.0072763953 1.3707808
-0.97557235 -0.099348061 1.3816937
-0.94932508 -0.080621749 1.3813049
-1.1913351 -0.15505259 1.5705968
-0.88236326 0.014921342 1.7120501
-0.84894812 -0.02200718 1.3103226
-0.90267026 -0.13816735 1.737048
2.776829 -0.49366179 3.5188169
0.80808818 -0.062100008 1.6426393
0.39465013 -0.07196974 2.1196299
-0.22608984 -0.058578141 0.39189434
0.54672784 -0.19024593 1.058926
0.58053905 -0.20185393 1.1874493
-1.4663885 -0.18413788 2.0113792
0.2606996 -0.033548497 2.2936025
0.057377834 0.059068985 0.31970143
0.21772006 -0.18744783 1.3019546
-0.90752292 -0.074997962 1.3269769
0.22920114 0.042748682 0.93842471
0.23392746 0.043487661 0.97715247
-0.95410854 0.0073969206 1.3531743
0.19412066 0.04788103 1.4330601
-1.1237087 -0.14363085 1.4904171
0.76509416 -0.051087119 1.8701707
-0.84372532 -0.025783079 1.3659152
-1.0395225 -0.13475713 1.3347119
-0.93208718 0.026169039 1.3957638
-1.3191388 -0.15376809 1.8977238
-1.0014191 0.090054385 1.8830124
-0.07902801 -0.41069174 2.2591462
-0.97107792 -0.025332415 1.2682909
-0.22122818 -0.058693841 0.37005901
-0.66334093 -0.17299785 1.5651637
0.20815511 0.051754713 0.66550124
-1.2825826 -0.25391835 1.7256809
-1.0215452 -0.13189013 1.3031584
0.35747039 -0.13447039 1.2536954
0.21520506 -0.24746552 1.4240626
-0.52157927 0.044879213 1.2984565
0.73660326 -0.054819919 1.5720547
0.78521949 -0.056690261 1.7149936
-0.078907967 -0.40028989 2.215766
0.22393656 -0.1901848 1.3388587
0.14363338 0.054009043 0.68623972
-0.97512293 -0.083080791 1.3755499
-0.075227395 -0.38911465 2.1498175
-0.93043882 0.0251466 1.392157
-0.07470867 -0.39139685 2.1574693
-0.93982655 -0.081166811 1.3613664
-0.21434084 -0.032562748 0.3761543
0.33174407 0.045536563 0.61149323
-0.31938395 -0.37920314 2.2896729
0.24673891 -0.18051274 1.3216516
0.64424694 -0.11072508 1.2640036
-0.52455902 0.043794073 1.2993475
0.32556221 -0.12136292 0.91767085
-0.98182786 -0.11826023 1.3339998
0.24272075 -0.027344631 2.844645
-0.22218817 0.042998791 0.37741375
0.65312225 -0.1672305 0.76445568
0.18107067 -0.25656971 1.2643872
0.54280639 -0.034407586 0.89858329
-0.53066468 -0.039149746 1.2117723
-0.65096647 -0.19491519 1.5704588
0.29980996 0.034151278 0.43136227
0.73610842 -0.01672955 1.0122555
0.61869138 -0.15113701 0.75887609
-0.52678889 0.044160485 1.303286
-0.14645228 0.055531248 0.49247992
0.29102063 -0.1679931 0.96885192
0.34232777 -0.16565664 1.0987087
-0.99693346 -0.046045303 1.2335607
-0.88460565 -0.21684906 1.8237277
0.20515375 0.040599979 1.5833317
2.1522198 -0.099892966 3.6966429
-0.25115591 -0.31734166 2.1747708
-0.28949687 -0.21118033 2.1291151
0.85074806 0.082502887 1.8689443
0.8428182 -0.062575184 1.2407979
-0.19167694 -0.32558954 2.4981332
-0.72643036 -0.23165092 1.5846013
0.05909111 0.060355991 0.34130299
-0.66489995 -0.17259085 1.5730399
0.14389683 0.053821288 0.68024528
-1.292179 -0.25347471 1.6720656
0.34547567 0.022196813 1.1790704
-1.3023107 -0.25462124 1.6845509
-0.66299278 -0.23517881 1.5146638
-0.69987166 -0.23033643 1.5899204
-0.89144719 -0.18125942 1.8447584
-0.32201156 -0.24552676 1.9321607
-0.8139174 -0.21447541 1.8134924
0.73595107 -0.022225456 1.0206481
0.13173819 0.059738308 0.35123301
-0.15094838 0.055518933 0.4127512
-0.22238213 0.056336604 0.32705247
0.064527616 0.055716343 0.58355868
-0.30259722 -0.21131405 2.1749806
0.21088143 0.053954422 0.68622077
0.09358409 0.002539617 2.3320379
-0.43450594 -0.0083477739 2.3645902
1.0025594 -0.035639785 1.277994
0.22972825 0.047689043 0.54139364
0.42240369 -0.20068505 2.6635041
0.34649014 -0.2301172 2.2439528
-0.25468525 -0.036773078 0.82127011
-0.061690051 0.054664567 0.53059912
0.54209054 0.037869558 0.66198528
-0.97867882 -0.072972424 1.3735148
0.60905927 -0.0058152396 0.85617781
-0.22645676 0.046359666 0.76004565
-0.76734221 0.0054478915 1.6401273
-0.2491914 0.056109451 0.32428801
-0.98607385 -0.083101504 1.4646086
-0.90326625 -0.023128377 1.4984828
-0.16226278 -0.085371427 1.4504708
-0.52195907 -0.003989012 1.6689924
-0.20297152 -0.22258739 2.2590728
0.49993372 -0.10983937 2.3966365
-0.72843075 0.025702905 1.322148
-0.64124525 -0.275639 1.518901
-0.72051728 -0.23078457 1.5826203
-0.939022 -0.012209261 1.3779145
0.3420164 -0.16613628 1.104781
-0.28052214 -0.37942436 2.1835175
-0.98422754 0.046252944 1.5612653
0.17541058 -0.25933897 1.2931918
-0.18574683 -0.30116776 2.5612636
-0.22751528 0.045212559 0.76327956
0.60252392 -0.1071088 0.78541017
0.31848049 0.036184646 0.42570651
0.29777297 -0.04549332 0.41966069
0.29845786 -0.046445921 0.42002344
0.35821769 0.047303915 0.41428626
0.35532719 0.041628599 1.0157317
-0.84440881 -0.016895426 1.3790008
0.12966563 0.059049316 0.34155059
-0.157895 0.05354014 0.49094439
-0.96978354 -0.096803561 1.3808635
-0.21101636 -0.046852082 0.37633753
-0.72695607 0.016569167 1.321489
-1.2177318 -0.26474988 1.6882492
-1.0426924 -0.11869132 1.3838178
-1.019496 -0.11729913 1.3457276
0.21391763 -0.25704411 1.2991987
-0.10552529 0.054529041 0.77115858
-0.96943903 0.025150225 1.4554394
-0.20873156 0.053474806 0.37098837
-0.13292497 0.047698461 0.69106054
0.18904509 -0.25364465 1.4055322
0.45296699 -0.17506567 2.0140471
-0.94735843 0.023641979 1.4193455
-0.16973484 0.057080463 0.83099115
0.41841242 -0.22123644 1.9508055
-0.28220731 -0.38008037 2.1824546
0.67370385 -0.014727043 1.4688781
0.34128827 -0.1021267 3.3896475
-0.063353494 0.054797061 0.76407361
-0.24096349 -0.22288512 2.1137075
-0.28743818 -0.29071814 1.9481398
-0.24110362 -0.26021937 2.056788
-0.18012607 -0.3350389 2.7103109
-0.15945612 -0.30917385 2.4639287
0.65025789 -0.12580006 0.74370253
0.21992238 0.051678561 0.70398772
0.18253806 0.060410209 0.30698931
-0.74572515 -0.19702026 1.6261257
0.25984496 0.053499505 0.38622868
0.35342258 -0.17991596 1.9120594
-0.2218383 0.052103855 0.36772907
-0.219778 0.055730186 0.32281661
-0.22031945 -0.058337323 0.36731684
-0.22621596 0.031718567 0.37650073
-0.27105653 -0.38371536 1.7351853
-1.2912359 -0.25710011 1.6785234
-1.3458283 -0.26878691 1.8098832
-0.19711143 0.052640781 0.49325705
0.7623781 -0.049848169 1.6351279
-0.84550518 -0.027035004 1.3706907
-0.74247491 -0.24234185 1.6564301
-0.17688724 0.049680851 0.96197665
0.25578249 0.05313722 0.37525916
-0.99545145 0.046486571 1.5803815
-0.24976727 -0.30858666 2.1160922
-0.22264993 0.043621719 0.37807894
0.12275763 0.046936162 0.57708085
-0.97804236 -0.074618392 1.3727945
-0.88584369 -0.023193831 1.4117061
-0.21627411 0.03686104 0.3747741
-1.0233623 0.027022999 1.2537557
-1.3716971 0.53119874 2.5184131
0.54446828 -0.11702185 0.7862438
0.60904545 -0.11855946 0.75613976
0.36934632 -0.18405466 1.0207134
0.30729327 -0.18610829 2.1412392
0.33616665 -0.032686047 3.1078467
-0.70451909 0.064651631 1.1807033
-0.51139373 0.00059247669 1.6288997
-0.28712499 -0.20642333 2.0807171
0.43219578 0.013291434 1.9570554
0.70517761 -0.044254556 0.86972988
-0.22426867 -0.37982681 2.3038168
0.73986065 -0.058520526 1.619794
-0.96047097 0.061601475 1.2672399
0.63353372 -0.13238132 0.74951696
0.57069451 0.032094434 1.2739092
-0.25140008 -0.063498482 0.80394614
0.18569943 -0.28944737 1.3154763
0.67748338 -0.014180308 1.4773036
-0.16730626 -0.26221547 2.2357244
-0.32332018 -0.42869937 2.1863956
0.12654395 0.057984285 0.32908678
-0.18153843 0.049259573 0.77679896
-0.88742691 -0.014244506 1.3808609
0.15841538 0.060370848 0.27615988
0.30691561 0.0078018154 0.41465843
-0.96438086 -0.027782509 1.2903982
0.065127745 0.056138933 0.5877142
0.34769893 0.046156555 0.44550776
-0.90732968 -0.18133557 1.7948416
-0.25419462 -0.20301585 2.0844178
-0.66421282 0.065769777 0.86254382
-0.54168785 -0.0028163819 1.744464
0.29938453 -0.0057796612 0.4104929
0.43903959 -0.18676573 2.3121095
-0.06563887 0.055301331 0.28678906
0.30202004 0.0057559516 0.41013134
0.30677477 0.025159463 0.41424119
-0.32357275 -0.35299218 1.6474546
-0.28653744 -0.38280436 2.2018657
0.2446917 -0.17710474 1.3007129
0.22021797 -0.19572198 1.1371166
-0.0327597 0.060573965 0.3029722
-0.96210384 0.0054121409 1.3639132
0.27795395 -0.14031684 1.0882396
-0.31158608 -0.26995331 1.5250806
0.011304568 0.060275808 0.28451288
-1.0073576 0.058469802 1.313327
-0.31666839 -0.27697262 1.5536183
0.17672752 -0.16366197 0.80304813
0.41300154 0.040727559 0.69788849
-0.22552866 0.026173143 0.77426612
-0.92638135 -0.13773246 1.8115076
0.39686581 0.033502474 0.72395754
0.62547141 -0.11851589 0.7807802
0.26215544 -0.028255625 2.3449845
-0.23849389 0.022775754 0.76483166
0.30286425 -0.040528767 0.4149673
0.42471212 -0.17014523 1.2945939
-1.0388682 -0.092055656 1.349914
0.32592335 -0.17478511 0.98299158
-0.31060454 -0.27353799 2.0023508
-0.99929404 -0.0062443409 1.2827529
0.22829863 0.05286283 0.34910619
-0.15407033 0.059084609 0.51135063
-0.13932611 0.047467344 0.67710018
-0.94957435 -0.088686548 1.3903552
-0.22795519 0.036393933 0.37814009
-0.39187607 0.056956433 1.1609908
-0.18762821 0.053194188 0.4960227
-1.2665404 -0.25303027 1.6470944
-0.14480402 0.059087783 0.41210687
-0.16596307 0.056035928 0.79717708
-0.071220905 0.061569601 0.290066
0.11974345 0.058930717 0.34057915
0.61517584 -0.14913705 0.75348318
-1.1463406 0.053928159 1.8353342
0.40211278 0.038871661 0.67615592
0.34926349 0.045563646 0.4422189
0.61506188 -0.15909503 0.76204395
-0.076126367 0.060030378 0.33079064
-0.99415803 -0.061198309 1.2733895
0.34628314 0.035707444 0.55767095
0.42285728 0.039778754 0.82875776
0.33867553 0.04485599 0.42206693
-0.21228972 -0.048445478 0.38156724
-0.14482844 0.05890812 0.41173446
0.67301142 -0.014586657 1.4687852
0.1747236 0.061374754 0.27794337
-0.21879637 0.055623598 0.32182121
-0.69800711 0.062476233 1.2092935
-1.0963906 -0.13859075 1.4019762
-0.20493239 0.045170017 0.37971842
0.46078455 0.042041548 0.90424824
-0.070760742 0.056909099 0.47589207
-0.15092678 0.05545336 0.41834128
0.75399029 0.0076098926 1.8947581
-0.52129388 0.024924468 1.6484452
-0.31762341 -0.36551431 1.7183157
0.29946321 -0.0066457856 0.41083503
-0.22217965 0.056253619 0.32573652
-0.94271493 -0.00021753553 1.3692251
-0.29391849 -0.27742213 1.6072253
-0.21965164 -0.22773591 1.3228899
-0.31800199 -0.27701411 1.5518657
-0.2202616 0.042301584 0.37354815
-1.0214214 0.031556368 1.2632488
0.23401493 0.051149018 1.0465714
0.38491303 -0.060241804 2.307982
-0.17390536 0.048408799 0.93946135
-0.10035774 0.053250648 0.68364477
0.44514558 -0.14558409 2.189929
0.002842579 0.052694686 0.71037281
0.0032191239 0.052315511 0.70233583
0.35509875 -0.13419308 1.2455813
-0.9709214 -0.10969552 1.3509768
-0.24838451 -0.2688711 2.1385479
-0.28867948 -0.27052552 1.5622464
-0.42005607 -0.18857618 2.3073025
0.71475029 -0.057944201 1.5811688
-0.27948529 -0.21854363 1.7660524
-0.42483434 -0.18938409 2.3268218
-0.049878281 0.048152208 0.82537651
0.56234866 -0.23634638 5.2943816
-0.15691486 -0.29520172 2.8685393
0.60852897 -0.11639208 0.75653267
-0.40884495 -0.0045508835 3.0936389
0.56470245 -0.43459564 5.7071629
-0.20792592 -0.36020353 2.7620316
0.19853339 0.054888435 0.56346655
0.20132287 -0.20798993 1.1802326
1.6996043 -0.075386293 2.5551286
-1.2957466 -0.25755635 1.7442392
-0.59747261 0.086079739 0.95543325
0.34740463 0.044124737 0.79816937
0.21038929 0.058782145 0.44995236
0.13111515 0.059360303 0.33906651
1.2119651 -0.06775143 2.374229
1.0889304 -0.077134401 2.0782766
0.38707817 0.044110909 0.63811529
0.43280137 0.042254046 0.55066013
-0.13734081 0.057570286 0.29455948
0.48369324 0.041322149 0.91761696
0.20876369 0.051209033 0.66798437
0.058688533 0.061403409 0.37472951
-0.45850056 0.04188446 2.038691
0.21519184 0.050727099 0.54213572
0.29774868 -0.088443607 0.4067477
-0.28868264 -0.22380733 2.5067053
-0.26813474 -0.338774 2.9183245
-0.21991071 0.043492138 0.3718226
-0.21241936 -0.041925661 0.37259078
-0.19696116 0.054335654 0.35334218
-0.11371252 0.061086394 0.38174641
-0.60157484 -0.17956263 1.5328537
0.15618771 0.057433069 0.48774815
-1.1207637 -0.14420712 1.4764673
-0.89474797 0.05442667 1.4319059
-0.2553862 -0.32480115 2.0348883
0.20654069 0.048506781 0.51619065
-0.062674537 0.056060277 0.56207526
-0.1810908 0.049556144 0.77538443
-0.18336889 0.052033417 0.48292828
-0.55115545 0.016891975 1.6484457
-0.021818347 0.058514088 0.31950462
0.29835233 -0.088730484 0.40767801
-0.32078356 -0.33016372 1.9875952
0.34551692 0.0080394698 0.98989713
-0.20712787 0.05688034 0.31027746
0.058357392 0.059118912 0.31102586
0.30345252 0.02509894 0.40821457
0.32922271 0.021148572 1.1083742
0.35179096 0.046472631 0.44873321
0.64796835 -0.015667463 1.2886213
-0.070055589 0.056164786 0.46744382
-0.070220083 0.0608733 0.33769619
-0.18424734 0.052464627 0.39495456
0.46110371 0.04430788 0.59649146
-0.93890959 0.026635513 1.4061943
-0.17254156 0.052843258 0.40389204
-0.0076551698 0.057105169 0.25689125
0.62416357 -0.13460352 0.79866493
1.1233346 -0.043353051 1.3036238
-0.060021717 0.055599764 0.8127017
-0.99292827 0.045491695 1.2319371
0.25023708 -0.20477845 1.3705655
-0.13129261 0.060418189 0.57290888
-0.52497441 -0.0011689262 1.6762108
-0.14456324 0.06158524 0.29982352
-0.19904897 0.047200479 0.78677046
-0.18404102 0.052296527 0.4851048
-0.34452027 -0.29237935 1.5443619
0.20947519 0.057951577 0.44742024
-0.19170476 0.051665112 0.475227
-0.63027531 -0.15855683 1.5342704
1.3713127 -0.038848855 1.6408523
0.22689694 0.053380571 0.40844893
0.21796763 0.048466176 0.96152914
-0.18776327 -0.076496422 0.38345087
-0.12889062 -0.22643279 2.5348887
-0.16264533 0.054462261 0.77766633
-0.19934604 0.03624358 0.36982191
0.3419987 -0.1772092 1.563711
-0.98695016 -0.24669021 1.4554349
-0.55319673 0.062851876 0.86460161
0.15619929 0.061257787 0.39586174
-0.32056111 -0.27859154 1.5613216
0.56004822 0.031090567 1.2513932
-0.044997398 0.057285659 0.30029261
0.16111816 0.064176232 0.3038162
-0.47440553 -0.1582188 2.3492889
-1.0269172 -0.087975197 1.2719146
0.0040760152 0.050389126 0.68576336
0.37247694 -0.17445073 1.9326183
-0.62498462 -0.14288601 1.5340213
-0.33781183 -0.23765343 1.5260891
-0.93643242 0.032252505 1.4389528
-0.17850034 0.054824919 0.42550838
-0.18547735 0.051547691 0.3781172
0.29717481 -0.19428316 1.3674372
-0.23936182 0.044079855 0.80959141
1.3200126 -0.088873692 2.5090022
2.1856625 0.22409225 3.0559335
-0.22408384 -0.086497642 0.36863625
0.43497616 0.042547222 0.73687506
-0.05433036 0.053568095 0.95243394
-0.21007046 -0.074101329 0.39525819
-0.21811973 -0.068366647 0.39665413
-0.073740304 0.058082886 0.27972794
-0.074328095 0.059731767 0.49881482
-5.1959405 1.9382291 9.7282457
-0.13467695 0.059488326 0.32494426
0.29532725 -0.029672416 3.2123647
0.30172464 -0.005396096 0.41461229
0.058676194 0.061045796 0.37288392
-0.40556228 -0.18394919 1.7410227
-0.18630728 0.053245343 0.49358916
0.17167176 0.064179756 0.40257859
-0.067948014 0.059416488 0.33085704
-0.42055619 -0.05273024 2.4564338
-0.32912782 -0.3431251 2.0523562
0.37785923 0.043066055 0.62056887
0.43601471 0.044974618 0.95728981
0.061623376 0.061829865 0.33126581
-0.65309691 -0.19418906 1.5658585
0.32160959 -0.18067098 0.81670368
-0.20625459 0.037168346 0.38812578
-0.97005391 -0.024955539 1.27417
0.34996301 0.039846487 0.99959338
-0.22013465 0.057503842 0.3067956
0.3265546 0.044065133 0.59719706
-0.26964092 0.060895197 0.33461249
-0.17796652 0.054330908 0.42117083
-0.22835252 0.059239648 0.3440125
-0.00014674291 0.061767951 0.31540251
-0.13637336 0.059970059 0.32993209
-0.99968815 0.0088572763 1.4255234
-0.21931568 0.055440627 0.3574208
-0.20161477 0.044841811 0.3738656
-0.11713777 0.059887417 0.92188561
-0.18609507 0.054608524 0.38302076
0.54629493 0.038995884 0.66565681
-0.65027767 0.044984132 1.0307854
0.1594618 0.061056152 0.27747607
-0.23969045 -0.3018699 2.1043062
0.22322679 -0.24783257 1.4587597
-0.31206143 -0.14840212 2.7817283
0.022048157 0.0196702 1.154265
0.58245534 -0.2429361 5.4680519
-0.70983946 0.066873051 0.97691786
0.032749753 0.059116572 0.28666759
-0.44512412 0.0088775158 2.2885447
0.74330401 -0.059013292 1.4046026
1.1280297 -0.053352959 1.480894
0.21346021 0.054091111 0.26725459
0.15469553 0.06052231 0.3119278
-0.13993169 0.04126174 1.239159
0.06045736 0.060814552 0.32402873
-0.066838041 0.05802808 0.3176266
-0.16216083 0.055408753 0.51374567
0.56745619 0.061059609 0.9401437
-0.30544028 -0.45800939 2.4362636
-0.20031349 0.042578004 0.37669611
-0.14997229 0.057193302 0.26981342
0.15512125 0.05950094 0.26964104
-0.143567 0.042984337 1.2146298
0.092677131 0.059404179 0.34584486
1.6280544 0.16471535 3.7040939
0.011433091 0.058730498 0.27428913
-0.030708853 0.058705747 0.28230703
0.33611867 0.047166929 0.6217978
-1.0239526 -0.087349221 1.265968
-0.52877063 0.042673014 1.3987025
0.1739676 -0.058008783 0.41055179
-0.2138153 0.054907203 0.31503105
-0.27380759 -0.21371861 2.3477211
-0.3213734 -0.26707006 2.0759802
-0.22300971 0.057463631 0.31841266
-0.23642418 -0.07499104 0.4356221
0.4228344 0.040936064 0.71614301
0.2045607 0.061039619 0.30941534
0.63025963 -0.14689295 0.74717426
-0.99898422 -0.093035974 1.4048947
-1.265571 -0.24933517 1.7190233
0.13039611 0.059350707 0.34272492
0.093999356 0.059720702 0.34969354
-0.07748884 0.060944505 0.34152186
-0.25049335 0.048742592 0.63133311
-0.11714137 0.033321749 1.392598
-0.19149524 0.057435572 0.36001098
-0.76660788 -0.016074065 1.1701359
-0.22094154 -0.07186342 0.40293574
0.34933805 0.037882432 0.75034583
0.21150789 0.057864495 0.45235837
-0.26500839 0.059460983 0.32895327
-0.63677162 -0.14474504 1.5644642
-0.2324383 0.057642452 0.29671347
0.55722034 0.03150421 1.235123
-0.54924035 0.060380228 1.2531101
0.29610068 0.033241242 0.83982074
-0.32714653 0.026685599 2.398303
-0.14401573 0.053021789 0.38653088
-0.93976235 0.032733493 1.4452881
-0.19550534 0.054645047 0.42022634
