# .PCD v0.7 - Point Cloud Data file format
VERSION 0.7
FIELDS x y z
SIZE 4 4 4
TYPE F F F
COUNT 1 1 1
WIDTH 427
HEIGHT 1
VIEWPOINT 0 0 0 1 0 0 0
POINTS 427
DATA ascii
0.62182498 -0.11168925 1.0953536
0.63652098 -0.13558325 1.0967507
-0.73654544 -0.057593949 1.0747235
0.50139189 0.043471996 0.84845549
0.87806123 -0.12106337 1.15505
0.64948291 -0.14035775 1.1320381
-0.20739816 -0.053010747 0.32665712
0.72555083 -0.17025618 1.0855243
0.63421327 -0.13537531 1.0924182
0.64713454 -0.0092317881 1.1943083
0.35704908 0.028343197 1.2197978
0.71148622 -0.18374269 1.0704851
0.3297815 -0.15119803 1.1272647
0.35761103 0.026509508 1.2028379
0.51063693 -0.17122629 1.2417142
-0.2257843 0.026885226 0.33808702
0.33351609 -0.14845683 1.1352336
0.75399995 -0.15184925 1.1163282
0.83186769 -0.1330737 1.148526
0.92695385 -0.077337876 1.1572082
0.23712729 0.052171141 0.92753559
0.56112945 -0.0012472766 2.4726994
-0.82037377 -0.028211959 1.7889066
0.81608588 -0.19126494 1.149291
0.56935334 -0.19649898 1.4103732
0.8471083 -0.15984303 1.1323774
0.92572707 -0.20126306 1.1544456
-0.14337485 0.053841602 0.33040828
0.84221613 -0.16408321 1.128792
0.3867557 0.04659307 0.76228422
0.92565483 -0.075640939 1.1627741
0.22910856 -0.12496489 1.0910316
-0.85366762 -0.14523669 2.0982952
0.14107932 0.05874851 0.4821834
-0.93053448 -0.015434758 1.8138292
-0.95202732 -0.10960258 1.7752056
-0.93570709 -0.018100698 1.8203568
-0.20649357 0.035851721 0.71686178
-0.89189339 -0.10486933 2.0500274
0.81186956 -0.18917175 1.2144864
0.35081059 -0.16704138 1.222146
0.91919953 -0.077232927 1.1485558
-0.90600705 -0.088252738 1.7284174
0.15544465 0.062555775 0.27104336
-0.88403952 -0.10517972 2.0249722
-0.88292652 -0.17419842 2.0292864
-1.2040504 -0.27718613 2.1165862
0.34816542 0.0446603 0.72416908
0.12565319 0.055164151 0.43703395
0.17670937 0.059463821 0.54104787
-0.84730279 -0.14507739 2.0717914
0.74328333 -0.053187758 1.7957616
0.13073809 0.0576705 0.4765715
-0.13916345 0.051238544 0.72639149
-0.88424551 -0.11161111 2.002821
0.14984415 0.056132741 0.69986254
0.38555193 0.041946478 0.81750935
-0.88497978 -0.10804424 2.0187807
1.1211929 -0.066913649 2.5334818
0.79816085 -0.11238439 1.0862298
0.4615266 -0.078422032 2.4921863
0.29225579 -0.19106251 1.7865794
-0.91002852 -0.11418527 2.0659976
0.30970189 -0.14392421 1.3937893
-0.20099108 -0.051297009 0.30878192
0.41523358 0.040097505 0.73902005
-0.21232191 0.043535922 0.32434553
-0.20944314 0.0018785014 0.72174293
-0.20718277 0.057527874 0.27545053
0.36213964 -0.16915242 1.2486441
0.34780678 -0.17633957 1.5157816
0.92629087 -0.12055623 1.1729228
-0.13034944 0.048156194 0.67224962
0.22919786 -0.020908631 1.6231129
-0.19966058 -0.060160302 0.32298249
0.34559587 -0.17615359 0.99710327
0.35453087 -0.17497927 1.5179696
0.072335437 0.055159476 0.6513502
0.24391831 -0.18288349 1.5285807
0.16377854 0.054391049 0.57901341
-0.058251221 0.054397978 0.5845173
-0.89359909 -0.025272697 2.053509
-0.202549 -0.022473685 0.32711929
-0.9152962 0.048001789 1.8593137
-0.21168409 0.034176193 0.73903316
-0.25831729 0.0028594779 0.89474541
-0.87822968 -0.082869798 1.7027016
0.7681554 -0.056929693 1.8387971
0.2780607 0.044119172 1.4096744
-0.19375519 0.05693347 0.28652352
-0.20113255 0.010100883 0.72008163
-0.89785749 0.042720705 2.1385207
-0.92524695 -0.00023351517 1.7308006
0.2205869 0.042888723 1.6232541
-0.19573425 -0.050784323 0.71100253
-0.98227298 0.023410432 1.8444152
0.34195283 0.044660237 0.70955473
0.18767214 0.04453361 1.3589363
0.28121546 -0.18536702 1.7235191
1.1583415 -0.24449177 1.4732273
0.21197139 0.05612867 0.37917644
0.5543927 -0.0094617316 3.2371848
0.38400754 0.036785312 0.63158673
0.76764709 -0.057129025 1.8380589
0.18562891 -0.26342678 1.2824209
-0.84331644 -0.034530979 1.8181765
-0.96243584 -0.11201894 1.7861261
0.65861303 -0.10325336 1.2963107
-0.064900003 0.059435103 0.44790679
-0.19791764 -0.038379531 0.32878155
0.5387159 -0.10321604 1.0191326
0.21136028 0.055888843 0.37882346
0.21202074 0.057742465 0.49757951
-0.19881597 -0.03868816 0.33062631
-0.14446191 0.054431934 0.33500808
0.40155879 0.045944221 0.79611772
-0.86006147 0.018567845 1.6825604
-0.016659003 -0.41515425 2.5805964
-1.0062826 -0.12150075 1.8876364
-0.6220569 -0.1813795 1.926872
0.57614237 -0.17027952 1.1612654
-0.18405344 0.051289044 0.38101608
-0.72133112 -0.15543912 0.95373732
-0.12647118 0.047947533 0.66571254
0.19092552 -0.21042417 1.1410909
1.1523573 -0.22797284 1.4416094
-0.20346496 0.048950534 0.32926053
0.23312552 0.049873553 1.0037289
0.89501554 -0.21587867 1.2030962
0.59998167 -0.032846939 2.6138721
-0.10674469 0.055471301 0.38946038
-0.57910371 0.061259326 0.76863521
-0.9317469 -0.10532387 1.7403243
-0.072591886 0.061072744 0.36867994
0.40524435 -0.14113374 1.622427
0.35494485 0.033901807 0.59193975
-0.21212655 0.044431422 0.32419282
-0.71483409 -0.12730998 0.95925134
0.22876777 -0.22929206 1.6218569
-0.6920507 -0.20311053 1.9505231
0.21891625 0.054801248 0.50533539
0.33814171 0.050104462 0.49846822
-0.13712181 0.05275014 0.75744408
-0.71701795 -0.15407997 0.94342142
2.5257401 -0.11932855 4.5179243
-0.70864594 -0.12692498 0.94778341
0.27820951 0.053418349 0.43824142
0.57461858 -0.13554223 1.1371298
0.35734126 -0.012361868 1.2330859
0.71429813 -0.053619161 1.7031929
0.3837159 0.037274376 0.67831296
0.80174613 -0.057042748 1.9390209
0.71855676 -0.020882815 1.6683545
-0.072931603 0.061188985 0.3661924
0.19997863 -0.14377934 0.77996868
-0.016031634 -0.40488869 2.5350068
0.14612032 0.055719446 0.68211979
0.06432616 0.059563618 0.41852039
0.17232864 0.051577136 1.053376
-0.93483114 -0.090626761 1.7304854
-0.015431951 -0.3967523 2.4936209
-0.90008438 0.017005648 1.7691057
-0.2171099 0.0015039467 0.75474948
0.44238493 -0.13343018 0.72071403
-0.01380911 -0.38941601 2.4300396
0.20980538 0.056282893 0.37606126
0.20064457 -0.17669593 0.98208553
0.26804599 0.050463084 0.58132225
0.45117423 -0.14801599 1.8151615
-0.72117913 -0.17290667 0.94030446
0.36403611 0.042807102 0.9666627
0.385865 0.044074103 0.66654843
0.6204105 -0.14101458 1.1193109
-0.24030285 -0.36126596 2.4411354
-0.21114697 -0.038483791 0.3300944
0.29169604 -0.18848042 1.6828933
-0.19801629 -0.0595598 0.31870657
-0.073609076 0.061515629 0.36631554
-0.21906264 0.049918111 0.31860524
-0.15899304 0.058010966 0.25610143
-0.10783055 0.054194011 0.43574184
-0.14444885 0.054399751 0.33262831
0.19329232 0.047362529 1.4038482
0.060030844 0.058406085 0.35330015
-0.21310259 -0.078045145 0.71649951
-0.26508847 0.053625844 0.60627645
-0.21126768 -0.038609013 0.33009082
-0.96349722 -0.13043402 1.7342355
-0.14248882 0.054141767 0.32858568
0.28070128 -0.030349571 2.7132449
-0.20870025 0.038708568 0.72550064
-0.19347169 0.056980379 0.28626162
0.21757682 -0.19385692 1.0933928
1.0119871 -0.054034226 3.2155092
0.39794484 -0.13238235 1.581774
-0.19802935 0.051911339 0.39460403
-0.011104929 0.054173987 0.3704229
-0.20338644 -0.057374202 0.32144684
-0.65564251 -0.19101869 0.87475806
0.13818319 0.058176834 0.47171038
0.51541692 -0.17138873 0.98774439
-0.12144142 0.054869041 0.57869714
0.20054154 -0.22244444 1.2176526
0.41699353 0.018375671 1.2983406
-0.94860798 -0.093597546 1.8045073
0.69540131 -0.17464809 1.1084108
0.22001551 -0.26383561 1.6076493
-0.19472121 0.020227607 0.34407264
0.79034036 -0.037035875 2.4717679
-0.2129894 -0.019872058 0.33343905
-0.028493769 0.060274482 0.422252
-0.60435021 -0.17715661 0.87427622
0.27241367 -0.17222571 1.0235868
0.54708797 -0.033089623 1.154779
0.53354293 -0.033094872 0.95285326
0.38939893 0.042215668 0.82681829
0.063278787 0.059505504 0.41410893
-0.69330209 -0.16039698 0.91830963
-0.53275049 -0.046512421 1.6947949
-0.064344838 0.06020622 0.4551912
-0.17226976 0.046367634 0.71769446
-0.21814464 -0.080523171 0.73807675
0.28005782 0.054072995 0.44274145
-0.59681582 -0.17674139 0.88019425
0.25825322 0.049986523 0.57440597
0.18753131 -0.22999355 1.1471965
-0.71602535 -0.14335223 0.95296437
-0.60946083 0.051889997 0.77526075
-0.61469561 -0.15555918 0.88616699
-0.16216357 0.01229788 0.46041113
0.21568449 0.054868739 0.31489033
-0.071436532 0.059865855 0.35391027
0.21429808 0.057617921 0.32234603
0.45185915 0.039472211 0.72476798
-0.20156379 0.0021668663 0.33373159
-0.10846942 0.057359312 0.40380532
0.46594676 0.040725805 0.75203866
-0.65231907 -0.18969125 0.87077254
-0.58882189 -0.19690053 1.8617463
-0.12236694 0.05489042 0.40429801
0.33046547 0.03294085 0.79673594
0.24647959 0.047254257 0.54482335
0.37138107 -0.19332042 1.158932
-0.20853429 0.043478128 0.31708699
0.38980159 0.043900125 0.67439061
-0.21562047 0.046617668 0.32437271
-0.58470243 -0.17293121 0.86096436
-0.20696722 -0.033935796 0.32716173
-0.11559428 0.058184527 0.58557802
0.029103339 0.055451557 0.35263616
-0.18838789 0.054318577 0.31610447
0.41744784 0.037564632 0.80333084
1.0000443 -0.25483027 1.2444177
-0.1922351 0.056319676 0.28350621
-0.60747689 -0.15819328 0.8841477
0.27078015 0.052010175 0.61294013
-0.20792872 -0.020773552 0.33160859
0.58302438 0.032660283 1.1798379
-0.20526741 0.05693341 0.27619821
0.17168643 0.058826052 0.5215022
0.2781828 0.053496543 0.43820614
0.66082114 -0.15855451 1.1063373
0.32350409 0.041562092 0.44708925
0.2051679 -0.16522455 0.84195107
0.063702703 0.058879558 0.40926129
0.0141387 0.064196996 0.35530466
0.17134248 0.058179621 0.51394659
0.26488796 -0.16785409 0.9992637
0.17851265 0.060049079 0.64901811
-0.46849403 0.037252788 1.5732431
-0.2285891 0.051245846 0.64345938
-0.15930705 0.053200208 0.3341319
0.64611906 -0.13746132 1.1143153
-0.047710113 0.051719394 0.78489786
0.31223333 -0.16600379 1.2455635
0.3887549 -0.17503397 1.4758527
-0.84383631 -0.14011283 2.0736225
-0.13119598 0.050008208 0.71986502
-0.21717526 0.020608572 1.0591588
-0.90174007 -0.028588548 2.0837011
0.35325852 -0.17905901 1.5277686
0.2517342 -0.24916591 1.7848308
0.21564661 0.05492061 0.50405461
0.068171687 0.052992105 0.60897464
-0.85371286 -0.22983207 2.2374949
2.7900546 -0.14282301 4.7926927
-0.20751674 0.036239546 0.72141021
2.1784673 -0.097036071 3.8447154
0.40019187 -0.23055823 2.4982913
0.80148697 -0.033554815 1.1923103
-0.59856987 -0.067647904 1.6526766
0.83326781 -0.041026533 1.399086
-0.19337635 -0.33117288 2.5681844
-0.21911384 -0.20515098 2.3109529
0.93784207 0.078614444 2.2799194
-0.11911432 -0.32270658 2.7387421
-0.13040923 0.051552434 1.3169568
0.81865764 -0.11917495 1.1204696
-1.0917568 0.017849866 1.5721185
-0.20179094 -0.021996237 0.32734185
-0.032730963 0.058448128 0.26806051
-0.42211786 -0.14954884 1.178612
-0.29804796 -0.13973501 0.78066069
0.1729259 0.059129156 0.63813907
0.19180317 -0.19974937 1.1747479
-0.20063908 0.058678702 0.30054241
-0.031386886 0.057325576 0.2617138
0.076342076 0.057754345 0.69409353
0.1369352 0.056737367 0.45770615
0.2133206 0.056598544 0.38315874
0.31555474 0.047066323 0.45860761
-0.62694323 -0.18187806 1.9454207
-0.068311006 0.057382461 0.33398694
0.17342879 0.05177271 1.0522001
0.22408286 0.046155188 0.53597027
-0.26751977 0.054396518 0.61244994
0.18757729 0.059406683 0.52744025
-0.21256272 -0.017004877 0.33291668
0.34906298 0.014659706 1.3630121
2.1166308 -0.11647243 2.5267534
-0.59071648 -0.13945031 0.81742483
-0.061375652 0.056873847 0.41978186
0.43561181 -0.14493845 0.70057923
-0.33514425 -0.14740229 0.8394646
-0.65767068 -0.26140013 1.9994435
0.57247597 -0.026753251 0.94748276
-0.23431887 0.051126402 0.6218254
0.69520092 -0.11777005 1.0700126
-0.055513982 0.055964679 0.66728359
-0.66121548 -0.24080889 1.9620237
-0.66099185 -0.16214074 0.95652908
-0.010105792 0.061016805 0.43024033
-0.057305191 0.053390484 0.56596547
-0.19747047 0.057685949 0.29421669
-0.027092878 0.061468761 0.43351907
0.20549375 -0.21440716 1.0990663
0.18847677 -0.24944215 1.2064669
0.2519097 0.051249564 0.61383528
-0.45454136 0.062510036 0.60508031
-0.18590228 0.053027153 0.46300334
-0.13850178 0.056714907 0.244582
-0.14359842 0.054200571 0.33198971
-0.5642783 -0.069600753 1.263433
-0.24559818 -0.22947018 2.0492365
-0.19471438 -0.069557421 0.31231898
-0.90070575 0.046250474 2.1408048
0.43968382 -0.14655377 0.70814115
-0.19722405 0.059555311 0.24983519
-0.69134021 -0.20484743 1.9512675
0.26633605 -0.041837938 1.5710459
0.21131559 0.056018014 0.37863821
0.042926874 0.057893839 0.58334488
-0.10262229 0.057705596 0.26101941
-0.070009731 0.062567584 0.28478426
-0.011136754 0.059293084 0.45137018
0.26418027 -0.14465515 0.65626568
-0.82498056 0.004438906 2.0143607
2.9517801 -0.091972679 3.9720337
0.7978164 -0.026510824 1.3923597
-0.19739218 -0.28564352 2.5605171
0.25259954 -0.013941403 0.92796046
0.50006521 0.038962733 0.79822868
-1.0550933 -0.0085059078 1.6128137
0.69406426 -0.11771054 1.0709729
0.033418853 0.049532916 1.1803794
-0.10157395 0.051111013 0.40854734
-0.7268796 -0.13179733 0.9133417
-0.73240751 -0.14334051 0.92587489
0.16546147 0.062411182 0.2746436
0.33433944 -0.19188748 1.1425245
-0.13623951 0.051682483 0.76325315
-0.60340375 -0.15803109 0.87679499
0.016520265 0.061411183 0.27048331
-0.23295222 -0.14076866 0.74301559
-0.033766638 0.062162399 0.29107302
-0.65388048 -0.16738738 0.893516
-0.24014802 0.058629025 0.78207976
-0.10261386 0.057169612 0.25998658
-0.04391836 0.048830278 0.77665871
-0.15105224 0.055536207 0.2720359
-0.19343036 -0.035121735 0.3366552
-0.71175665 -0.20414092 0.9017188
-0.88701779 -0.024681643 2.0167654
-0.21308623 -0.059229121 0.72579378
0.086446181 0.051701009 0.923958
0.18284155 -0.24053678 1.1571345
-0.74111074 -0.13465071 0.93316931
-0.20168301 0.033384532 0.65706474
1.7809275 -0.12063991 3.803684
-0.60294235 -0.15246233 1.9638574
-0.070945956 0.059465796 0.35208684
-0.18563856 0.053445 0.5787124
0.77634722 -0.14943624 1.1114421
-0.18823725 0.052362498 0.39083272
-0.15300523 0.056355767 0.27690727
-0.19530101 0.040572099 0.46948403
-0.19497775 -0.035445001 0.33959788
-0.22873947 -0.2050245 2.3470614
0.68443459 -0.17147781 1.0896909
0.46668768 -0.14133079 0.78239781
-0.21292101 0.044118095 0.32637912
0.31914619 0.047360908 0.46648973
-0.26306227 -0.24458103 2.2124074
-0.60271424 -0.14208165 0.83690387
-0.18236713 0.058981571 0.49900812
-0.87104404 -0.2851803 2.0137556
-0.81141406 -0.28894433 2.3583176
-0.33620706 -0.15127268 0.84921855
-0.86791885 -0.26062128 1.9461572
-0.87159318 -0.2847591 2.0185134
-1.2922565 -0.093850218 1.9064412
0.099909104 0.0010553226 1.598331
-0.18118586 0.047965467 0.34233016
0.39349672 -0.13455701 1.5655057
-0.71555597 -0.16522883 0.95415324
0.23242091 0.050601549 0.29788882
-0.38050547 -0.01996921 2.7905824
0.075614497 0.0084958021 0.40397626
0.35702932 -0.11818743 1.164695
0.43047637 0.04013576 0.83756536
0.78724945 -0.12263747 1.1215932
0.46800819 0.040275134 0.75674003
0.60356104 -0.10456369 0.92234832
-1.1291118 0.0072366144 1.6908233
-0.24655272 0.051622033 0.63268203
-0.22931509 -0.13911937 0.73020846
-0.65309227 -0.15823349 0.93421108
