# .PCD v0.7 - Point Cloud Data file format
VERSION 0.7
FIELDS x y z
SIZE 4 4 4
TYPE F F F
COUNT 1 1 1
WIDTH 621
HEIGHT 1
VIEWPOINT 0 0 0 1 0 0 0
POINTS 621
DATA ascii
-0.16999653 -0.18605232 2.6628475
-0.23445556 -0.37095886 2.9552464
-0.16375843 -0.1829406 2.6153011
-0.20614293 -0.37957633 3.1321754
0.65570843 -0.024953067 2.0816407
-0.16459975 0.00056074187 1.8011079
1.0963773 -0.22718751 2.070138
-0.84786975 0.0028445646 1.6636467
-0.13314 -0.32631189 4.1301308
-0.27814743 -0.4072724 2.9192815
0.72457492 -0.015822213 1.5252509
-0.83396566 -0.47359586 2.6770515
0.12333533 -0.072639003 2.2799053
0.94995821 -0.025974914 1.7705197
-0.22824898 -0.3518503 2.602334
1.118319 -0.35714197 2.0861378
0.9000895 -0.012822755 1.7691994
1.0469178 -0.20134643 1.9148316
1.1368666 -0.23367667 1.9531121
-0.78839076 -0.44347075 2.7189703
0.62586641 -0.045275327 1.3779578
-0.78441608 -0.40005669 2.7480187
-0.83190382 -0.24606884 2.84936
0.15098831 0.053161014 0.51083755
-0.837883 -0.0042461082 1.2587218
0.65861058 -0.01445068 2.2358365
1.5674762 -0.31616724 2.7342024
-0.012098819 -0.42206317 3.086997
0.14807889 0.024879329 0.54100704
0.66286743 -0.02436246 2.2357416
2.8680665 -0.14869955 4.5357304
-0.80468047 -0.038011331 1.0367742
-0.94844723 -0.045434866 1.4350882
1.1263205 -0.023110121 1.6017499
-0.56629455 -0.38684401 3.915863
0.15309051 0.0534456 0.52965307
0.33864418 -0.067037344 0.80147028
1.0846015 -0.022991687 1.604701
1.1235391 -0.022737484 1.5967689
0.33588728 -0.062950954 0.78749228
-0.82230091 -0.074242026 1.287425
0.31502572 0.035105549 0.38155293
0.3817856 -0.29056185 4.4869127
1.0791403 -0.022125948 1.5978293
-0.97486484 -0.43336949 2.6389389
-0.10184923 -0.51816046 4.1261477
1.3119415 -0.31596404 2.0298319
0.34353951 -0.13943884 0.81999445
-0.012905627 -0.52345765 3.8338232
0.3904154 -0.29817253 4.5970297
-0.94608486 -0.41246003 2.6437654
-1.1198775 -0.40014565 2.8352222
-0.015446573 -0.52407497 3.8705692
-0.79151809 -0.350229 4.1366963
1.1605282 -0.023089137 1.5841799
-0.84743714 -0.21885076 1.6494904
0.28446385 -0.078535467 0.78233814
1.0706896 -0.021290727 1.5734162
1.1184506 -0.059686724 1.597352
1.0074525 -0.018316567 1.6245351
-0.76155961 -0.41144279 2.6842947
-0.85670602 -0.27572113 2.683053
-0.91295087 -0.45183221 2.6575851
-1.0217396 -0.41971052 2.6911898
-1.0061001 -0.38717449 2.5978289
-0.84163034 -0.022158764 1.3215375
0.2758306 -0.021090187 0.72808695
-0.76286018 -0.25230557 3.0173202
-0.7127353 -0.25996616 2.6089702
-0.84068644 -0.34330881 2.5810361
-0.75712907 -0.39825171 3.0931683
0.31088653 -0.09763059 0.9550128
-1.0866222 -0.39971438 2.7423954
0.34119245 -0.12044293 0.79699945
0.91816616 -0.057579491 1.3592281
0.0441055 -0.24255311 4.0737734
-1.0719825 -0.33564645 2.7127023
-0.84448755 -0.038160611 1.2673817
-0.8378123 0.019964252 1.2590446
1.1542771 -0.082587466 1.5466852
0.12077042 0.033428818 0.66281176
-0.81950688 -0.53598738 4.3298559
2.1227896 -0.17228702 6.2577972
0.99663723 -0.05116402 1.6326475
-0.65955579 -0.0010881498 2.5406094
0.20839009 -0.011453308 0.71770763
-1.1458794 -0.40259874 2.912797
-0.83555305 -0.48147392 2.6979489
0.17342362 -0.29478183 3.5579853
-0.43321583 0.046766907 1.1073389
-0.84577298 0.016420294 1.2781734
0.13113996 0.023843836 0.55095148
0.1568391 0.024438214 0.52174902
0.19246611 0.04263011 0.57564163
0.36304018 -0.069556624 0.78115845
-0.76238835 -0.34510255 3.6044416
-0.89517438 -0.35827285 1.6785097
0.3404626 -0.11853065 0.78205252
0.30167863 0.030452535 0.39329672
0.31502661 0.035004407 0.38160992
0.33162877 -0.067929894 0.78637457
-0.96091652 -0.151702 1.4941397
0.32627955 -0.046886209 0.7778306
-0.81493759 -0.22428149 1.5620685
0.14520386 0.024573911 0.53133869
-0.80832136 -0.25299802 2.8284435
-0.79219794 -0.43490633 2.7811027
-0.82528234 -0.073893189 1.2842813
-0.19624427 0.055569757 0.3239975
0.1574938 0.024671275 0.52265644
0.33001712 0.027919907 0.74876499
-0.87200356 -0.26428387 2.5426021
-0.16853252 0.0551176 0.50406361
-0.19204155 0.054568488 0.36565518
-0.95199156 -0.36204875 2.4704061
-0.85705256 -0.55542749 4.5486307
0.080202907 0.050686449 0.44243526
-0.83981013 -0.0060149617 1.2617126
-0.85050631 -0.038844939 1.279458
-0.80390942 -0.024555154 1.2480373
-0.90156913 -0.32375711 1.6878834
0.99814725 -0.044351298 1.6116991
1.1318165 -0.022062719 1.6042614
-0.774544 -0.38694724 2.6633716
-0.70881975 -0.377424 2.592772
-0.5906769 -0.03594159 3.5666504
-0.71013284 -0.20873304 3.2666068
-0.66536152 -0.21429417 3.7750669
-0.93864834 -0.36052129 2.6895676
1.0978072 -0.068650782 1.5862627
-0.86330545 -0.25570521 1.5452342
-0.93432045 -0.36010346 1.6276321
-0.15520641 0.056755971 0.44772816
1.0880415 -0.019559439 1.6056414
-0.17171749 0.050850254 0.70286798
-0.9560219 -0.27603197 2.5354209
1.349161 -0.2165834 2.2288465
-0.83888257 -0.2751433 1.637814
-0.88200605 -0.35850456 2.7341318
1.000604 -0.041513946 1.6110959
1.2222173 -0.30437997 2.0099115
-0.82069004 -0.37293562 4.1654954
0.017536551 0.0551139 0.56625986
0.31869349 -0.044384975 0.85992527
-0.9260093 -0.34445679 1.6127253
1.7343622 -0.39360893 1.9904652
-1.2302856 -0.47197944 2.9816194
-0.69745755 -0.25856936 3.304142
-0.68129241 -0.55978215 4.4808788
-0.78751075 -0.37782335 4.2560492
0.18553373 0.042453822 0.54726553
-0.90381646 -0.46097696 2.693696
0.95177889 -0.19639911 1.8904572
-0.87443376 -0.26168546 1.6676683
-0.87199426 -0.38309312 2.5456462
-0.88812578 -0.25387341 2.5922441
0.084406286 0.053516272 0.46784925
-0.36625543 0.056760687 0.54868269
-0.71660995 0.042981055 2.3670321
-0.80853689 -0.020035844 1.2653041
0.69545889 -0.14890757 1.2951612
1.1490028 -0.12848882 2.0759015
0.27738526 -0.078657031 0.81113291
-0.27481893 0.053219475 0.97188997
-0.78851604 -0.070364162 1.1996427
-0.84479523 -0.075882822 1.2724748
-0.79314542 -0.027731914 1.2698717
0.16629878 0.051989842 0.49855804
-0.79542589 -0.022971876 1.2770195
0.16547337 0.051833451 0.49750137
-0.9477905 -0.33606333 1.5865202
0.25708935 -0.0022101328 0.74132109
0.29971763 -0.10201079 0.92172098
-0.11023036 0.054525271 0.43649387
0.052147478 -0.15188915 0.92515659
-0.78905845 -0.024067234 1.262208
-0.7384845 -0.25709647 2.8862939
-0.48462632 0.038040712 1.021358
-0.053378493 0.056016535 0.31019759
-0.51431501 -0.055464264 1.8915181
-0.66715443 -0.0008793287 2.569829
-0.86049497 -0.2537564 1.538691
-0.69171596 0.0041139051 2.4763165
-0.76062143 -0.38292053 4.214468
-0.65434897 -0.18971244 3.46946
-0.85166919 -0.14344746 1.4872379
0.3385075 0.04272534 0.56428957
0.15078685 0.052428335 0.52502489
-0.37008336 0.057687767 0.5603447
-0.19424751 0.056019235 0.32640409
0.16372105 0.05181741 0.49354362
1.2805744 -0.023147158 1.522161
0.17902961 0.021802939 0.54436493
1.1145518 -0.25482655 2.0360241
-0.1016061 0.051921643 0.54259396
-0.76431143 -0.38391459 4.2214918
-0.92069912 -0.3314912 1.7268519
-0.85013843 -0.22941816 1.4947023
0.12406829 0.041983146 0.67205238
0.19992796 0.05062541 0.58858156
0.10180983 0.054572657 0.86830759
0.12742314 0.042912439 0.69197321
-0.053398222 0.053423889 0.44320345
0.30506209 0.035193402 0.38475633
-0.57865059 0.022382293 2.2531648
-0.68921328 -0.018700279 2.5567126
-0.56915224 -0.140425 3.1289692
-0.77654707 -0.23439255 2.9732599
-0.79658043 -0.015529189 4.0636754
1.2118967 -0.047011558 1.6305542
-0.71891582 -0.28292 3.9954166
-0.53838718 -0.38297182 3.7825451
1.1766208 -0.05215263 1.6376944
0.30403933 -0.047943626 0.79008102
0.12684593 0.043161735 0.70511007
0.30839214 -0.027258161 0.3840518
-0.93007731 -0.557751 4.6430025
-0.46348897 -0.16134447 3.2003756
0.26110873 0.035920411 0.45430517
0.33240667 -0.068477944 0.79054403
0.024259359 0.050909471 0.55644751
0.013229042 0.05270119 0.44463348
0.26223043 0.036327463 0.45555115
1.1020962 -0.068624943 1.5864134
-0.94247746 -0.32740551 1.5662975
-0.81110001 0.022271957 1.2744627
1.3329591 -0.30143028 2.0716324
0.16499838 0.054788925 0.51308918
-0.2063891 0.045845583 0.51642561
0.30749479 -0.025403608 0.38290834
-0.83792472 -0.28799048 1.6089354
0.25563088 0.035553209 0.4365406
-0.10447583 0.054058559 0.57865477
-0.85450947 -0.23639643 1.5502124
1.1279068 -0.043513354 1.5634451
-0.53861058 -0.39166743 3.8553195
0.36364087 -0.070359021 0.78272343
-0.11320975 0.055591557 0.44652224
-0.91114295 -0.33918071 1.681397
-0.16370746 0.048783962 0.75980282
-0.18775705 0.053907756 0.3549881
-0.78147924 -0.34387726 2.7043524
0.076751083 0.055915225 0.32802558
-1.1648997 -0.45005256 2.8165388
-0.94931269 -0.29859191 1.5607696
0.12359038 0.050276943 0.55269575
-0.15160981 0.056660321 0.44203138
-0.97545266 -0.43549365 2.6473622
-0.78560555 -0.45604947 2.6134048
0.11890325 0.047628466 0.51387548
0.33028665 -0.0004449822 0.7503314
-0.029022723 0.04882618 0.85639381
-0.27080372 -0.4041256 3.198247
0.29026327 -0.068777755 0.79596424
0.30411395 -0.048386101 0.79179478
-0.98436964 -0.30526951 1.5407987
0.22107831 0.049167082 0.32781458
0.24946579 0.038406711 0.4509306
-0.98056602 -0.23359796 1.4532499
0.30575219 -0.1090121 0.79280472
0.21802959 0.050984696 0.59221077
-0.89996243 -0.1561552 1.5167313
-0.21090296 0.046557967 0.63215876
0.11391869 0.040639166 0.33430696
-0.98583126 -0.32144788 1.5746522
-0.05269441 0.055940237 0.31251097
0.31616029 -0.066681415 0.89035034
-0.78230309 -0.031229604 0.99825144
0.012132496 0.053811044 0.45758152
0.3129572 -0.031519633 0.38118172
0.54440475 -0.29311398 2.5383739
-0.78504729 -0.032428507 1.0028687
-1.1980592 -0.46153319 2.9014754
-0.76149595 -0.40476578 2.7005811
-0.029814631 0.046099376 0.76580381
1.0856853 -0.21605194 2.3745499
-0.80118477 0.014145426 1.3222046
1.3924274 -0.26245636 2.1183066
-0.57691658 -0.090238467 3.2980237
-0.054391891 0.053884186 0.44336367
-0.7975558 0.023617603 1.2515731
-0.14617953 0.049438305 0.9411931
-0.4235433 -0.039723698 2.8304806
1.4171442 -0.25267333 1.8483753
-0.43732604 -0.24054757 3.0245085
-0.66692996 -0.10345905 2.391304
1.1480594 -0.080455348 1.5312562
-0.7803973 -0.2502023 1.5305004
0.12754348 0.015013378 0.65462971
0.2930887 0.042434011 0.63005447
-0.79765344 -0.078607306 1.2852826
0.42676327 -0.033218663 0.96091604
-0.8263253 -0.26486486 2.5896349
-0.83362186 -0.37576151 4.2346163
0.098703116 0.047572702 0.75642443
0.13392708 0.041953951 0.55122995
-0.96938741 -0.42342612 2.6812263
0.10720876 0.050344136 0.78203392
-0.51669884 -0.36206931 3.5899162
-1.0280023 -0.24061248 1.5328946
-0.81962025 -0.076150656 1.2511921
-0.8538847 -0.2400468 2.4780788
0.076360554 0.055862851 0.320611
0.30558124 0.03349752 0.39745498
0.07557264 0.05494266 0.30917978
0.30720779 -0.032878224 0.38223433
0.69352961 -0.20378177 0.92187357
0.37645814 -0.067249 1.2808828
0.30850586 0.017790409 0.38756895
1.1314526 -0.07848534 1.672102
1.1356529 -0.048107106 1.5672565
0.083958834 0.053306315 0.44798374
-0.209317 0.053480498 0.27567959
0.12606207 0.021327201 0.53291845
-0.18511394 0.057837509 0.27949595
0.15721861 0.02481569 0.51835871
0.30075547 0.017496681 0.38593841
-0.044331342 0.050473962 0.81862164
0.31087014 -0.044593196 0.83058023
-1.0357865 -0.18387228 1.4758768
0.1692178 0.052530006 0.50625467
-0.30336753 -0.42785022 2.9766307
0.30043855 0.04315713 0.64626503
-0.72101128 -0.40103197 2.711957
0.28884801 0.016289718 0.36718249
1.0741231 -0.34232402 2.1675057
0.33711329 -0.13056402 0.78930712
-0.11380079 0.055768825 0.44512844
-0.14983246 0.017743539 1.2405858
0.32208136 -0.13183038 0.75653458
0.25178334 0.047691278 0.33773947
-0.053060025 0.057439994 0.33042693
-0.89982545 -0.22915933 1.5780892
0.19046721 0.05409129 0.40676403
0.055548161 -0.15747038 0.99327898
-0.20872501 0.054992575 0.31476998
-0.83255112 -0.48714161 2.69662
0.2573137 0.032480415 0.33691573
-0.62337053 0.047972154 2.3470612
0.30450675 -0.084368974 0.38278151
0.33307579 -0.11683537 0.76525164
-0.48004416 -0.0079805292 2.4096236
-0.63397515 -0.050924782 2.9796247
0.36994788 0.029613435 0.84630871
-0.8993535 0.030052736 1.2779064
0.076001436 0.055641472 0.32555532
0.45672604 0.033277836 0.93265581
-0.10785857 0.054261819 0.57489967
0.14169225 0.052838273 0.53496838
-0.79442739 0.025120571 1.2465334
1.0180324 -0.32683498 2.0371199
0.25812617 0.032816563 0.33802938
0.15732923 0.053119645 0.49958944
0.15291539 0.052946527 0.53929853
0.65656626 -0.44555086 2.4334478
1.1843535 -0.34180862 2.0489902
0.1386278 0.058022812 0.29227352
-0.89199173 -0.28743905 1.5364671
-0.10087994 0.052547358 0.56208515
-0.12071839 0.053046372 0.5578618
-0.82643628 -0.040744204 1.2781358
0.051308662 -0.18884407 1.0124102
-0.18706611 0.053516481 0.34952593
0.31808028 0.013325488 0.38160443
0.21883884 0.045773439 0.43827152
-0.86851811 -0.039200414 1.3151569
-0.60235298 -0.051459048 1.9981914
-1.0252893 -0.21943584 1.684206
1.1101737 -0.022098504 1.5765119
-1.0223998 -0.23915026 1.5208044
0.2888591 -0.13609277 0.89138412
-0.58256686 -0.046558987 2.6937523
-0.19629869 0.0473467 0.51461029
0.33758023 -0.11686818 0.77281189
0.13084283 0.04108043 0.53692722
1.0151424 -0.30706546 2.0105233
-0.17667088 0.052164074 0.73806477
-0.053108126 0.056884788 0.32772565
-0.96512616 -0.33221763 1.5888777
0.6133796 -0.41216245 2.3657169
-0.5262711 -0.38536453 3.7855859
-0.79509127 -0.23616281 2.6801777
-0.20990381 0.053879693 0.27751803
0.14467159 0.026415002 0.5305934
0.18633863 0.048992716 0.52249575
0.17919448 0.021219138 0.53608656
-0.91847086 -0.34056285 1.6019015
0.19731286 0.056750171 0.36788845
0.24151143 0.034969352 0.44326544
-0.98790491 -0.30954817 1.5669427
-0.69262707 -0.36634904 2.5718565
-0.84280586 -0.25712585 1.5941381
-0.081397563 0.058541633 0.2661252
1.1830715 -0.29724306 1.9451337
0.29170904 0.039032377 0.4655447
0.0085174739 0.057400677 0.2973907
0.34822115 0.030493844 0.79991484
-0.042234153 0.050746098 0.84908819
-0.94816351 -0.15646721 1.2981544
-1.0055332 -0.18724364 1.5172682
-0.047790557 0.053776667 0.43094635
-1.2022749 -0.44891572 2.8318882
-0.81892264 -0.078775197 1.3284822
0.01881054 0.053984161 0.44750595
0.011437982 0.055218861 0.46123028
-0.71651757 -0.39600658 2.6975102
-1.0174714 -0.30347353 1.5950861
-0.16555724 0.049959727 0.76310635
0.34975311 0.029237542 0.80360508
0.30837849 0.026408615 0.39346385
0.48551998 -0.138401 0.74780798
-0.84752285 -0.30173093 1.5730786
-0.35862806 0.05722934 0.47093678
0.30836543 0.018220244 0.38673043
0.21719626 0.049379453 0.3574791
0.15086612 0.019313406 0.52581596
0.24865767 0.045109674 0.33668518
0.2107496 0.053858317 0.29512358
0.078793794 0.054494835 0.32022524
1.1557206 -0.33388212 1.996727
-0.16460255 0.056057781 0.38014793
0.23304442 0.044014651 0.46745396
-0.18542448 0.059014969 0.42387056
0.72139621 -0.41221559 2.3249087
0.2486262 0.036435302 0.34406233
-0.19309488 0.056399494 0.37723947
1.0108572 0.011947233 1.1928539
0.081896752 0.052360557 0.43052149
0.76021349 -0.48239183 2.4566021
1.3068966 -0.31776357 2.0235996
0.071894318 0.056674447 0.25132942
0.23693332 -0.10905409 2.1748843
-0.70828807 -0.19487327 3.1133504
0.21399477 0.048128597 0.35010338
-0.53359246 -0.11171649 1.9125853
0.87791371 -0.011999406 1.430934
2.0014796 -0.43006498 3.1166182
-0.19144192 0.055219412 0.34464574
0.12840065 0.049310662 0.66232252
-0.94278216 -0.18529071 1.1908937
0.23824021 0.044968501 0.47759056
-0.30788848 0.046103001 0.80401325
0.21414784 0.04816734 0.39212751
0.31598613 0.035480212 0.38239837
0.15591523 0.025474582 0.51478624
-0.37343034 -0.023823518 1.4819431
-1.0389619 -0.24459359 1.5513449
0.15586814 -0.162615 0.94723177
0.61123228 -0.4007656 2.4771519
0.31745437 0.035440993 0.38542438
0.63118351 -0.42161769 2.4392357
-0.056469351 0.055324659 0.45094061
1.2533506 -0.27637124 2.0167117
0.2186738 0.049264207 0.40258384
0.12534168 0.041144721 0.66935539
0.15084466 0.056705177 0.23890567
0.13282064 0.026501242 0.53131914
-0.47740021 0.039048132 1.0023475
0.21878639 0.049840048 0.40217495
-1.1519254 0.041972917 1.6675949
0.58439374 -0.18348876 2.5450754
0.22745714 0.05113668 0.30805874
-0.20343092 0.044270523 0.64260721
1.1800374 -0.26134348 1.8978767
-0.55832171 -0.16381735 3.779604
0.23396227 0.034429066 0.42482424
0.24838904 -0.03804611 0.75659513
0.56162715 -0.17928141 2.4408112
0.014081925 0.051369824 0.55316257
0.32538489 -0.056008477 0.77210331
-0.96167123 -0.18961523 1.2167258
-0.056976289 0.055744484 0.44946289
-0.82689345 -0.18265806 1.5484509
1.2006925 -0.30820322 2.0115156
-1.0352869 -0.017090168 1.7400622
0.30522051 0.026179057 0.38935089
-0.26115271 0.052798614 0.95062971
0.24968377 0.047412097 0.33431697
0.30101493 -0.083169922 0.37704372
0.2848005 0.038543437 0.4524169
-0.93459749 -0.17204648 1.1738553
0.71412063 -0.4554494 2.3052406
-1.2805099 -0.45118025 2.90871
0.24632093 0.046448708 0.49776125
-1.0363874 -0.2424334 1.5450711
-0.8387382 -0.047754753 1.26544
0.30780962 -0.024728987 0.38366508
0.29799107 -0.10260789 0.88120604
-0.86004949 -0.035877269 1.258811
0.31418994 0.01291072 0.40929699
1.3358706 -0.29263401 2.0681415
-0.19248399 0.055168644 0.36304569
0.14849189 0.054385163 0.34675741
-0.80766201 -0.041513588 1.2627435
-0.86061835 -0.24113238 1.6958938
-0.052208155 0.057040505 0.32776141
0.23693618 0.044780556 0.6227088
0.1546047 -0.16090515 0.93073702
-0.8714062 -0.47333455 2.6499672
-0.15201738 0.056000456 0.42187071
-0.82633674 -0.082587108 1.3414798
1.1687831 -0.37879488 1.9701838
1.3402306 -0.39330027 1.9817204
0.19371596 0.057826154 0.31601405
0.16880324 0.052409515 0.50212193
0.5825038 0.031280294 0.95744705
0.29794922 0.035462517 0.38782573
0.1493918 0.054595619 0.35056996
0.31830594 0.030226003 0.75337982
0.2399033 0.034246176 0.4297533
-0.27753499 -0.14913456 2.4190097
-0.76726246 -0.078853652 4.0557771
1.2583601 -0.25036287 1.8021421
0.18830124 0.0034380443 0.59084463
-0.12410137 0.060216058 0.29764986
0.3298153 -0.12988058 0.78902817
0.20789519 0.056359358 0.27664733
0.22381839 0.050668698 0.28036547
0.22069129 0.047856264 0.54364252
-0.84306705 -0.21065699 1.4896197
0.30019078 -0.1062298 0.77795029
-0.73090494 0.0021685995 1.1591525
0.63371396 -0.41957939 2.575582
1.2614836 -0.21999902 2.0094399
0.18974695 0.054192886 0.40606117
-0.84973478 -0.26954976 1.5431433
0.18496308 0.043711409 0.54418659
0.010645598 0.05353611 0.44009066
0.30560306 0.017783664 0.38377285
1.1192185 -0.33775818 2.0996137
-0.16365841 0.054538645 0.48839474
-0.98218453 -0.18187775 1.4764266
0.13928232 0.056597441 0.26389575
0.19162568 0.0045734309 0.59534264
0.9683913 -0.17275423 1.3960471
-0.63010299 -0.066511258 2.3602123
0.32134089 0.045980014 0.68492174
-0.32128373 0.048052594 0.96253347
0.33506379 -0.051436316 0.88579702
0.25715336 0.046070851 0.35081029
-0.1120005 0.054948781 0.43440533
-0.11156556 0.049232807 0.51581669
0.18322638 0.056191608 0.28340125
0.27316335 0.047311634 0.33788037
-0.63848674 0.1006853 0.93568468
-0.078711778 0.05993519 0.27338719
-1.094519 -0.20702486 1.6577735
0.20551088 0.054782454 0.34323525
-0.19058034 0.052607127 0.4437871
-0.047820419 0.046886899 0.3672595
-0.19874755 0.064756282 0.61697245
1.324514 -0.16351061 2.3113265
0.13591275 0.051494338 0.33090949
-1.0470103 -0.38449553 2.6456742
-0.15200725 0.05388996 0.36446524
1.0654261 -0.24123338 1.7837458
0.40654799 -0.034711424 0.92089033
-0.12118801 0.057745203 0.3026371
0.22746494 0.049325757 0.27219605
-0.18303922 0.057876889 0.26197338
0.32493797 -0.10862234 0.78046846
0.30521062 0.011545813 0.39419818
-1.0756431 -0.20290157 1.6277633
0.22791401 0.050940797 0.29455519
-0.19485238 0.05519069 0.25585747
0.18295673 0.056017183 0.2828517
0.053649396 -0.15568995 0.97365713
-0.82492864 -0.03828432 1.2714682
-0.44596395 0.046750925 1.0988693
0.15521124 -0.16253373 0.94631815
1.06376 -0.28439343 2.0465384
0.15599146 0.058477469 0.27435613
0.35513613 0.029832259 0.8138175
0.32576057 -0.13196692 0.79002571
-0.58543932 0.014203276 0.76367331
-0.05283758 0.056301571 0.32088852
1.0771724 -0.025493447 2.0044847
0.34927157 -0.066319808 0.757339
0.31946889 -0.031444948 0.3915534
1.4074415 -0.31618652 1.9531789
-0.12419584 0.05434889 0.57383776
1.0232669 -0.024746191 1.6531367
-0.38334593 -0.05771574 2.8811345
-0.46932533 -0.16715676 3.3457088
-0.24043623 -0.32258609 2.9391508
-0.74279869 -0.23295042 4.3889117
0.092549771 0.05721749 0.31947446
-0.21427688 0.045847602 0.51169252
0.30772516 -0.03269792 0.38309073
-0.1917766 0.055081513 0.31426549
0.35721573 -0.0011154637 0.81868982
0.14720961 0.058061153 0.76486063
0.57943761 -0.022188332 2.8657956
0.73379695 -0.4257426 2.5168033
-0.98061121 -0.16663438 1.233726
0.60824656 -0.32776228 2.4353437
1.0224657 -0.056438718 1.6830859
-1.0566278 -0.27379256 1.6143661
1.0937276 -0.024858143 2.0219822
1.4323126 -0.42582929 2.0526419
0.25368252 0.028898921 0.35088158
0.18022582 0.051376995 0.38004732
-0.83314526 -0.017043307 1.2857437
-0.21265301 0.045515984 0.50721025
-0.64448953 0.016361754 0.85614538
1.7562324 -0.059545334 2.0737295
1.1294541 -0.024331503 1.6047206
-0.35010567 0.055473123 0.47422743
-0.78807414 -0.33510029 2.6090817
0.36020383 -0.065235466 0.78521395
0.12573829 0.021827117 0.52978802
-0.22512177 0.046336643 0.83543873
0.21392003 0.054860927 0.30071449
1.4348012 -0.038758967 1.6995521
0.207414 0.056654684 0.27632499
0.33017895 -0.12855844 0.7729702
-1.0757625 -0.20317507 1.5604291
-0.19231108 0.055128925 0.36752892
0.028289407 0.055347368 0.61350536
2.745703 -0.058011103 4.4764528
0.67202759 -0.096816033 0.8095665
