# .PCD v0.7 - Point Cloud Data file format
VERSION 0.7
FIELDS x y z
SIZE 4 4 4
TYPE F F F
COUNT 1 1 1
WIDTH 551
HEIGHT 1
VIEWPOINT 0 0 0 1 0 0 0
POINTS 551
DATA ascii
0.36397713 -0.12122348 1.0439528
0.61767668 0.001769444 1.3942264
0.731062 -0.043110121 0.88934433
-0.26918697 -0.3334263 1.7533344
-0.39951158 -0.25796157 1.2475587
1.5060661 -0.10184056 2.5423684
-0.35077602 -0.20077243 1.2588557
-0.47337252 -0.0024756156 1.3783134
1.893959 -0.11290461 3.4952607
1.3305508 -0.090034142 2.9344401
-0.56540465 0.0035719555 0.82353342
-0.55685854 -0.036095317 0.82217348
0.34415126 -0.1602401 4.6793699
-0.29683441 -0.2169421 1.2659658
-0.23468448 -0.32474735 1.8533429
-0.25572437 -0.25375631 1.4605922
-0.24343298 -0.3220391 1.7890583
-0.23845281 -0.34624699 1.838842
0.24289279 -0.030758455 2.3638434
-0.55870688 -0.035586108 0.82567751
-0.30908334 -0.19682954 1.2341133
-0.56520677 0.00268583 0.8230592
-0.57521391 0.03143185 0.8352226
-0.57454377 0.030839421 0.83497822
-0.38038462 0.055883169 0.66168749
0.4613995 -0.16885942 1.899361
-0.5848406 0.021103401 0.77039182
0.38405216 -0.22755283 4.2596574
-0.23587073 -0.24933463 1.5521253
0.37773663 -0.42578694 4.743238
-0.27110267 -0.34080309 1.7802845
1.1153215 -0.052725788 1.5088693
-0.26043695 -0.26447037 1.8032187
-0.24184258 -0.25849956 2.1890125
0.31112844 -0.16125692 1.0579194
-0.43094635 -0.16672881 2.2603593
0.39831185 -0.23413578 4.4336386
-0.48930997 0.013428191 1.348662
-0.41320419 0.031152545 1.664385
-0.4916569 0.020403283 1.3582743
-0.52234173 0.018813077 1.3619221
-0.26949221 -0.23628035 1.451588
-0.32098269 -0.24136934 1.2243379
-0.46709889 -0.18420659 0.97302639
0.46703643 -0.20489098 2.7609324
-0.30627972 -0.38455313 1.862342
-0.27538031 -0.26196691 1.3752478
0.39152473 -0.21489021 4.3628254
0.49688542 -0.16936077 1.5219101
-0.53375661 0.018686108 1.1067299
0.31470656 -0.16299854 1.0775336
-0.54197901 -0.12394518 1.4329616
-0.2604115 0.068763152 1.1658052
-0.37228745 0.026285069 1.6241103
-0.39758044 0.059546839 0.53713834
-0.5400064 0.017436143 1.4048618
-0.5336774 -0.12039578 1.4012822
-0.54064196 0.016738176 1.4085084
-0.56404424 0.030544413 0.8365463
-0.20342462 0.055798002 1.0832082
0.041970149 0.049109608 0.81326616
-0.24774589 -0.34134138 1.9429127
0.37661803 -0.38626724 4.2667489
0.7049464 0.021322336 1.2948004
-0.21466739 0.052591182 0.38523257
0.70260388 0.020306429 1.2949041
-0.60832667 -0.062968373 2.2415762
-0.33060914 -0.16159706 2.1894855
-0.37859321 -0.17382875 2.5244899
-0.5786804 0.024105312 0.81755197
0.42755663 0.02443699 1.2072974
-0.42784923 -0.20452337 1.2207161
-0.46813601 -0.12121077 1.362311
-0.77709645 -0.10046932 1.9418145
-0.1780156 0.046256963 0.85255897
-0.42175138 -0.19448383 2.0701451
0.26584774 -0.29102099 3.0156083
-0.28299487 -0.21101733 1.4682583
-0.24044539 0.051328331 0.33253396
-0.53681982 0.0045997463 1.2227563
-0.41203165 0.031416893 1.6457487
-0.35728693 -0.19187154 1.2521561
-0.5705142 0.031408366 0.82531726
-0.54779661 0.014832296 1.1476575
0.4092955 -0.016500533 1.555555
-0.44015312 -0.16036791 1.2413243
-0.57424808 -0.00052308664 1.0324634
0.43110949 0.0075762216 1.2544636
-0.37860084 0.055838957 0.65390384
-0.45778787 -0.17289399 1.2561449
0.39526528 -0.16463803 1.1829885
-0.48547959 0.011513643 1.3433088
-0.13390048 -0.12333661 1.3151997
0.69520819 -0.055256609 0.91983163
-0.51545894 -0.22356698 1.3356303
0.35078704 -0.3477447 4.4768763
-0.2752949 -0.18568461 2.3351736
-0.36133659 -0.19465961 1.2731735
-0.54872131 -0.058710393 0.82321465
0.54601687 -0.1387848 2.2729216
0.66539723 0.0045472048 0.9170233
0.33936208 0.044092961 0.42075002
0.34997022 -0.28213069 1.8673149
0.6534878 0.03107721 0.98950565
-0.56386423 0.0023870561 0.82262933
0.24071009 0.050060987 0.74053752
0.14731465 -0.020856258 2.1236205
-0.56794882 0.0050392989 0.827968
0.14542155 0.058102399 0.33456218
0.40794015 0.039569687 0.86964667
-0.55558801 0.021106306 1.0239421
-0.54259527 -0.10901946 0.81813872
-0.47861516 0.0016152654 1.3650385
-0.070456997 0.058811899 0.36570299
-0.22335185 -0.29287714 1.7761639
0.19500272 -0.034146972 2.9937992
0.32683051 -0.29339418 1.7895862
-0.2956444 -0.30997232 1.7278832
-0.19081073 -0.19955239 1.8015658
1.3005767 -0.30135697 3.2429857
0.14621107 0.058018714 0.33967555
-0.57371026 -0.00053512119 1.0336274
-0.38173401 0.05657655 0.66104925
-0.17734332 0.047323473 0.86504662
-0.26681471 -0.29921421 2.5117302
-0.34274912 -0.25510594 1.2197741
-0.54039598 0.0041293763 1.4807349
0.075544253 0.056697778 0.35572398
-0.54711568 0.015434029 1.1413707
-0.31224 -0.26579946 1.2626702
0.5511688 -0.11018156 2.9767871
1.1813899 -0.0578367 3.3176637
0.44934076 -0.022038415 1.8259143
0.30524367 0.036329411 0.41969097
-0.2155221 0.052821614 0.38944304
-0.5073424 0.013425215 1.3048352
-0.41013891 -0.23036993 1.2129833
-0.27887332 -0.29011744 1.8548812
1.5148215 -0.28590301 4.1349039
-0.53000933 0.055603087 0.75157177
0.38199806 -0.18674462 1.0048224
-0.53604072 -0.12330273 1.4073428
0.30855119 -0.19884108 1.0879086
0.15848289 0.055261597 0.49365723
1.000236 -0.15209551 1.6492664
0.51041925 -0.18253314 2.1435452
0.22652189 0.035759278 1.2818824
-0.19690941 0.054771364 0.39484942
0.31202209 -0.25023109 2.0391116
-0.77158546 -0.079526201 1.6542627
0.25800753 -0.19461606 1.0462543
-0.52183408 0.0076736733 1.4458195
-0.42941064 -0.18186031 0.94809163
0.4390229 0.042043846 0.5234977
0.42131543 -0.075338483 1.8071083
-0.27768826 -0.28182393 1.3099447
-0.51568866 -0.13079794 1.320603
-0.54634893 -0.10981318 0.82590306
-0.46635377 -0.20032659 0.94419229
-0.18631311 0.053440481 0.75088441
0.6626085 0.0046369322 0.91369879
0.35479802 -0.20148629 1.0811187
-0.52855611 0.046108291 0.79099691
0.51739758 -0.18634956 2.149251
0.31624806 0.038523473 0.42482436
0.31939906 0.023636362 0.43641627
-0.42224675 -0.22376996 1.3287839
0.42810988 -0.16267456 1.1337639
0.36915565 0.037360456 0.73800886
-0.50562811 -0.19227628 0.89213502
-0.30063909 -0.37619427 1.8214701
-0.10354961 0.053872436 0.71068704
-0.051847383 0.054773524 0.62109482
0.15767951 0.044935528 0.70238459
0.31388253 -0.17719018 1.1128963
-0.55517125 0.046095632 0.75974143
0.31018186 0.036897723 0.40982687
0.043269619 0.051344249 0.85227907
-0.22260775 -0.22597328 1.9790956
0.33325368 -0.22501829 1.3951496
-0.27638978 -0.19985025 1.3934823
-0.31156862 -0.19870082 1.2458264
0.58843374 -0.12220582 1.5196759
-0.38205653 -0.19954467 3.1941237
0.31595862 0.036422953 0.43776619
0.31845152 0.0017110482 0.42839444
0.32136208 0.037404854 0.43426526
0.20787454 0.056029461 0.30069792
0.32415587 0.033306595 0.42483103
-0.50237697 0.05133041 0.85363448
0.12561525 0.058192693 0.33019197
-0.21735452 0.053646378 0.39366376
-0.44103616 -0.18259814 0.93338549
0.33869439 0.045589112 0.56361425
0.12462451 0.05750116 0.32603061
0.438115 -0.16570726 1.1619645
0.39436615 -0.1652994 1.1824461
0.9295488 -0.085660458 2.7705173
0.40548247 0.024425445 1.2087482
0.21154247 0.056323919 0.49477708
0.25612307 -0.21768624 1.1067449
0.30379474 -0.21036236 1.0762829
0.31727427 0.032779042 0.4338578
0.31662714 -0.15163143 1.0932833
0.010315642 0.057524454 0.30663574
-0.038453609 0.051833045 0.66521537
-0.42480481 -0.20323044 1.2142273
0.55453944 -0.16635488 2.0144753
-0.37246209 -0.22857744 1.2543999
-0.42295086 -0.22461662 1.3336512
-0.054708853 0.054829646 0.43538678
1.5036783 -0.43594214 4.0887055
-0.39352316 0.029099751 1.7086865
-0.56733835 -0.18170193 1.5368415
-0.70799196 -0.057771455 2.6784444
0.32249153 -0.17660913 1.7911953
1.5383489 -0.37317955 4.1045456
-0.28547835 -0.38024777 1.8853019
1.5161407 -0.34422716 3.8132801
-0.46235204 -0.12036294 1.3383321
-0.48179126 -0.071497887 1.3747469
-0.12046185 0.029902777 1.3338195
-0.38615406 -0.037916724 3.0467
0.62941742 -0.37544015 5.6545744
-0.28198487 -0.20247601 1.3457979
1.5181514 -0.44858122 4.1856117
-0.1915171 0.06104704 0.30907691
-0.052051023 0.055979092 0.61936915
0.36418533 0.046436556 0.57216847
-0.4092139 0.029421009 1.6330258
-0.20535226 0.057153948 0.42150962
-0.47251326 0.034950558 1.3656303
-0.20937316 0.053989813 0.32294405
0.33283311 -0.22616729 1.1001743
0.32496613 -0.14274566 1.0686177
0.17244713 0.051362503 0.80096447
0.45402735 -0.18173687 2.0046453
0.3137452 0.03403616 1.893767
-0.22331966 0.053175833 0.31333363
-0.033923656 0.055110402 0.92646611
0.40318215 -0.2240687 1.020151
0.32566988 0.034187578 0.42384493
0.67658532 -0.006603606 0.98703372
1.0882396 -0.27965426 2.0928202
0.24361925 0.047829933 0.64890802
-0.47331721 -0.12343685 1.3795949
-0.5585233 0.031073084 0.81030428
0.31786555 -0.21985553 1.1293529
0.32815844 -0.059896972 1.4224845
0.26152718 0.052564323 0.43513858
0.31536502 0.032764509 0.43107259
-0.4935708 -0.21115807 1.26183
-0.48444843 -0.14327644 1.3390292
0.13572751 0.058396235 0.34397733
0.33114344 0.026839359 0.4219538
0.35520428 0.024546072 0.46929181
0.3174957 0.024399811 0.43732345
2.2844694 0.21501945 3.6880965
0.78781748 -0.034024466 1.0309705
0.65720057 -0.19521356 5.4271922
0.33716118 -0.46842861 4.8016744
0.3223924 -0.46765533 4.6799202
0.24143638 0.047838476 0.64140117
-0.55524373 0.056189656 0.94283998
-0.020201504 0.047867693 0.88186562
-0.49695051 -0.19967507 0.93493021
-0.21413051 0.045363888 0.68195283
0.88346875 -0.032418258 1.992555
1.099439 -0.27181527 2.098011
0.38073152 0.042231768 0.742746
-0.20935042 0.048912972 0.44557798
0.75360191 -0.029118314 1.3941344
0.21115263 0.056258507 0.2929877
0.079588249 0.055190176 0.44163215
-0.29565382 -0.26252031 1.6186398
-0.32491827 -0.2872774 1.7803735
0.2563597 0.045922123 0.88008273
0.34455323 -0.19924851 1.0585548
-0.58450496 0.032962207 0.85426486
-0.60228139 -0.058125135 2.1602683
-0.50897783 -0.18383195 0.95436752
-0.25008523 -0.21181217 1.8474814
-0.45940322 -0.27954286 1.3493518
-0.33393252 0.083323166 0.6898495
0.26016295 0.047271647 0.89895308
1.0147151 -0.30678645 2.584435
0.15601085 0.054614156 0.48168743
0.4203428 0.009074524 2.2673507
-0.24613459 0.053676523 0.31310856
0.33263022 -0.20807435 1.0819761
0.33800846 -0.21003954 1.0990309
0.0096534342 0.058744986 0.3188678
-0.19696929 0.053024154 0.48019207
-0.29624307 -0.35092795 1.8413595
0.98444414 -0.29417136 2.4665608
0.48550415 -0.093522087 4.4879336
0.32900876 -0.14886399 1.2886802
0.23104413 0.051368639 0.43579447
-0.033301085 0.053976018 0.91945088
-0.51741743 0.042028669 0.82085598
0.75434613 0.018926224 1.6953281
-0.53913319 0.016503282 1.219539
-0.11649372 0.058170769 0.36381567
1.4716531 -0.20526999 3.8841877
-0.46331531 -0.12306121 1.3506004
0.11421244 0.049020082 0.88097751
0.025627092 0.051166795 0.67621911
-0.52803802 -0.1845638 0.89682472
-0.48657072 -0.18584403 1.0134665
-0.30779463 -0.2271975 1.3286952
-0.21437071 0.051691964 0.48698437
0.38707328 0.039930552 0.68934357
0.216445 0.058304697 0.30376112
-0.21296124 0.055149995 0.27446187
-0.51288915 0.041851573 0.81226146
0.5242191 -0.039533783 0.64417374
0.15927921 0.051355377 0.64625132
-0.38651317 0.056626968 0.80631483
0.092804879 0.058214724 0.30054986
-0.20946984 0.054112066 0.32374036
0.21582623 0.058155183 0.30256689
-0.58510226 0.031519152 0.85456169
0.35887796 0.045292813 0.56069791
-0.57750487 0.025206305 0.790923
-0.70472479 0.078361906 0.97111261
-0.58319736 0.026129872 0.75149214
-0.20929869 0.049706329 0.59341633
1.1424942 -0.056996804 3.2080755
-0.31532478 -0.23813257 1.2043396
0.31811386 0.044861108 0.58247888
0.21520916 0.058213387 0.31505811
-0.19536541 0.055110157 0.3883661
-0.19900025 0.057385672 0.27859533
0.42147464 -0.32142866 2.2318854
0.53382605 -0.16022781 1.3411046
-0.19668318 0.046944954 0.66353214
0.33044356 -0.076902375 0.42890513
-0.53423476 -0.11967997 1.4035031
0.44321144 -0.17826496 1.9343971
0.2312829 0.05159007 0.43532526
0.21331012 0.058427475 0.31318414
0.23457761 -0.25355381 1.2393378
0.10531406 -0.034770954 1.0487069
0.3173058 0.032993212 0.43424022
-0.38080263 -0.233435 1.2872292
0.10738884 0.047178514 0.80680144
-0.48658848 0.01304625 1.3472975
0.37229121 0.04143437 0.4609257
-0.54363918 0.016250113 1.3725611
-0.3088997 -0.19670016 1.2400907
0.42932153 -0.13267875 2.8741851
-0.023892239 -0.1630467 2.0353613
0.33517528 -0.13729286 1.7186681
0.23070969 0.051664546 0.43420947
0.20213942 0.054350682 0.78019583
0.50679803 -0.21254192 1.5319301
-0.18618934 0.053563956 0.73319209
-0.70221448 0.010864884 2.8135519
-0.19114845 0.055412669 0.59312022
0.32762355 -0.028621286 0.42873609
0.043724924 0.059067797 0.24801815
0.33232301 0.0069963839 0.4426657
0.37578362 0.047096509 0.59305179
0.22709905 0.056736708 0.27898014
0.070077807 0.053359859 0.31775391
0.13535206 0.056059927 0.41723001
-0.20362271 0.057160534 0.30570829
-0.57254124 0.02039662 0.75382149
0.35574019 0.03892396 0.55691278
0.31661326 0.0061658975 0.41859329
-0.20931123 0.031175017 0.36378038
0.23732661 0.052393071 0.34012401
0.12747504 0.058532462 0.32524788
0.40075982 0.037652798 0.50079644
0.14732684 0.058186106 0.34432161
-0.19000678 0.059680581 0.34854376
0.31525511 0.044391036 0.5758239
-0.21455051 0.053332448 0.38809097
0.30583382 -0.19569221 1.0726815
0.32264215 0.030115044 0.42765749
-0.21419986 0.055137061 0.27656806
0.24917243 0.052582607 0.76901114
0.34819418 -0.196174 1.0517195
0.32211149 0.0048568528 0.42735851
0.32408816 0.032604825 0.42581093
0.21986906 0.057441544 0.34258711
-0.54538226 0.045921866 0.74702847
-0.46148777 -0.098920137 0.76823342
-0.19728447 0.057040207 0.27529871
-0.0605205 0.057422012 0.34334648
-0.57646608 0.032634616 0.76357329
-0.53578085 0.034072723 0.98485982
0.33505189 -0.086642712 0.43699062
-0.42445028 -0.25824308 1.2395514
-0.19302122 0.052152909 0.46785676
0.32886434 -0.035677899 0.42666614
-0.071258277 0.059577595 0.36525524
0.31169742 -0.2149069 1.0294856
-0.55236959 0.022973457 0.86766446
0.75986624 0.020262217 1.7068943
-0.057475165 0.059308052 0.49036992
0.077012464 0.057637118 0.34650457
0.15129326 0.046927467 0.60202157
-0.48585439 -0.21103859 1.2521902
-0.54110277 -0.17891109 1.4623014
-0.41923976 -0.22236405 1.3198098
0.82447779 -0.051001783 2.1078935
0.30608732 -0.15743425 1.2087678
-0.056490064 0.056997359 0.46455133
-0.52287346 0.017748628 1.3172511
-0.53184867 0.057535782 0.76380479
-0.25592637 -0.2890822 1.4068388
0.59708548 -0.081063986 2.321804
-0.48095977 -0.1822762 1.3502859
-0.47919899 -0.046663497 1.7235063
-0.39191312 -0.15150936 1.845342
-0.035523534 0.050948743 0.65862548
-0.48775357 -0.18240686 0.9776963
-0.57416326 0.046502657 0.7208842
-0.2799812 -0.26337063 1.2261461
-0.11434983 0.054263435 0.88354385
-0.51616699 -0.17560475 1.4007589
-0.74624789 0.21255155 1.4723083
2.385807 -0.12196392 3.9654012
1.2740308 -0.046376768 3.2011671
0.31922102 -0.23592708 2.3874092
1.4292455 -0.14382029 1.7559038
0.91808367 -0.11987463 2.5210295
0.23483627 -0.26308048 1.2141765
1.3059721 -0.18179803 3.8431363
1.0989654 -0.35187912 2.8064566
0.58230013 -0.10793956 3.6629305
0.39366037 -0.11388165 1.9250604
-0.42029291 -0.10397366 3.3295765
-0.10202795 0.031471215 1.441842
0.20211215 0.054227963 0.46311915
0.32706451 -0.052930575 0.43226588
-0.19807042 0.047793038 0.66999996
0.32338405 -0.052400995 0.42769182
0.13399027 0.060558062 0.34056962
0.6081019 0.029789727 1.1872417
-0.083365843 0.059036564 0.2939285
-0.53948629 -0.21952684 0.95778668
0.24744041 0.050267078 0.39478052
0.33526212 0.033153772 0.44277823
-0.39432538 0.059766926 0.53569758
-0.19851257 0.056492049 0.25802195
-0.19912107 0.056098424 0.24817407
0.33747786 -0.054743532 0.44891798
0.07515423 0.056606095 0.33996499
-0.060928389 0.05838348 0.34788024
-0.067472264 0.05641064 0.3378402
-0.54867154 -0.14524852 0.66669834
-0.22879733 0.055589832 0.33771312
-0.55036521 0.027257835 0.82788789
0.14795056 0.059174132 0.31549609
-0.53872573 0.033162873 0.78178036
-0.21377541 0.054912928 0.27581322
0.31940681 -0.051466245 0.41918981
-0.48957938 -0.16490656 0.79455078
-0.19759856 0.053909197 0.60818231
-0.5746724 0.025597651 0.73665178
-0.05495064 0.057572275 0.47483742
0.079386637 0.055456139 0.44586051
0.32766145 0.0026644915 0.42846549
0.32046986 0.03382168 0.4151696
0.16648434 0.051586255 0.64510071
0.031394303 0.054583281 0.29391825
0.033825919 0.058498204 0.31995356
0.31920052 -0.051542271 0.41888511
0.33772868 -0.12617083 0.60945499
-0.20024075 0.05957517 0.86023581
-0.38309652 0.056804307 0.66071332
0.28276408 -0.058380883 0.37427962
-0.45705426 -0.18772839 0.9398464
0.32553172 -0.046637792 0.4310261
0.2465647 0.050026696 0.39303625
0.3368758 0.045645021 0.56088936
0.33587551 -0.0092210807 0.43797171
-0.084529877 0.059698835 0.29853952
0.32806516 -0.0087441802 0.42667305
0.22222431 0.058394112 0.34730875
-0.54838151 -0.059238981 0.81882584
-0.20825626 0.053785454 0.32161224
0.31772649 0.0019438602 0.41318762
0.088155493 0.057845064 0.29900563
-0.070879087 0.059164412 0.35820377
0.33171439 0.023427855 0.42905486
0.30375338 -0.21080473 1.0756825
0.24945126 0.050111737 0.39874613
0.63166088 0.028931292 1.2324167
0.2457426 0.050130408 0.40376651
0.32056361 -0.011376351 0.42417157
-0.83181673 -0.17952561 1.456884
0.32801533 0.004423961 0.42112672
-0.083628178 0.023418672 0.17861903
-0.052105486 0.053314842 0.43218267
0.43898481 0.034519415 0.82837641
0.33097559 -0.2305851 1.0316178
-0.21368726 0.060422812 0.32347691
0.32958865 -0.083217502 0.4281286
0.43135583 -0.22460988 1.0584549
-0.057266429 0.06044599 0.31738055
0.078352466 0.054054245 0.42660606
-0.43413174 -0.18985523 1.113845
-0.50790048 -0.1666946 1.3522054
0.74932468 -0.028744243 1.5328487
0.77789992 0.011355409 1.7869939
0.77805996 -0.048243616 1.9813055
0.46399248 -0.12418303 1.634029
0.3627457 -0.17519917 1.2810067
-0.052869171 0.054643273 0.59024775
-0.22007893 0.058272853 0.39164197
0.70710301 0.015910331 1.5901283
0.31816703 -0.051390652 0.41899145
-0.31051612 -0.198503 1.2450043
1.1109279 -0.28033566 2.1558146
-0.51121259 -0.18676126 0.9334594
0.31657463 -0.15710752 1.4068681
-0.076206595 0.045745797 0.71496856
1.6248145 -0.39730629 3.7111382
0.049443558 0.055747624 0.9136883
1.4054687 -0.064565152 3.4285684
-0.083732873 0.049610872 0.78394186
-0.32488191 0.076190539 1.1199495
0.6193459 0.029113909 1.2029155
-0.51206827 -0.18561457 0.96414483
-0.28143042 -0.21243231 1.6905648
-0.53394586 -0.23531654 1.3922335
0.41379714 -0.052750539 1.8971871
0.68230081 0.023435231 1.1973559
-0.30915171 -0.228643 1.3352712
-0.036593035 0.050862398 0.6486131
-0.27427417 -0.38802445 1.862301
0.40250254 0.026710432 1.1980914
-0.34046429 -0.26073915 2.0657153
1.8082229 -0.28884214 4.3474364
-0.38665932 -0.17626722 1.2485055
-0.27907962 -0.30834687 1.3852552
-0.25261045 -0.21119738 1.8503722
2.5706618 -0.60442954 6.9055495
-0.32250035 -0.30165017 2.6779757
0.63894629 0.030543447 0.99416292
-0.5576278 0.0017226823 0.82527292
-0.22213735 -0.41772255 3.7384439
-0.17993976 -0.42514125 4.1260691
-0.23140855 -0.34159568 1.7993797
-0.30199409 -0.3695479 3.4113278
0.1681677 -0.14166687 2.7964377
0.30284637 -0.26192355 3.9704895
0.21982022 -0.029661048 0.74945128
