# .PCD v0.7 - Point Cloud Data file format
VERSION 0.7
FIELDS x y z
SIZE 4 4 4
TYPE F F F
COUNT 1 1 1
WIDTH 386
HEIGHT 1
VIEWPOINT 0 0 0 1 0 0 0
POINTS 386
DATA ascii
0.64750928 -0.10174606 1.3383393
0.65559161 -0.12443013 1.3211615
0.96830606 -0.21290025 1.4477541
-0.91678303 -0.01762747 1.8574238
-0.72263318 -0.062469386 1.3371894
0.27577788 -0.1765442 0.84959644
1.0204873 -0.36039126 1.5835621
-0.19807239 0.053359248 0.51222652
-0.58643478 -8.3393417e-05 0.84651655
-0.85875416 -0.10799967 1.2921629
-0.62008435 0.025233809 0.84667712
0.22154123 0.05898241 0.61815614
0.33797812 0.026686355 1.0213864
0.99339533 -0.27518022 1.4305658
-0.59964502 0.020084351 0.85064381
-0.63758779 0.025043441 0.87627262
-0.72723055 -0.16881917 1.1512392
-0.71629506 -0.16516371 1.1414011
-0.81723946 -0.23506229 1.4495919
1.1007144 -0.28145573 1.6285439
1.0037196 -0.16727896 1.2287829
-0.8589372 -0.10759557 1.2884705
-0.76098073 -0.19360165 1.163584
-0.86762583 -0.2027753 1.2052395
-0.59741712 0.022464445 0.84735912
-0.8758291 -0.11543664 1.2988093
-0.79239559 -0.18862717 1.1451132
0.19996095 0.06590876 0.33685261
-0.58754438 0.020774996 0.87375194
-0.59701341 0.023178371 0.84636146
0.39033297 0.052109003 0.53614265
-0.8884086 -0.2078914 1.2462397
-0.82044238 -0.17253977 1.155082
-0.85628885 -0.17162049 1.204092
-0.75056195 -0.16480428 1.1244524
-0.16877092 0.046655782 0.56942195
-0.94305903 -0.082423069 1.783006
-0.59714669 0.0031056916 0.93342
0.2105727 -0.26317361 1.4213495
-0.64519751 -0.18287362 0.98658031
0.64149106 -0.12238088 1.2845945
0.29773009 0.029504905 0.88993949
-0.21767083 0.02450618 0.59093529
-0.79889351 -0.18811592 1.0882885
-0.61493951 -0.17359413 0.98052019
-0.74061561 -0.1639462 1.0998468
-0.86724383 -0.20569992 1.2213876
-0.88880122 -0.09635371 1.2838285
0.51014632 -0.15490638 1.358366
-0.18046799 -0.077606946 0.53756982
0.98907357 -0.26128718 1.4805882
3.3524079 -0.59249932 4.5305977
0.42989731 0.050607376 0.50249118
0.37634701 0.037362725 1.4448297
0.33835262 -0.16308571 0.77208012
0.33429703 0.035845645 1.2999594
-0.39970112 -0.18994637 0.97700566
-0.19543131 0.041743122 0.64505261
0.22153273 0.059928201 0.2714569
-0.90008634 -0.018353995 2.0589108
0.48059884 0.050630949 0.63899046
0.061081674 -0.21078143 0.98973686
-0.75819606 -0.16649187 1.1333852
-0.80486286 -0.036306806 1.9736125
0.21226615 -0.22325264 1.4089768
0.33719882 -0.16263814 0.76915461
-0.85292298 -0.089130379 1.2670493
-0.56727993 0.0018671677 0.86673409
0.43132943 0.051306181 0.50449032
0.37882066 0.035866469 1.4375398
-0.23989837 0.055210494 0.46769315
-0.71713668 -0.16528796 1.1447346
0.085001081 -0.19124691 0.96919495
-0.1994697 -0.056525201 0.57501596
0.46713525 -0.12184111 0.86729342
0.059967857 -0.21070132 0.98825377
0.56409556 -0.16720101 1.57512
-0.71350658 -0.16597056 1.1119542
-0.2185773 0.02468955 0.58559006
0.35101506 -0.13702695 1.3453023
0.069564566 0.058001339 0.62596339
0.39094889 -0.0023790142 1.3892066
0.22153051 0.059097275 0.4292199
-0.94484317 -0.13004658 2.0112936
0.19035289 0.037192255 1.3410532
0.25247526 0.058678217 1.1550763
0.70190817 0.0068018306 3.2054965
-0.19602835 0.053437553 0.50435275
0.21667974 0.062501676 0.45567119
-0.19670555 0.026440585 0.63867456
-0.2658186 0.056058645 0.48317772
-0.57578081 0.026244786 0.87241894
0.21656044 0.061873741 0.45489115
0.2292029 0.059352152 0.56813532
-0.89723635 -0.11293146 1.352659
-0.78575438 -0.196514 1.0823259
-0.86265486 -0.19853137 1.1936564
0.83673352 -0.17758279 1.3731024
2.7915034 -0.4827866 3.8254356
-0.22379348 0.0083737113 0.62205976
0.60022587 -0.18820368 1.6564908
0.49466455 0.051891752 0.66950983
-0.20056391 0.053566448 0.52166146
0.39041415 0.052021101 0.53733474
0.8746047 -0.14725977 1.3699498
0.83499092 -0.17930445 1.3720648
-0.79571968 -0.19890426 1.1006098
-0.88896149 -0.019849215 2.0297313
0.069729023 0.06160105 0.45903176
-0.90825188 -0.014724875 2.0978503
-0.26624504 0.056179285 0.48545724
-0.19681637 -0.025458304 0.58026022
-0.9237873 -0.10416632 2.0033495
0.21535225 0.061144091 0.45041394
-0.088976763 0.055525266 0.2610088
0.98580927 -0.193271 1.4432366
0.19570933 -0.29752344 1.4784663
0.16310838 0.06721063 0.80995256
0.020553071 0.060039163 0.42775488
0.28335184 0.047426671 1.5216882
0.070434541 0.061505742 0.45584601
-0.92508072 -0.099076822 2.0307438
0.069728628 0.061029196 0.44966686
3.6673739 -0.29717329 4.9913964
0.22013678 0.059453137 0.26835328
-0.13726573 0.052718699 0.5841226
-0.35123348 -0.17318337 0.9734742
0.39286357 -0.2386281 2.5079312
0.9412573 -0.20794386 1.4024496
-0.59064597 0.045927785 1.2180374
-0.078041457 0.056454003 0.28277928
0.41489512 0.054584324 1.0350561
-0.91880888 -0.017107075 1.8557506
-0.20689023 0.056358911 0.40958411
0.2353383 -0.11145736 1.225035
-0.20496687 0.056131847 0.43614262
-0.046178591 0.054679558 0.8111189
0.37582225 0.048575319 0.97713071
-0.80995733 -0.14328261 2.3213155
0.21883152 0.060823031 0.46445805
0.95768762 -0.18019918 1.3875456
0.15517375 0.062525272 0.74030322
-0.1689567 0.049261555 0.67205185
-0.8866694 -0.017838284 2.0285065
0.48800784 0.052639835 0.65566486
1.975881 -0.26930717 2.6939065
-0.94125813 -0.11535176 2.0770094
0.49716824 0.049820445 0.57244569
0.2090576 -0.26055452 1.5669086
-0.89024794 -0.019336129 2.0308697
-0.18449616 0.037063539 0.58871931
-0.24437606 0.056923889 0.38549769
-0.19460988 0.03657186 0.97253531
-0.84171379 -0.10386241 2.2544186
-0.003532256 -0.21720752 0.95472163
0.80187231 -0.16865186 1.3774922
-0.89396822 -0.092487015 2.0251753
0.58487302 0.068508804 0.93178874
0.046938274 -0.23207539 1.0035498
-0.51327962 -0.22668572 1.1294401
-0.13386792 0.052652843 0.4361766
-0.1968271 0.054776102 0.54483682
0.088554189 -0.0085027516 0.43545318
0.1655618 0.06462121 0.51532453
-0.85955507 -0.10697722 2.3040159
-0.61201811 0.043058828 1.2710302
-0.39432582 -0.15323073 1.026547
0.18089527 -0.28391862 1.3842344
-0.86042053 -0.17777234 2.3176427
0.36024439 0.050348029 0.9513697
0.14028026 0.058990218 0.70222324
0.084220603 -0.23170951 0.9962644
-0.93604672 0.029627698 1.7909284
0.36020273 0.048765078 0.94543034
0.038679063 0.05464875 0.37863755
-0.82578325 -0.036722302 2.0268121
0.18533489 0.060965918 0.75920361
-0.80660886 -0.14625274 2.307816
-0.24432632 0.056610003 0.38560164
-0.42491084 -0.2185504 0.94850188
-0.597404 0.043852091 1.2316864
-0.078496158 0.057449535 0.28859419
0.77629822 -0.036849894 2.0313702
0.21784475 0.060273238 0.46102512
-0.029677756 0.064306736 0.30994129
0.14550883 0.061351627 0.74082094
-0.41554433 -0.20049141 0.96567625
2.1744761 -0.34629101 2.5968211
-0.26442289 0.05766698 0.45381427
-0.18796575 -0.040649906 0.56512851
-0.12468389 0.05148755 0.96160012
-0.88470936 -0.11709188 2.3543496
0.43441123 0.047460347 0.98443216
-0.40985772 -0.19442518 1.0007341
-1.0166579 -0.17665935 1.2413557
3.2242188 -0.5780943 4.2888522
3.3896923 -0.56401521 4.4089155
0.16913925 0.061332174 0.97761422
-0.20808591 0.057051197 0.413167
-0.22554298 0.052253172 0.47909993
0.40818837 0.049387895 1.0718291
-0.8781966 -0.11242171 2.3501568
-0.19675031 -0.02517196 0.57884878
3.5947022 -0.5629546 4.5936422
1.0644037 -0.039612554 2.5094612
-0.018619828 -0.2179731 0.99680132
-0.91539538 -0.015713342 2.1196747
-0.86488742 -0.16804953 1.25488
-0.38957277 -0.16984534 0.93624836
0.37323618 0.0043780878 1.1954968
0.17967862 -0.29331145 1.3207762
0.47776288 -0.060209684 2.5816183
-0.29153353 0.057019271 0.44849253
-0.14167115 0.058075234 0.42038167
-0.58699876 -0.21371758 1.094979
-0.22404602 0.024594365 0.61496323
0.34342203 -0.18980257 2.159502
-0.19835426 0.056147017 0.55498093
3.3281791 -0.61236948 4.4496393
0.58141768 0.019373862 0.76581937
-0.83251721 -0.1116673 2.1951931
0.97235852 -0.21400341 1.4514558
-0.10884713 0.057750732 0.36827463
-0.19249603 -0.063429482 0.96247226
-1.1174961 -0.2714352 2.2615428
-0.85272074 -0.10648545 1.2829819
0.5766114 0.01745609 0.78066605
0.59413022 -0.17846258 1.5713966
-0.20605266 0.040714763 0.57333308
-0.511154 -0.21098502 1.108743
0.60268593 -0.17937087 1.6121061
-0.19162849 0.0014575412 0.94063133
-0.90980995 -0.099409036 1.3219771
0.050201818 0.067350313 0.35452622
-0.1967487 0.054152571 0.50974756
0.38310871 -0.16009657 1.4717565
0.55708319 0.025636164 0.65735728
-0.19473624 -0.03623233 0.55100507
0.82588738 -0.16173553 1.3503671
0.089059994 -0.19230027 0.97640342
-0.060111236 0.062825352 0.69630402
0.97715312 -0.23607558 1.591553
-0.20533231 0.056681611 0.49282497
0.38549924 -0.17061234 1.8066084
0.33414429 -0.1487288 2.4285021
-0.11929739 0.049575105 0.93545991
0.44426355 0.045781486 0.59191495
0.067538805 0.061138853 0.35614377
0.15809856 -0.142056 0.67336017
-0.41894972 -0.20319261 0.97768086
-0.19800921 0.056685686 0.46226329
-0.24690697 0.056658715 0.48706144
-0.58195412 -0.21216168 1.083456
-0.19090109 -0.062611662 0.5679583
0.37015074 -0.17122979 1.2478757
-0.10858271 0.0571381 0.36753166
0.40320128 -0.17335601 1.8603311
-0.64595717 -0.17307734 1.0533571
-0.24323082 0.056143418 0.38282186
-0.14091977 0.058075503 0.41789323
-1.0060976 -0.12068734 2.1951044
0.33938882 -0.054082863 2.3196585
0.22202447 0.061337858 0.72516805
0.22475141 0.058545046 0.55368346
0.42191908 0.051379718 0.59705657
0.090838671 0.060777985 0.96038002
0.24945483 -0.16095561 1.6060665
-0.82813776 -0.21705666 1.1162267
0.60859698 -0.1816584 1.6128623
-0.20201522 0.055582821 0.42886561
0.61470717 -0.19786416 1.8534341
0.6560629 -0.19705497 1.7602372
-0.048564583 0.057345927 0.8777042
-0.87354112 -0.027448611 2.3442345
-0.19434887 -0.025048055 0.5732109
-0.52375448 -0.19168629 1.0260692
-0.87256008 0.044837847 2.0773342
0.069042176 0.062651552 0.3601411
-0.75876892 -0.17249185 1.1102173
0.21342157 0.065204941 0.32893598
-0.19796088 0.034612313 0.98537844
-0.30938882 0.0043061022 1.4860158
0.17212823 -0.19472687 1.0085118
-1.0047026 -0.070359163 1.365509
-0.5100193 -0.2099717 1.1053562
-0.13149716 0.054750167 0.38996434
0.41561514 0.050925165 0.58604521
-0.84630674 -0.085506774 1.9468441
0.82229972 -0.041577429 2.1297107
0.28880677 0.04889147 1.548667
-0.10145986 0.058521427 0.44549638
-0.066750593 0.064793438 0.4223612
-0.065100618 0.064434446 0.43454832
-0.14058179 0.054748431 0.2744202
-0.54068983 -0.19643518 1.0632436
-0.18243401 0.053643376 0.51697963
0.47749969 0.048701487 0.639512
0.22572941 -0.05866906 1.4092052
-0.040720779 -0.18088871 0.96756631
-0.0031400239 0.055193335 0.61118013
-0.13655651 0.056409396 0.40821266
-0.25574216 0.055240057 0.37154961
0.29270166 0.049018115 1.5697052
-0.061982077 0.060671128 0.45145631
-0.51641816 -0.24250393 1.1204774
-0.90484869 -0.0021330044 2.0006211
-0.10863354 0.055713318 0.40445471
0.13301092 0.055756979 0.65432793
0.23667763 0.050500631 1.7689409
-0.20728081 0.056820765 0.49812645
-0.70020211 -0.13747869 1.0767365
-0.18163384 -0.05108051 0.95847028
-0.14275602 0.058960512 0.42557669
-0.62720126 0.052702196 0.90231389
-0.18881762 0.055062898 0.53879172
0.22920793 0.061772026 0.28134233
-0.41075927 -0.19042887 0.97404391
0.19170943 0.064009599 0.31972218
-0.10525945 0.050583318 0.65735918
-0.16117311 0.057151303 0.40225768
-0.07478305 0.064139798 0.38664877
-0.10961367 0.055971906 0.40664345
-0.55680686 -0.17963347 1.0785065
-0.072888523 0.062997103 0.29718775
-0.40650383 -0.18740949 0.96102506
0.27208951 0.05847466 0.43901592
-0.40408152 -0.18711616 0.95504051
-0.96004462 0.021765782 2.1160872
0.21309203 0.069259152 0.39277011
0.8280921 -0.031217771 1.9799697
0.44217667 0.048560426 1.0086951
-0.1870874 0.049540289 0.63005918
-0.53856975 -0.22013685 1.0120175
-0.0068401275 0.063918136 0.30268663
0.3748821 0.05310449 1.0005238
-0.028691676 0.062671438 0.29949492
-0.45988491 0.065183833 1.0997543
-0.52673501 -0.22577377 1.0571079
-0.27346158 0.056482911 0.37660319
-0.1105644 0.052016072 0.26842737
-0.41237748 -0.17853111 0.9936375
0.22707932 0.054895096 1.7363527
0.31798691 -0.1782551 2.0044346
-0.18892834 0.054270767 0.53887397
-0.62753791 0.026241353 0.86078912
-0.17652279 -0.053417094 0.85108405
-0.088424072 0.056152768 0.28416359
-0.20900252 -0.022022163 0.59260875
-0.91249961 -0.12164723 1.9755373
1.1679063 -0.21953063 1.6651335
1.1699766 -0.22118028 1.6692562
-1.3389095 -0.089482479 1.8048265
0.871481 -0.034698389 2.459188
0.034095693 0.058884934 0.38127983
-0.63886994 0.056427725 0.88841861
0.32129255 -0.10866845 0.618527
-0.064360827 0.062028125 0.40130603
0.43217283 0.052425139 0.63585514
0.035781827 0.060295582 0.39453834
-0.57308972 -0.00035668816 0.82405037
0.58065134 0.010066248 3.3023534
-0.70261323 -0.13750206 1.0926266
1.1363832 -0.24495751 1.6333008
-0.19519141 0.042224348 0.52832025
-0.08714442 0.056070127 0.27962643
-0.66047728 -0.19170822 1.1715877
0.16832143 -0.21432036 1.2290285
-0.029228631 0.061655693 0.29165757
-0.26631373 0.056872547 0.38903761
1.4359396 -0.073972039 3.8021736
0.21282029 0.054779559 0.52083045
-0.060679492 0.060512483 0.44585818
0.29090843 -0.010194917 0.58711892
0.86788327 -0.046079442 2.2587166
-0.26892558 0.058222353 0.48553556
0.22448832 -0.27459624 1.6553044
-0.26683319 0.056851938 0.38993615
-0.060732257 0.061023764 0.45480478
-0.85767806 -0.10610901 1.2840257
-0.26107356 0.055681743 0.37943405
-0.11330833 0.05856017 0.42024773
-0.96438175 -0.11967429 2.1200614
0.266473 0.027747029 0.5978325
0.077274881 -0.18968272 0.96107811
-0.23410583 0.054458357 0.45622838
-0.8331607 -0.21812269 1.124351
