# .PCD v0.7 - Point Cloud Data file format
VERSION 0.7
FIELDS x y z
SIZE 4 4 4
TYPE F F F
COUNT 1 1 1
WIDTH 558
HEIGHT 1
VIEWPOINT 0 0 0 1 0 0 0
POINTS 558
DATA ascii
0.74574643 -0.035428002 1.0758035
-0.49372083 0.0090579819 1.1394243
-0.28084272 -0.27849567 1.4544077
0.375296 -0.155863 0.97101712
-0.26797065 -0.33188313 1.6102686
0.20127511 -0.016987214 2.0657802
-0.32940772 -0.18641861 1.0080063
0.31545657 -0.20046657 4.0751686
0.29446274 -0.38665813 4.4245758
-0.28698805 -0.25265044 1.5690808
-0.27717841 -0.2414408 1.9565887
0.2937896 -0.15277715 0.84440374
0.32541782 -0.20452893 4.2161889
-0.51242781 0.024817999 1.1229026
-0.51204205 0.031257708 1.1210451
-0.29698354 -0.22742589 1.2507961
0.31670707 -0.18426485 4.0869493
-0.5535596 0.028386861 0.87999892
0.30227393 -0.1561884 0.89409447
-0.55442625 -0.10978115 1.1631017
-0.28047204 0.079092652 0.9429605
-0.55630416 0.027956497 1.1515291
-0.55390829 -0.10820543 1.1614499
-0.5580911 0.027744956 1.1579843
0.027979814 0.056606673 0.58476734
-0.57713795 0.021045903 0.85996914
-0.44874471 -0.19446658 0.99484658
-0.80759209 -0.08508987 1.7029815
-0.19030046 0.053703047 0.61519551
-0.44622338 -0.17310375 1.7837098
-0.2955482 -0.19123672 1.1630781
-0.55544698 0.015215816 0.98733926
-0.43768257 0.044042215 1.4100919
-0.56500119 -0.0047216173 3.0729785
-0.60130429 -0.09041544 3.3064227
-0.37718779 -0.18100923 1.0214863
-0.46036041 -0.14978218 1.0116277
-0.58835363 0.0089283045 0.79397917
-0.50773937 0.022736249 1.1136854
-0.63671273 -0.15579209 2.5432339
-0.29532537 -0.22727904 1.4649434
-0.54140729 -0.21447784 1.1163003
0.28505051 -0.32573083 4.4369807
-0.37742025 -0.18203516 1.0245433
0.3238019 -0.27167311 1.6857011
0.62407815 0.038574763 0.74850702
0.2272194 0.056698643 0.51602411
0.1177771 -0.0056406073 2.0931492
0.49465328 -0.20121807 2.3619614
-0.28940731 -0.20289415 1.6741998
-0.56933898 0.030180175 0.78504825
-0.21511957 0.054811046 0.34727097
-0.29936105 -0.26992685 1.5731301
-0.28366017 -0.23047876 1.5585828
0.14463085 -0.011470521 2.7328167
0.34169549 -0.32493454 1.8872833
-0.23268816 -0.19538318 1.7140679
-0.58607846 0.0087292716 0.79126358
-0.18817094 0.054285482 0.61775851
0.31597036 0.023711216 1.8481231
1.1295867 -0.035331659 3.1247964
-0.31102127 -0.27685168 1.6388204
-0.55666679 -0.11118042 1.1679161
0.29267973 -0.19117932 0.88267112
0.50100791 -0.17837012 2.0788503
0.27979547 -0.23737755 1.8423424
-0.50762415 0.018351845 1.0973587
0.37301984 0.045434177 0.59789538
-0.8818363 -0.169274 1.1214149
-0.56385392 -0.12590775 1.1702061
-0.059862487 0.059561595 0.36834311
-0.3021253 -0.18894912 1.1807601
-0.24651831 -0.17720588 1.6153274
0.90618688 -0.057748489 2.7284288
0.14697117 -0.41058058 4.4015002
0.1599848 0.057322204 0.58356047
0.37288195 -0.155329 0.96140599
0.37710705 -0.11110594 0.97380328
0.29352948 -0.14022097 0.85448861
-0.47052842 0.02213509 1.0937488
1.4054939 -0.39667895 3.794498
0.30684072 -0.17413418 1.713563
0.13696444 0.048783742 0.42873359
-0.49409747 -0.058005594 1.1100562
-0.47824174 -0.019030934 3.1704359
0.53862369 -0.33903059 5.4699421
1.4264238 -0.41483092 3.9215798
0.42969307 0.041272957 0.62236238
-0.43775415 0.042286843 1.4102387
0.096917324 0.055627652 0.63992214
-0.48124516 0.045347124 1.0910487
0.30976677 -0.13528936 0.86493874
0.15635338 0.057558775 0.562958
0.26633966 0.041791394 1.5416386
-0.046334364 0.060438059 0.64208317
0.23141512 0.053773411 0.42541122
-0.49147952 -0.11094687 1.1338587
-0.58480769 0.026148126 0.75618172
-0.51468319 0.034954891 1.1292868
-0.50910777 -0.13151996 1.1167581
-0.34046158 -0.17073834 1.6725249
0.58798116 -0.16543856 5.4588265
0.25368792 -0.43274045 4.5164723
0.24711365 -0.43453175 4.4655261
0.23315623 0.054501101 0.43055439
-0.19454619 0.051235035 0.61537242
-0.25616816 -0.31219235 1.5925479
-0.48095363 -0.10870702 1.1045327
-0.66997075 -0.045417331 2.0517502
-0.28152797 -0.19811767 1.6299322
0.24021235 0.05386702 0.65613365
0.93719804 -0.28065071 2.2664113
0.37321979 0.02518093 1.9832616
0.31810817 -0.19982849 0.87708831
0.31445587 -0.14148596 1.1080048
-0.46155763 -0.16663684 1.0530722
0.73923171 0.031095227 1.5200961
0.1752823 0.057470739 0.5012567
-0.55792522 0.026873499 0.9843297
-0.48718274 -0.10889883 1.1232703
0.097551845 0.056342825 0.63507915
0.014028035 0.05706092 0.44021869
-0.31924659 -0.21112788 1.0518286
-0.52982044 -0.18826099 1.059165
-0.21737218 0.055453271 0.3604722
1.1007087 -0.035749398 3.0408268
0.3075785 0.050552748 0.36284661
0.34842506 -0.27776095 1.7836547
0.5067668 -0.15030831 1.1148012
-0.20801842 0.053863853 0.43796706
-0.55119437 -0.10696306 1.1540122
0.43017918 -0.17110769 1.8195963
-0.51174438 0.024264736 1.1252809
0.93238664 -0.047025092 2.320879
-0.32894865 -0.18594021 1.0108378
0.40336484 -0.11763961 2.8800607
-0.081692167 -0.21052071 2.6802969
0.18004796 0.05899708 0.51627326
-0.20125461 0.06200365 0.36929488
-0.31515467 -0.45909828 3.9196634
0.28739005 -0.18671381 0.85512829
-0.86376607 -0.17220698 1.3073237
0.73474014 0.032656666 1.502667
-0.32226953 -0.21610805 1.0712321
0.16977647 0.05784107 0.48717451
0.45626292 -0.14846435 1.0967705
-0.43052453 -0.20603248 1.0562479
-0.57681894 -0.037842013 1.762614
0.40836716 -0.175266 2.0792289
-0.047273941 0.058060549 0.44769263
-0.12216876 0.059560835 0.60396457
-0.27586827 -0.23943016 1.1736298
0.33436733 -0.2620416 2.6758585
1.0437794 -0.3260847 2.598187
0.5263015 -0.084907047 3.4924726
-0.41005528 0.10610753 0.84230256
-0.53273135 -0.090850316 3.5769362
-0.12257678 0.042237401 1.1762698
0.20009726 0.060750134 0.25888729
-0.2074303 0.054065235 0.43670511
-0.20150563 0.058440022 0.36047482
-0.20842248 0.053936355 0.43867016
0.15856361 0.058825895 0.43996191
-0.18795803 0.059284255 0.51943946
0.62074399 0.039636858 1.0381675
-0.53321183 -0.19224432 1.0885141
-0.56117505 -0.1642092 1.2041812
0.71836096 -0.017571764 1.3081808
-0.064264573 0.062560201 0.38715291
-0.09549024 0.056498125 0.55995274
1.4283049 -0.33837238 3.1770072
0.030952476 0.057851151 0.58631825
-0.097362451 0.057232238 0.56605649
-0.35353187 -0.22821048 1.7359736
0.37589422 0.034819309 0.95760059
1.7890151 -0.27079934 4.3124771
-0.43042737 -0.17614654 1.0991766
0.24544519 -0.35795453 3.9238973
2.4248285 -0.56633222 6.5980754
0.60462761 0.03867764 0.74930859
-0.28295243 -0.39585552 3.5627651
-0.26592293 -0.4186196 4.2098274
-0.26332474 -0.33205324 1.5965142
-0.3575162 -0.34897906 3.1846147
0.64998639 0.040089864 0.78224254
0.081580959 0.058996595 0.35000801
-0.56845748 0.025064686 0.92317343
0.26074013 0.045577988 0.46502256
0.17780009 0.066986367 0.53887081
-0.40439206 -0.22289594 0.9856565
0.67640942 0.023776114 0.96303296
0.36775857 0.045720857 0.55445433
-0.21004784 0.056186326 0.29049063
-0.21499464 0.054492772 0.32016683
-0.19160432 0.060891911 0.43250561
-0.18572906 0.056468792 0.51422715
-0.11373074 0.060703553 0.45885706
-0.50609833 0.046980046 0.94660711
-0.51611304 -0.13686745 1.1435926
-0.1948379 0.05524154 0.47866249
0.44062892 0.042791724 0.66621423
0.44517308 -0.18740948 1.0697622
0.66205907 0.028509725 1.0533822
-0.55519509 -0.20766743 1.17242
0.4455654 -0.18513833 1.0009847
-0.11787986 0.058142111 0.57490587
-0.11402345 0.0609551 0.46625614
-0.57200587 -0.1848316 1.7763903
0.30403644 -0.32149637 1.6145914
0.14186865 -0.015553327 0.64780021
-0.47688687 0.023006586 1.5196576
1.2068871 -0.1173167 2.4494009
0.65187901 0.04075145 0.80714393
0.34286046 0.0053712819 1.950634
-0.65002286 -0.043762639 2.0013962
0.39011657 0.033826802 1.0023117
-0.34772813 -0.19270498 1.1712818
0.64701807 0.041246079 0.81072736
1.1589849 -0.022566671 2.8563409
0.3579098 -0.098881334 1.7787077
-0.031101845 0.053017415 0.61964917
-0.47428548 0.023267558 1.5195804
1.5117098 -0.23030549 3.4847374
0.087466083 0.059914924 0.46388316
1.547997 -0.25327393 3.3381448
-0.8194598 -0.17576057 1.594034
0.33430907 -0.29164746 1.7722208
1.2132661 -0.079015352 2.335268
-0.53862429 -0.13757558 1.1700058
-0.59394944 0.039218046 0.76034689
-0.58309978 0.008002935 0.78849363
-0.10547242 0.060688771 0.45150495
-0.1138453 0.06066744 0.45320702
-0.82555854 -0.17491107 1.529846
0.68323255 0.0040250495 0.86889553
-0.18438143 0.054666169 0.64329767
0.36800608 0.048418507 0.49518204
0.24636513 0.053848334 0.31841016
0.29035845 0.043788865 0.41249967
0.37548572 0.045775361 0.47158027
-0.49233639 -0.057074592 1.1103237
0.53567982 -0.19677502 0.94134426
0.17983136 0.05860199 0.50966954
-0.53828824 0.030557826 1.0690103
0.23288402 0.055135921 0.59367704
-0.48172569 -0.085737936 1.0987415
1.1058545 -0.28425753 1.8835692
-0.45191991 -0.16486955 1.028357
1.0961343 -0.26801556 1.8031816
1.2390039 -0.2327345 1.980588
-0.036271594 0.060472012 0.39020419
1.1213334 -0.28561756 1.9074578
0.15810946 0.060451038 0.38541865
-0.515091 -0.13558783 1.1398861
-0.54287249 -0.20225617 1.1473868
-0.51859325 -0.19422117 1.0855689
0.1648137 0.055998676 0.51552916
1.0924076 -0.21191791 1.8347902
1.1184314 -0.2860032 1.9006462
0.081582896 0.059118859 0.35573053
0.083982371 0.061071135 0.37427568
-0.06273035 0.060877755 0.3682754
0.40688351 0.040882878 0.5842886
-0.34522009 -0.17437218 1.3144836
0.90440905 -0.039578468 1.738862
-0.49843627 -0.13229087 1.6842952
0.84086746 -0.036942914 1.6467879
0.29246616 -0.23968062 1.7741208
-0.02784396 0.054728433 0.6711216
-0.55179983 -0.1363501 1.1494732
-0.51724362 -0.13606043 1.1418407
1.097656 -0.18342367 1.9430976
-0.5499056 -0.13625404 1.1444578
-0.85827005 -0.19071375 1.3889105
0.11454438 0.051460214 0.83354163
0.54410177 -0.18388203 1.9029684
-0.50271505 0.010909038 1.1424384
0.26831153 -0.20684479 1.6431274
0.41534358 -0.17129055 1.9766321
0.26549444 0.046055749 0.99301291
-0.5506537 -0.13173006 0.72750545
0.91586202 -0.063871756 2.706459
-0.54171848 0.05368454 0.8987484
0.40147814 0.04571471 0.6048789
0.63406068 0.034921519 0.76604676
-0.5052765 0.016475158 1.1730409
0.30800745 -0.15712535 0.88220286
0.4337222 0.042824887 0.65156007
-0.19191164 0.060050189 0.364923
-0.48801458 -0.16399837 0.82411933
0.52284884 -0.15604387 0.91643786
-0.54787147 -0.21928547 1.1072862
0.059767656 0.060488179 0.26986647
-0.54646105 0.027648348 1.1251571
0.40527663 0.046299048 0.61340022
-0.21007025 0.056304485 0.29123831
-0.5521425 -0.20209546 1.0285645
0.67379367 0.0057515651 0.91240311
-0.48962235 -0.16295716 0.80870295
-0.19362128 0.059313387 0.50550842
0.5969277 0.036930121 0.71282959
0.70928776 -0.023015799 0.83559942
1.1567805 -0.12643324 1.6543605
0.15936029 0.056834348 0.57512999
-0.54828912 -0.20013219 1.0194323
-0.45112896 -0.14361277 1.0877805
0.24117622 -0.19150294 0.85502005
-0.55971098 0.014941743 1.0000329
-0.11675156 0.057577923 0.56480169
0.67158437 0.027308529 0.91288853
-0.44790542 0.042606786 1.4455736
-0.53681898 0.085902065 0.7341671
0.47303179 0.013160087 1.5764201
-0.6397332 -0.13087189 1.8160899
-0.11354259 0.060342476 0.45390463
0.0136737 0.057892658 0.44817114
0.012854688 0.059715994 0.45835352
1.2404261 -0.23362693 1.9872208
0.31737399 -0.13844547 0.88505578
0.27563617 0.048774816 1.0278974
1.3135128 -0.19959085 2.0111017
-0.1030141 0.059827238 0.58568954
-0.18315056 0.056038745 0.51319814
-0.51496869 0.0096785091 1.142601
1.0713614 -0.18736064 1.8843565
1.3133504 -0.24439162 2.1165581
0.40076655 0.037443757 1.0191557
0.031795405 0.05768805 0.57307601
1.1104286 -0.18923804 1.833303
-0.73052251 -0.081075288 1.9733748
-0.77796471 -0.073464751 1.2884552
0.50632221 -0.12474868 1.934339
-0.79550433 -0.20877771 1.5362778
0.30660808 -0.23147596 1.891819
-0.68924069 -0.019613406 2.267025
-0.30583251 -0.20114957 1.1721017
-0.29451877 -0.31450194 1.54176
-0.53049123 -0.17965175 0.92303371
0.43724689 0.041994557 0.63881087
-0.88242245 -0.17255555 1.1207659
0.37355822 -0.17053106 2.0037122
-0.32407016 -0.17547645 2.0510335
1.4730134 -0.28260747 3.2608232
-0.1879943 0.057129897 0.32847643
0.30313838 -0.18329108 2.0300126
-0.70853341 -0.020456811 2.3375545
-0.76415133 -0.069859661 2.6449294
-0.82655513 -0.17529713 1.4566453
0.36844182 -0.30522859 1.9432063
-0.21691778 0.055557102 0.35975695
0.072389118 0.054999858 0.31671953
0.24860734 0.056813829 0.52132154
0.17740959 0.062485628 0.27534103
0.15499026 0.057391815 0.42479229
1.1481333 -0.30239221 1.8279445
0.1783582 0.058271192 0.50301504
-0.45938182 -0.21155436 0.96740413
0.21011579 0.06044025 0.41324949
-0.19903642 0.053608745 0.45758152
1.1714761 -0.31828958 1.7768998
0.087316476 0.05994121 0.4706769
0.42843023 -0.16605972 0.87383485
1.2521951 -0.23665735 1.8947301
-0.50091892 -0.16263081 0.73606443
0.23578453 0.05396948 0.56026793
-0.49332571 -0.16338322 0.79647803
0.23594916 0.054805584 0.56099653
0.08388143 0.057354651 0.4451611
-0.54582793 -0.19922192 1.1537685
0.36538523 0.045101929 0.45700765
-0.219284 0.056362696 0.36552739
-0.04086668 0.060613237 0.26446676
0.061749242 0.06027554 0.33810329
-0.38235325 0.061917402 0.5386126
0.28944924 0.050134003 0.45832896
-0.19844517 0.058558919 0.26932502
0.34913951 0.034832381 0.45167971
-0.045147814 0.05692257 0.4438138
-0.20973039 0.056677774 0.27589583
1.0898248 -0.16679849 1.7715745
0.26296705 0.045591049 0.88021111
1.1165533 -0.3721343 1.816546
-0.53231549 -0.19486837 0.99307513
-0.72108495 -0.26629931 1.406615
0.17434016 0.059191994 0.56830931
-0.18460977 0.05451449 0.64262962
0.68268692 0.036353335 0.9581368
0.32473093 -0.24079752 1.3967505
-0.59661674 0.039343603 0.76615715
1.2657883 -0.1937516 1.9262652
1.1915147 -0.20976764 2.0096269
0.079735927 0.058477655 0.35540628
-0.69108075 -0.23582512 1.2884829
0.28254324 0.080437981 0.54507995
-0.45041001 -0.16457404 1.0300717
1.1111161 -0.20496523 1.9723821
1.1766276 -0.23462012 2.000308
1.2446663 -0.23620328 1.9879994
-0.064683892 0.062529601 0.381109
0.40002429 -0.15926401 1.2494287
0.68454254 0.035611916 0.96180797
1.2512 -0.062606461 1.8299079
-0.30060485 -0.21773076 1.1032627
1.196465 -0.35368887 1.9573822
-0.38590869 0.063629024 1.4968383
1.2546489 -0.06070096 1.8353701
-0.31280145 -0.30046198 1.6047883
-0.87459898 -0.081503868 1.3192592
-0.44279969 0.042926677 1.3911097
-0.50888258 -0.064000025 1.1308296
1.5576024 -0.29965287 3.220818
0.33885431 -0.27090091 1.8424795
-0.32127702 -0.34645006 1.6799397
0.32525304 -0.20660998 1.7054038
0.028993629 0.058391921 0.6413033
-0.86029828 -0.082821012 1.4681318
-0.29758203 -0.1504879 1.6493373
-0.51654136 -0.18767396 1.0888801
0.21968636 -0.020065697 1.4731627
-0.22909644 -0.34102273 3.3980494
-0.018128462 0.056377254 0.89593959
0.36973631 0.0065072514 2.112391
0.49657273 -0.16340083 0.93478346
0.12662253 -0.0014861748 1.0679688
0.16816342 -0.15469337 2.4694552
-0.37055585 -0.066095002 2.5820751
-0.51081145 -0.20589267 1.0294807
0.66119725 -0.014176959 2.475008
0.14735821 0.058943376 0.28220844
0.28646839 0.049310386 0.45342803
0.16308331 0.056300528 0.60044384
-0.23667315 0.056748867 0.29475021
-0.83269894 -0.21497327 1.4650609
0.14842305 0.059397757 0.29159355
0.38015872 0.045189016 0.6830945
0.23929015 0.055736482 0.56884933
0.34067723 0.04588142 0.45343518
1.2301294 -0.40964708 1.8695159
1.2029433 -0.39846349 1.8054206
0.28481933 0.053189613 0.35311627
1.0882106 -0.38557667 1.7770741
0.060758524 0.061657749 0.27156425
-0.82282829 -0.21686827 1.5197785
-0.64171493 0.040249616 0.86117411
0.80406743 -0.060014524 1.5801451
1.2388836 -0.19070554 1.8853126
-0.52658987 -0.18055919 0.98732877
-0.10845021 0.057642497 0.42578292
-0.20717716 0.055440344 0.28564405
-0.47502047 -0.15721108 0.74895334
0.21505269 0.059972256 0.58051038
0.077471487 0.055956572 0.32828379
-0.38316822 0.06193655 0.54282498
1.0983846 -0.32187206 1.6465738
-0.12659791 0.062554061 0.32061434
-0.051036097 0.064968191 0.5206213
-0.46082753 -0.1500273 0.68963194
0.084777556 0.058705375 0.45816278
0.24998713 0.053600669 0.34643149
0.4739702 -0.15038836 0.95072436
-0.51228595 0.046626538 0.75138164
-0.19667384 0.06158302 0.53536677
0.24426138 0.050648786 0.76922774
-0.23465666 0.0561345 0.29142523
-0.20456329 0.059016474 0.25120425
0.27870601 -0.21377389 1.0564303
-0.57944167 0.0201346 0.90672946
-0.2146906 0.055860311 0.45533037
-0.22399825 0.052085698 0.44971132
0.25661325 0.046998717 0.4286263
0.24522483 0.072953582 0.39460135
-0.041014619 0.060703881 0.26567674
-0.45511317 -0.15456149 0.96900153
0.47168392 0.039339364 0.8309412
-0.21199653 0.057001717 0.29358721
-0.21511272 0.054566495 0.32033944
-0.053327434 0.059683867 0.35480118
0.54975271 -0.14012304 1.3652565
0.94586164 -0.28388593 1.4877629
1.0522805 -0.27110526 1.7954662
0.23552066 0.058654517 0.54175878
0.088691704 0.06035497 0.4699409
-0.5795117 -0.20023257 1.1249433
0.013134517 0.05777286 0.44036889
0.65789872 0.030037733 0.88926458
0.15493113 0.060951911 0.3272922
0.30602521 -0.14893296 0.9009757
-0.49137664 -0.10861983 1.1318426
0.74208814 0.036239825 1.1168678
0.011533491 0.056543678 0.42427468
-0.10984517 0.059294216 0.65119362
0.25685689 0.049646266 0.87247729
-0.53336751 0.02710212 0.93846726
1.1415046 -0.31288472 1.7421236
0.44810143 -0.19425061 1.1115038
-0.11473785 0.057546005 0.56355548
-0.5473094 0.040758617 0.78770185
0.94300658 -0.11915033 1.6130691
0.74328995 -0.072292872 1.4354467
1.1776298 -0.16471884 1.8000536
0.74049127 0.028935375 1.4621644
1.2442052 -0.22599988 2.0137472
1.2695816 -0.2398923 2.027595
0.5493629 -0.19554177 0.96944261
1.1786586 -0.30853462 1.8808951
-0.8301723 -0.21725915 1.5348029
-0.78144056 -0.27341262 1.6861136
-0.33896479 0.055612028 1.2428331
1.0755125 -0.34566411 1.6712029
1.19234 -0.35399285 1.9524927
-0.50562441 -0.043531939 1.1373241
0.43826526 0.019071493 1.4397204
0.15857348 0.063109308 0.32131934
-0.57174617 -0.21685542 1.0327017
0.43291023 -0.13366342 1.4040241
-0.043543957 0.055584326 0.55795574
0.50808787 -0.14033057 1.5218947
0.27985692 -0.14872031 1.2592747
1.2604489 -0.13760448 1.8158307
0.72835678 -0.1750555 1.8653758
0.40671656 -0.17439429 1.5195718
0.51761609 -0.18267122 0.97085667
-0.48731482 -0.04169485 1.090519
0.93117964 -0.041615739 1.8054271
1.0856417 -0.1361488 1.869597
-0.58027399 -0.18302074 1.806864
0.20778817 -0.0060679819 1.299526
0.45423967 -0.19196613 1.8486526
1.6044912 -0.069622561 2.4039764
-0.22603095 0.053932503 0.33553672
0.46983239 -0.016979547 1.6042111
-0.27006021 -0.26801822 1.5720396
-0.71871728 -0.080445886 1.9434471
-0.49720955 -0.058673598 1.1248205
-0.88630056 -0.16865173 1.1290536
0.42704451 -0.17796531 1.7921405
0.36760119 0.045459174 0.55824399
0.62855279 0.029328993 0.85085058
-0.54089499 -0.19137546 1.0695527
0.33060437 -0.20940498 1.728085
-0.043894105 0.056959659 0.57714939
-0.8751893 -0.077998832 1.2765698
-0.52812552 0.12373828 0.71547079
0.35805523 -0.18483502 1.9931283
0.28401464 -0.12176155 1.43417
-0.15247935 0.042476293 1.1789317
0.26835158 -0.22836089 1.7604296
0.31740487 -0.25327942 1.7184491
-0.10580946 0.060298018 0.4533968
0.28434831 -0.24132258 1.8755851
-0.81303751 0.19042598 1.3192711
-0.0141064 0.053471647 0.86157846
0.34354529 -0.2950308 1.8128574
-0.78340364 -0.079077326 1.6505115
-0.079035945 -0.11475705 0.95886803
0.50191027 -0.37858406 2.3835621
0.51330239 -0.14715204 0.94154358
0.85401696 -0.25459188 1.5313084
