# .PCD v0.7 - Point Cloud Data file format
VERSION 0.7
FIELDS x y z
SIZE 4 4 4
TYPE F F F
COUNT 1 1 1
WIDTH 599
HEIGHT 1
VIEWPOINT 0 0 0 1 0 0 0
POINTS 599
DATA ascii
1.9450861 -0.082209274 2.5338135
-0.1616115 -0.18611556 2.7315397
-0.22408962 -0.37004346 3.0069981
-0.15529019 -0.18289565 2.6810031
-0.19352281 -0.37636024 3.15411
-0.15764248 0.00072337687 1.8532462
1.1071004 -0.22909208 2.1364388
-0.84789777 0.0015163869 1.7443333
-0.26769811 -0.40650755 2.9724679
-0.82497561 -0.47343522 2.7369027
-0.22528875 -0.35830432 2.7367988
1.173435 -0.23677592 1.784492
0.91002381 -0.010195736 1.8472414
0.90703559 -0.012699805 1.8250375
1.0881109 -0.21034577 2.0901256
-0.77591527 -0.44140476 2.7621684
0.64509308 -0.04939381 1.4985962
-0.77416337 -0.39941186 2.8027177
-0.83331251 -0.24874292 2.9601641
0.15295327 0.052435458 0.56265736
-0.83300245 -0.0045848936 1.3169103
1.510906 -0.055708811 1.8518367
-0.0017117262 -0.41367108 3.070446
1.1088318 -0.085124105 2.6083322
1.6972635 -0.064707547 2.0318871
0.15068465 0.024269499 0.5991869
0.13640958 0.049093552 0.73302031
0.3418439 -0.060114786 0.85116005
0.17238081 -0.16677888 1.0242567
1.1389157 -0.023235474 1.6695414
-0.55489218 -0.3872354 3.9884357
0.15502989 0.052727405 0.58210182
0.05731982 -0.19361973 1.2179117
0.34193969 -0.067425258 0.85720396
-0.6345855 -0.085741624 2.5717282
1.0937001 -0.023045056 1.6655431
1.1303077 -0.022519711 1.6520615
0.19179195 0.040153366 0.61820269
0.33937764 -0.063689798 0.84467125
1.1077846 -0.068160385 1.6457438
-0.81891191 -0.074857861 1.3497157
-0.87400424 -0.47574055 2.7478981
0.39655745 -0.28895521 4.5413537
-0.8302294 -0.35789049 2.6146317
-0.7914139 -0.23626925 2.7527294
1.0876381 -0.021835409 1.6574359
-0.96216321 -0.43127441 2.685122
-0.08859241 -0.51932061 4.2034569
1.3191649 -0.3150115 2.0824943
0.34687686 -0.14016291 0.87594843
-0.00011777878 -0.52227867 3.8889003
1.1051419 -0.024009872 1.6841679
0.40632939 -0.29743558 4.6679301
-0.93675435 -0.41213709 2.7020903
-1.113479 -0.40051889 2.9050093
-0.0025390387 -0.5213204 3.9107385
-0.83326125 -0.037333772 1.1894431
-0.75888002 -0.34113699 4.0675006
-0.86096764 -0.22288249 1.751811
-0.92399204 -0.34583539 2.6525922
0.28753465 -0.078992382 0.83728123
-1.4546219 -0.098333433 4.0498338
-0.07455349 -0.4949829 3.9267006
1.014045 -0.018242214 1.6799541
-0.87622178 -0.26426595 3.172277
-0.85004556 -0.2761814 2.7526917
-0.9006902 -0.44989961 2.7044926
0.98340178 -0.082581505 1.7034316
1.1534295 -0.084600821 1.6045914
-1.1101321 -0.32944757 2.8616238
-0.34123522 -0.39908582 2.9952583
-0.83876193 -0.022657573 1.3847523
-0.76931655 -0.25688082 3.1578798
-0.7014724 -0.25886834 2.6559887
-0.76273763 -0.40782076 3.2389536
0.30742896 -0.041046202 0.91530228
0.30414617 -0.09493199 0.95238352
-1.0011035 -0.22295175 2.658165
-1.074898 -0.39803964 2.7940679
-0.77395022 -0.40577614 3.2693682
-0.4997527 -0.06825079 1.8216543
0.34854853 -0.12242827 0.87116575
0.30155343 -0.043536797 0.83799553
1.0205336 -0.26361263 2.1534948
0.32809603 -0.054558113 2.7048125
0.32506865 -0.045525223 0.82967424
0.057602048 -0.24175613 4.1353831
-1.0618228 -0.33516753 2.7694087
-0.83867908 -0.03855738 1.3238254
-0.83384991 0.019728899 1.3194737
1.3555744 -0.02406548 1.674634
-0.79717767 -0.52963579 4.3378081
-0.65430093 -0.00028147548 2.6163921
-0.44469208 -0.072664171 2.0735998
1.4655174 -0.0462154 1.7131824
-0.88940668 -0.36068958 1.7295246
-1.1384553 -0.40232533 2.9797997
0.18579006 -0.29478341 3.6294532
-0.84787536 -0.2801078 1.7303267
0.1338675 0.023215503 0.6102314
0.30753493 0.025969412 0.45484638
-0.80360961 0.012416285 1.4094977
0.36610925 -0.070054814 0.83643866
0.081278563 0.048305847 0.49528027
-0.741521 -0.3402319 3.6106944
-0.88987136 -0.3587516 1.7392917
0.30369383 0.029563688 0.44900036
0.31676352 0.034297798 0.43675113
0.33518052 -0.068583041 0.84357691
-0.95358467 -0.15183045 1.5494742
0.32828623 -0.04732205 0.82920313
0.14756095 0.023963161 0.58763552
-0.85030127 -0.30282086 1.6195087
2.852427 -0.60780001 3.9269805
-0.78496718 -0.43596452 2.8495021
-0.75528967 -0.28601819 3.0580864
-0.82108998 -0.074538827 1.3442178
-0.19471943 0.054670207 0.38105226
0.16006327 0.024088614 0.58039856
1.0885445 -0.26028556 1.7829514
-0.16974235 0.055388547 0.58079529
-0.83928049 -0.55246204 4.5900741
0.082208514 0.049820229 0.4973402
-0.83916187 -0.0072850548 1.3273773
-0.83807003 -0.038883656 1.3225927
0.35611999 -0.0064239167 0.81055689
-0.79754484 -0.025017735 1.3029952
-0.11901498 0.052771267 0.62329245
-0.8980974 -0.3250984 1.7535233
1.0074989 -0.04445146 1.6732597
-0.76339495 -0.38567877 2.7131028
-0.78363764 0.0085542612 1.4159503
-0.70487714 -0.37482482 2.6639705
-0.54619968 -0.032745183 3.3877239
-0.69302821 -0.20634569 3.2894335
-0.63236177 -0.2063546 3.69206
-0.92932773 -0.36036187 2.7483273
1.102524 -0.068635777 1.6380033
-0.68392444 -0.29037225 3.7674341
-0.85865021 -0.25634825 1.606329
-0.92637062 -0.35963136 1.682292
0.3258462 0.02538022 0.44429898
-0.15177953 0.055496559 0.49649
-0.73498333 -0.058840379 3.6079087
0.5120939 -0.05627048 0.90916967
-0.83090079 -0.18579991 1.6267071
-0.16654426 0.049618263 0.74457645
-0.83576775 -0.27761382 1.7043076
1.0700963 -0.068001911 1.645968
1.0076282 -0.041616395 1.6675062
1.0058066 -0.27692211 2.118432
-0.84415317 -0.15710673 1.532402
-0.80174196 -0.073690087 1.3197865
-0.80397213 -0.37041229 4.2060862
0.019300282 0.053968642 0.60522223
-0.82347691 -0.15371463 2.6362591
-0.92157662 -0.34518182 1.6748729
1.7291729 -0.39069468 2.0251303
-1.2061775 -0.463404 3.0005922
-0.6794076 -0.25598139 3.3229361
-0.65855396 -0.55165523 4.4770942
-0.76367736 -0.37171048 4.2504115
0.18933606 0.041819245 0.61019754
0.99206293 -0.014307905 1.6766477
-0.81967843 -0.027382448 1.3398666
-0.89494586 -0.46073878 2.7539206
-0.86640906 -0.26138651 1.721674
1.7332679 -0.39034051 2.0326109
-1.1986207 -0.42124665 2.8156052
0.086571455 0.052766077 0.52420568
-0.36331856 0.055877831 0.60472202
-0.80163872 -0.020319365 1.3194494
0.66088939 -0.14412998 1.2507844
1.1319183 -0.081045933 1.5602088
-0.25096577 -0.21605165 2.6846156
-0.92569649 -0.35948521 2.7327981
-0.71695364 -0.16401717 2.7936482
0.43798018 -0.0080077909 1.231689
0.016073823 0.051486596 0.50042868
-0.4198789 0.039133836 1.7874737
-0.77638507 -0.070360243 1.243093
-0.36474645 0.057544284 0.51834297
-0.85362649 -0.077699237 1.3593674
0.1685468 0.051367182 0.55466652
-0.83171475 -0.22744502 1.6912832
0.16828704 0.05133184 0.55644655
-0.94043994 -0.33583164 1.6423769
-0.85784233 -0.20479487 2.6572099
0.26053411 -0.0024259761 0.79920769
0.3031019 -0.10366711 0.97803354
-0.10890061 0.054023366 0.49877548
0.20967883 0.043252267 0.25688887
0.056180418 -0.15357259 0.99260759
-0.71643555 -0.25134271 2.8853974
-0.76845145 -0.45181245 2.6593328
-0.47976041 0.037416548 1.0761514
1.2259735 -0.049030468 1.6896305
-0.051719129 0.055179149 0.3664813
-0.78640223 -0.027922865 1.3207045
1.1146942 -0.019389533 1.5675478
-0.6554755 -0.0003438741 2.6137109
-0.73265994 -0.3745833 4.1814375
-0.64371097 -0.18913166 3.5328641
0.075424612 0.055837426 0.26757836
0.33666062 -0.13443753 0.61994982
-0.84564614 -0.14374675 1.544632
0.15316933 0.051862307 0.58164978
-0.3679378 0.056950405 0.61839056
0.32121861 -0.12526938 0.5754962
0.37045449 -0.14905867 0.73061132
1.9481961 -0.094084576 2.2286315
0.16632098 0.051244698 0.5514164
0.18101102 0.021609355 0.59858418
1.1309707 -0.25648564 2.109344
-0.099020004 0.051168457 0.59736013
-0.7454859 -0.38012427 4.2467809
-0.89106083 -0.32428253 1.731688
0.1264019 0.041501012 0.72529221
0.1957832 0.049102381 0.62168217
0.13095462 0.042913232 0.75512457
-0.051802456 0.053066749 0.5074687
0.30566335 0.034379266 0.43747663
-0.72650564 -0.24560647 1.5367913
-0.89363372 -0.47360021 3.9878788
-0.53149503 -0.132274 2.9992619
-0.75339592 -0.014296636 3.9474916
-0.68836188 -0.27473605 3.9385567
-0.52586377 -0.38263756 3.8437757
0.30933148 -0.048861019 0.8535018
0.13048148 0.04308369 0.76888227
0.17223907 0.024452738 0.58259392
0.1713872 0.024844769 0.5770278
-0.89668274 -0.031955704 1.4104548
-0.35485196 0.055977959 0.51807642
0.30798149 -0.12445609 0.56994963
-0.061270773 0.057141535 0.27978063
-0.90418947 -0.54984999 4.639914
-0.44930357 -0.16134225 3.2364621
-0.17163241 0.050870284 0.7802
0.33547431 -0.068951547 0.84581566
0.015267432 0.052002102 0.50165796
0.3059473 -0.10510698 0.96554518
0.26013803 0.035103306 0.49888992
0.76080453 0.031457499 0.90772533
1.1025312 -0.068193123 1.6308064
-0.93343806 -0.32688588 1.6187353
-0.88960326 -0.26018137 1.5562806
-0.8065815 0.021073293 1.3334088
1.3359466 -0.30008507 2.116241
0.1677863 0.054039858 0.57125568
2.9731541 -0.39640319 3.9455328
0.20953506 0.05200813 0.65506124
-0.20809424 0.045884691 0.59104919
0.30840498 -0.026010878 0.43619704
-0.83054554 -0.2876603 1.6639042
-0.10021555 0.052559756 0.61947489
0.21568799 0.051454999 0.30129623
-0.20711935 0.053848788 0.26047659
-0.53029758 -0.3946209 3.9541144
0.36485291 -0.070676886 0.83166075
-0.11181152 0.055115506 0.50746727
-0.90974188 -0.34130347 1.7504482
-0.1595993 0.047927238 0.80943727
-0.18485677 0.052818596 0.40785241
1.3889643 -0.036215208 1.6551332
0.2243886 0.04703553 0.50355434
-0.1856277 0.058700513 0.30518436
-0.76045954 -0.33779752 2.7121606
0.078495622 0.055177331 0.38444471
-1.1182088 -0.43514585 2.7786407
-0.23832232 -0.37119949 2.9311085
-0.9385519 -0.2965551 1.609633
0.12652051 0.049814381 0.61269808
-0.15555847 0.056991439 0.52930593
-0.9648993 -0.43462712 2.7016563
-0.7948494 -0.46563113 2.7423191
1.7586876 -0.018657904 2.1546483
0.29492468 0.0021743998 0.68590689
-0.94507384 -0.29884994 1.6247277
-0.025946558 0.048707105 0.92570782
-0.25741255 -0.39969444 3.2247124
-0.18617034 0.057105675 0.34569955
0.305264 -0.04886277 0.84035206
-0.72514904 -0.3697958 3.0168991
0.70143104 0.032434497 0.89187098
0.42985523 0.03034208 0.93756819
-0.94207859 -0.2263786 1.4529905
0.22003418 0.050368201 0.64607859
-0.902089 -0.15783279 1.5912824
-0.2053138 0.04520791 0.67612314
1.2520295 -0.21666054 1.8920531
1.4290581 -0.29223001 1.8119183
-0.051566303 0.055784423 0.37603712
0.014209628 0.053264964 0.51661587
0.18148798 0.065049954 1.0549121
0.31443912 -0.031779006 0.43581891
0.54157233 -0.28632313 2.5325432
-1.186185 -0.46011937 2.9553909
0.30330443 -0.1042317 0.95189571
-0.75488377 -0.40601593 2.7710972
-0.026504159 0.045178764 0.81083155
0.13309282 0.015321795 0.73888779
-0.80938721 0.015020724 1.4103084
-0.38792282 -0.22288333 2.7737751
-0.062383175 0.057669096 0.27972269
-0.052322149 0.053068362 0.49913359
-0.14380115 0.049450099 0.99084759
1.0677991 -0.21320947 2.2042003
1.4857796 -0.33605343 1.9332585
-0.79091477 0.022972014 1.3058782
-0.40499181 -0.037874117 2.8121243
1.4231191 -0.25237608 1.8997059
-0.42278963 -0.23783694 3.0444703
-0.96501732 -0.21731545 2.5639954
0.086172938 0.052774128 0.51147556
0.16152948 -0.14598511 1.0132275
-0.36607295 0.057725996 0.49995375
0.210518 0.050448798 0.27426004
0.13146973 0.014446847 0.71897459
0.12967974 0.01443173 0.70634699
0.29384261 0.041664951 0.6800518
-0.87943482 -0.26328099 1.5741181
0.10293907 0.046917316 0.83091116
0.43022609 -0.034383014 1.015687
-0.81475091 -0.26387411 2.6375771
1.3455319 -0.34243876 2.0849905
-0.81376767 -0.37166375 4.2578526
-0.33370423 -0.27903795 2.77457
0.10361326 0.047741178 0.83340979
0.13506877 0.04090409 0.59994745
-0.15706134 -0.0018488839 1.4291449
-0.95929885 -0.42288232 2.7372313
-0.73320568 0.022964999 1.2047801
0.31371814 0.034565691 0.43129158
0.10924679 0.049574658 0.8291297
-0.50117731 -0.35899782 3.6193528
-1.0257032 -0.24168728 1.5977535
-0.22155952 0.019654706 1.6247115
-0.81448889 -0.0765329 1.3089008
0.076558709 0.056539018 0.27134848
0.077144206 0.054500733 0.3704505
-0.054196179 0.057373546 0.27413297
0.075236201 0.052920878 0.35110378
0.30877662 -0.033577941 0.436975
0.33596885 -0.058903441 1.1559324
0.0014660954 0.057437774 0.29231715
0.31077653 0.017142836 0.44353604
-0.19107813 0.054944865 0.43103623
0.083574057 0.051095512 0.48503065
0.30780625 -0.069556907 0.86044455
-0.20613629 0.052198634 0.32874084
0.12814689 0.020747822 0.58753777
-0.18259758 0.05653305 0.33435774
0.15710342 0.02382426 0.56239223
-0.40237701 0.062862277 0.55250549
-0.3488993 0.054692242 0.5026083
0.23380774 0.043206196 0.51763678
0.3183949 -0.045645058 0.90115976
-0.99436545 -0.1807564 1.4798002
0.14601028 0.053534977 0.41047001
-0.20029092 0.055032179 0.26825452
0.17137074 -0.15080087 1.0707755
0.16961944 0.051296514 0.55406189
-0.29630172 -0.42982107 3.0589218
0.30206233 0.042405028 0.69864368
-0.70809007 -0.39819324 2.7524805
-0.60668516 -0.053278103 3.6916451
-1.1129194 -0.22471021 2.7980361
0.37196857 0.03707483 0.44719291
1.0933609 -0.34518445 2.2476707
2.118403 -0.32547665 2.7182317
0.33813411 -0.13014154 0.8383112
-0.11185372 0.055089902 0.50239611
-0.14402592 0.017213952 1.2819104
-1.2218972 -0.11526941 2.9553232
0.48159301 0.032617196 1.0160828
1.1483413 -0.082810163 1.5811381
-0.10454583 0.055241168 0.50345135
0.33184397 0.016401023 0.45313692
0.74548018 0.031209126 0.88916779
0.25178057 0.046635859 0.38962245
-0.051482499 0.057038017 0.3892622
-0.89114499 -0.2286409 1.6306386
-0.20730889 0.054028943 0.26047611
0.2200098 0.048571549 0.41395473
0.1930964 0.053542767 0.4642272
0.059992433 -0.15919842 1.060143
-0.18150568 0.056214441 0.41867399
-0.18300849 0.0569016 0.33395958
0.30838484 0.0020075329 0.43712187
-0.81836784 -0.48434496 2.7373261
0.25843018 0.031563647 0.39086866
-0.59664571 0.047228072 2.3205085
0.30720824 0.034186691 0.43998313
-0.17009449 0.033796176 0.55444813
0.30857301 -0.054273129 1.0471401
0.30410391 -0.084550321 0.43397141
0.34146982 -0.10862634 0.82124138
-0.4611969 -0.0071258172 2.3982143
-0.20720625 -0.064988673 1.8907332
1.6000143 -0.02558656 2.0255375
-0.56478751 -0.045117393 2.7149549
0.33334017 0.02718012 0.78918076
-0.85656226 0.027416408 1.2712064
0.077244997 0.054557089 0.37843728
-0.10609972 0.053829882 0.6369977
0.14311582 0.051980898 0.58640623
0.21173835 0.048200376 0.61916351
1.5425134 -0.27018416 1.9918113
-0.78740442 0.02469084 1.3002801
-0.10392511 0.052074917 0.47507906
1.0212605 -0.32540423 2.0821524
-0.03778401 0.0587679 0.26072645
-0.86321068 -0.27030033 1.4034219
-1.2157389 -0.054995894 2.9371166
0.73537469 0.030847412 0.87691736
0.34162259 -0.13342993 0.85205126
-0.069528937 0.051262621 0.2750361
0.15852779 0.052346766 0.55112028
0.22590494 0.042763345 0.2604723
-0.45745671 0.025568951 2.6679831
0.13707012 0.056656167 0.24633265
0.15092582 0.050988108 0.57534409
-1.1273816 -0.069806464 1.7397566
-0.06183064 0.05736544 0.27652097
0.6873579 -0.46047044 2.5905294
0.26168984 0.028894305 0.41537094
1.1972936 -0.3430717 2.1132932
0.14946073 0.059313219 0.37852669
-0.89712071 -0.2912147 1.6165991
-0.098430216 0.052023437 0.61898708
-0.11874866 0.052526932 0.61730671
0.21138376 0.044019863 0.25919652
0.36316776 -0.063424125 0.82489443
0.056375921 -0.19359083 1.0963974
-0.18321699 0.052137047 0.40016961
0.31505263 0.012858644 0.42883539
-0.49051958 -0.0098494664 2.5695634
-1.01327 -0.21784182 1.7326565
-0.64223027 0.032786585 2.6435218
1.1034864 -0.021057706 1.6101184
-1.0342247 -0.24343257 1.6083145
0.21300697 0.050861914 0.27934766
-0.19331425 0.046297848 0.56870842
0.3358869 -0.11554573 0.81465769
1.0055958 -0.27794176 2.1211934
0.1310125 0.03949032 0.58048391
-0.17075932 0.050668314 0.77820778
0.16256261 0.025138255 0.6401124
-0.052047491 0.056859698 0.39097309
-0.95992756 -0.33295023 1.6493206
0.30873543 -0.091106944 0.81351233
0.61277354 -0.40502703 2.381
-0.50459176 -0.3780067 3.7697105
-0.78247094 -0.23465802 2.7237201
-0.20579153 0.052398324 0.32919884
0.50338018 0.033905644 0.58817673
0.14536774 0.025718559 0.57858992
0.1867584 0.047685146 0.57113981
-0.18533653 0.058906786 0.3053906
0.18190432 0.020697214 0.59301567
-0.92051029 -0.34385502 1.6759915
0.19850081 0.055827841 0.42159414
0.37928379 0.042212725 0.45880079
-1.006482 -0.15858981 1.2651353
0.24605048 0.034727093 0.50456333
0.21265107 0.051586829 0.24643779
0.22159618 0.042559579 0.27086258
-1.0031948 -0.31620222 1.6648707
1.6821911 -0.039678633 2.0124507
-0.84409642 -0.25997752 1.6682167
-0.079927564 0.057820633 0.32279515
-0.090471923 0.059506729 0.28728986
0.070907831 0.052438267 0.24808478
1.6890907 -0.041943476 2.019495
0.29503971 0.038693745 0.52293158
0.010381579 0.056861438 0.35575271
-0.20358384 0.053725988 0.29864693
0.44877374 -0.11913361 0.51381731
-0.56756139 -0.21602426 2.2864499
-0.058133483 0.055612247 0.38006806
0.34918636 0.029922877 0.849051
0.232099 0.042926274 0.51616764
0.17358971 0.023752533 0.58393097
-0.19809103 0.054768391 0.2656672
-0.97469378 -0.18295315 1.5340676
0.16106665 -0.15013875 1.020515
-1.2099915 -0.4547509 2.9358773
0.013500094 0.054818947 0.52090979
-0.70721066 -0.39566046 2.7548265
-0.16216576 0.049880035 0.8189168
0.35301036 0.028704226 0.85990047
1.008968 -0.37054497 2.0534449
0.22233754 0.053662062 0.29477954
-0.18756664 0.058655705 0.36416245
-0.3672595 0.057979967 0.54721737
0.30828685 0.017456982 0.43849897
-0.11637223 0.040335055 0.30540848
-0.18853998 0.057757389 0.35204244
0.21040994 0.046849471 0.39471197
0.23757738 0.041471891 0.45768142
0.15253711 0.018725891 0.57852602
0.25092191 0.044246249 0.39269209
0.21013129 0.052509524 0.34574413
0.080399454 0.053730089 0.37576985
1.1590252 -0.33232021 2.0428548
-0.16688794 0.056478642 0.45040083
0.235753 0.043389365 0.52421379
0.13406259 0.05471465 0.26702571
-0.1813494 0.057594847 0.47393942
0.70448887 -0.39752769 2.2908239
-0.18380582 0.058541972 0.26736474
-0.052137256 0.055671655 0.26243067
-0.19004017 0.055231728 0.43059659
1.0357583 0.011723194 1.2719097
0.079698503 0.049277108 0.45840383
0.77477932 -0.4857651 2.5317779
0.31749064 0.035784736 0.4572432
-0.90307653 -0.29923606 1.5928493
-0.20854574 0.045045905 0.72993898
1.3152488 -0.31766176 2.0783982
0.073951066 0.056499407 0.30993319
0.21826005 -0.096746325 1.9423637
-0.69496691 -0.19361757 3.1507554
0.21149635 0.046884332 0.39613223
-0.18447077 0.052511178 0.40765166
-0.52650702 -0.11206016 1.9686294
0.40213442 -0.07074637 0.92319345
0.93364918 -0.013509192 1.5866184
1.6815276 -0.24303012 2.149528
-0.89321077 0.033827808 1.1721091
1.5363914 -0.30385113 1.9531097
-0.18718511 0.0586835 0.34326386
0.13419366 0.0551228 0.26965094
-1.0735871 -0.14601658 1.3111281
0.5898478 -0.037942924 1.3522325
0.21583182 0.051923715 0.30099368
-0.95699894 -0.18951839 1.275897
0.24079043 0.044509936 0.53386497
-0.24553281 0.03694424 0.68149996
0.20558673 0.045152321 0.42332816
-1.0119567 -0.25813502 1.9580193
0.16019559 0.025167219 0.57808113
0.013847649 0.054097809 0.52259207
-0.98963082 -0.23469089 1.5398846
0.1569612 -0.16006099 0.98261452
0.22780907 0.042980682 0.26372099
0.62794781 -0.4054305 2.5763898
0.21550077 0.052448098 0.25005865
0.65422463 -0.43052191 2.5590224
-0.12764794 0.057163786 0.2898972
-0.054436922 0.054684293 0.50810432
-0.122733 0.055863842 0.26182485
1.2344856 -0.27168185 2.0246277
0.16832852 0.022323925 0.56296301
0.22025996 0.048619885 0.45716667
1.425667 -0.33391672 2.403223
1.7022431 -0.056630045 2.0487294
0.12464011 0.039910536 0.70382595
0.13030088 0.053283799 0.25993586
0.23017943 0.050293379 0.40112686
-0.20302886 0.043963511 0.70836067
1.2161287 -0.26957607 2.003449
-0.52472675 -0.14929301 3.6206675
0.2243883 0.049045462 0.35456038
0.31002742 0.032127433 0.45753813
-0.18156546 0.056665614 0.41903615
0.22340506 0.049921475 0.34319067
0.14755297 0.056505613 0.26959324
-0.061089396 0.056723919 0.27661157
1.4998757 -0.2825256 1.8873911
-0.99770892 -0.38215643 2.6389031
0.078896523 0.055662006 0.38201427
0.22204882 -0.034467012 0.70660686
0.56003928 -0.17555121 2.4488082
0.016289294 0.051039588 0.61422539
-0.47909677 -0.083218455 2.2543035
0.33047813 -0.056828171 0.8346386
-0.7410835 -0.3918038 3.2377601
-0.34091818 0.052562289 0.56705141
0.089674711 0.026169933 0.50821209
0.32798284 0.014424458 0.4492836
1.9193982 -0.050982639 2.5001822
-0.98240578 0.029935788 1.9467678
0.32494694 0.032516029 0.43467188
-0.99087632 -0.13794024 1.248065
0.14375609 -0.13256076 0.89971209
1.5389172 -0.29106152 1.9384427
-0.19851208 0.052618261 0.31186414
-0.88941789 -0.34278697 1.7225361
-0.94915831 -0.18812461 1.2644372
-0.054222822 0.054370977 0.49874449
0.060504019 -0.1861379 1.0433388
0.59813452 0.03971459 1.2072864
2.888422 -0.43444401 3.6008916
1.1866056 -0.30248982 2.0244632
1.7884755 -0.31254101 2.3303351
1.6127336 -0.031760693 2.0180249
-0.20155889 0.053048048 0.31562972
