# .PCD v0.7 - Point Cloud Data file format
VERSION 0.7
FIELDS x y z
SIZE 4 4 4
TYPE F F F
COUNT 1 1 1
WIDTH 299
HEIGHT 1
VIEWPOINT 0 0 0 1 0 0 0
POINTS 299
DATA ascii
-0.13652478 0.049187608 0.43294391
-0.15053952 0.048434589 0.41784188
0.98885149 -0.083315052 1.6335863
0.6850121 -0.14281374 1.560534
0.98162055 -0.23033895 1.6455113
-0.073809229 0.059035681 0.44729015
0.29350886 -0.1892059 1.0873501
-0.17539202 0.047892392 0.77698529
-0.18899813 0.047471017 0.76965356
-0.61331016 0.0041285907 1.1305494
-0.75944608 -0.18586969 1.4060293
0.21049786 -0.17822661 0.77737677
-0.58736235 -0.0062771877 1.1364769
-0.17534141 0.051947959 0.31879154
-0.8405776 -0.11836345 1.5558605
0.16708243 -0.17078967 0.77453053
0.17276427 -0.18602237 0.88673007
-0.07485909 0.059169017 0.30226192
-1.2481723 -0.094508842 1.6762911
-0.61796826 0.019091759 1.1279591
-0.21090908 0.039431319 0.43371746
-0.1849516 0.038168229 0.45781913
0.24098332 0.05083352 0.87703133
0.1370496 0.059228104 0.48306146
0.072072685 0.058480132 0.4398751
0.2696214 0.052878585 0.50087798
0.39719027 0.024938591 1.3163154
0.22454862 0.061033212 0.48664221
0.93346733 -0.1278878 1.6196674
0.59722346 0.0099488357 0.89259517
0.57332826 0.016356284 0.70028543
-0.20991091 0.054705616 0.30256835
-0.1817252 0.052752122 0.25666931
0.68534154 -0.039003126 0.80041027
-0.20454387 0.053244486 0.28686103
0.40283662 0.047051471 0.50651252
0.33780888 0.042594232 0.41967097
0.34032941 0.043965414 0.4241142
0.21752395 0.059320301 0.47433469
0.3058317 0.053641703 0.51331294
0.37005213 0.043464452 0.44572535
-0.169412 0.049773268 0.40919313
0.21790351 0.059779041 0.47216073
-0.15885271 0.058255088 0.40275255
0.14382152 0.062562406 0.447898
-0.63162476 0.026427647 0.87187719
0.22409545 0.052182712 0.67359138
0.40293473 0.041573443 0.76790285
-0.12059164 0.049145069 0.39882997
-0.62227088 0.013251083 1.1879117
-0.64175272 0.018176436 1.1716517
0.14160401 0.061719172 0.44640115
0.22483821 0.05801658 0.57944643
0.072981872 0.058591492 0.44441286
-0.1836835 0.037010331 0.45520386
-0.070217349 0.053047214 0.38351348
0.21482685 0.060206655 0.59259653
0.073355891 0.058987316 0.44297919
-0.59707808 0.014427214 1.1341143
-0.56931466 -0.0043130964 1.0258696
-0.64004326 0.017703703 1.1675596
0.1407599 0.061688222 0.43746766
1.1323408 -0.20502265 1.621739
-0.58485281 -0.0096316952 1.1183714
0.24915421 0.062816985 0.51535583
0.12884273 0.061057884 0.29650298
0.074475169 0.062644206 0.39368352
0.23367356 0.053740531 0.51942277
-0.16791102 0.049937401 0.40561661
0.22210453 0.066034503 0.51238549
0.30803639 0.017506355 0.41890416
-0.8563475 -0.11920984 1.5836195
-0.18728746 -0.063732088 0.41911754
0.30993244 -0.0086658662 0.40594187
-0.21083726 -0.048779041 0.43622968
-0.87254882 -0.10351598 1.6103252
-0.06513045 0.06063921 0.42942676
0.31526288 0.019835845 0.41209444
-0.83531022 -0.2088345 1.4379494
-0.18309049 0.036587685 0.4508954
0.52166021 0.036985252 0.92909217
-0.095231324 0.051374808 0.48938271
-0.21153794 -0.048592262 0.43860117
-0.061165746 0.045449231 0.42175612
-0.76078767 -0.21896386 1.3903551
0.2374645 0.060016595 0.50870001
0.3216275 0.039099246 0.41532061
-0.19166878 -0.064663693 0.84160781
-0.58648098 0.016501255 1.1108215
0.40746263 0.042437162 0.77851975
-0.83895576 -0.21044019 1.4476305
0.30923524 0.0054757162 0.40501878
0.13610001 0.059782848 0.43147555
-0.794119 -0.1799936 1.3969637
0.13875316 -0.13819768 0.85605609
0.31981647 0.035965454 0.4130846
0.21609344 0.053556532 0.42566517
-0.57363617 -0.20264043 0.89448595
-0.072956033 0.064959161 0.27696887
-0.12442662 0.050938427 0.41340926
0.26754925 -0.20180815 1.0495632
-0.74657166 -0.1771057 1.4101902
0.12596701 -0.25416055 1.1097687
0.23363502 -0.27727738 1.6403161
0.080569208 0.054716866 0.6976862
-0.17884979 0.034866586 0.43835029
0.094306529 0.062687717 0.28940418
-0.20964143 0.038547024 0.42816427
-0.063173167 0.058834463 0.40717879
-0.17678763 -0.085920334 0.81425023
0.40828076 -0.10648882 0.94813728
-0.068307802 0.053896055 0.33274594
0.077731833 0.062709056 0.39925006
0.28632477 -0.1912958 1.0801864
-0.62346953 0.017260553 1.1325952
0.071353525 0.06053609 0.37428895
0.38911286 -0.14401795 0.8036716
-0.21628229 0.020274896 0.89225042
-0.18407583 0.037874039 0.4604139
-0.21469943 0.021181375 0.85583508
-0.11841452 -0.17210132 1.0275401
-0.78235513 -0.19679379 1.3455451
0.11566218 -0.23132904 1.2039789
-0.75694257 -0.18068822 1.4276216
0.3043305 0.048429988 0.44736329
0.13656797 0.061661668 0.27639332
0.37367651 -0.13780323 0.76768708
-0.054808844 0.05183842 0.31760451
0.30063725 -0.012795748 0.40011039
0.29235283 -0.19549499 1.102403
-0.75737137 -0.19161311 1.3062643
-0.82983983 -0.19865842 1.4559662
0.23037805 0.054133452 0.69731081
0.50944102 -0.1633673 1.506757
-0.17629325 -0.086428612 0.81915736
0.0086350422 -0.23698214 1.2452227
-0.64649063 0.018701909 1.1745297
-0.20332466 0.047613051 0.74535394
-0.8267222 -0.15434022 1.501731
0.2015527 -0.1458801 1.0726117
0.4870593 0.051900692 0.57831335
3.3320973 -0.62807167 4.5712767
0.47341236 0.043855619 0.79250884
-0.05878647 0.061644733 0.48680988
-0.45961991 0.061694771 0.60558355
0.17852716 0.060651049 0.84152234
0.12390943 0.058058735 0.31257746
0.30953681 -0.025338307 0.41821191
0.37814072 0.018511191 1.5569067
0.2132185 0.058525957 0.46698186
2.5841439 -0.4894895 3.7314982
0.11100615 -0.27222726 1.2384206
-0.016309813 -0.23684897 1.2004232
-0.21646418 0.040118556 0.44096878
-0.15760018 0.050811201 0.44090059
0.38295513 -0.18857138 1.0979174
0.2983216 -0.077738635 0.39052108
0.10436231 -0.21220815 1.2552028
-0.0068069138 0.061055642 0.40444776
0.30311599 -0.025036974 0.40836975
-0.025639346 -0.1972982 1.2264177
-0.92136055 -0.036698047 2.4812081
-0.63417417 0.016411787 1.1519623
0.13769428 -0.17225432 0.8628794
0.50928485 0.041137367 0.89920807
-0.10724268 0.055029314 0.27586678
0.081633061 -0.2270851 1.2547519
-0.22897729 0.050533954 0.71734655
-0.13290016 0.04551043 0.96894336
-0.16446826 0.049361493 0.34370878
0.87800264 -0.12490901 1.5996611
0.10465378 -0.21356861 1.26152
-0.80884814 -0.19093724 1.5275989
-0.78326643 -0.052770771 2.2681558
-0.58128923 -0.0085783051 1.1109656
2.8385677 -0.64175069 4.3105817
0.080928117 -0.21289043 1.1583047
0.77717483 -0.1950675 1.564876
-0.17509952 0.052392926 0.31947097
0.30951035 0.0064734174 0.40530017
0.31165603 0.045741551 0.40816495
0.38502693 -0.16188739 1.6313615
0.038733259 0.071335852 0.59432268
0.37645146 -0.18463719 1.075597
0.11757296 -0.23776664 1.2388865
-0.010781566 0.057240754 0.52457917
-0.86722231 -0.10256483 1.5944848
-0.62003231 0.026591962 0.85034549
0.45798349 0.042796172 0.76440859
0.30958426 0.028128676 0.4280766
-0.13324119 0.047295865 0.26829031
1.5782235 -0.28384426 1.8119746
0.30399448 0.039612554 0.41932997
0.31289151 0.028283756 0.40095714
0.26143387 -0.18752322 0.94375145
-0.010639643 0.058819585 0.53850758
-0.14609447 0.054201946 0.29863688
-0.22285376 0.048258051 0.69138217
0.13913611 0.064651445 0.39519635
-0.65757847 0.042110328 0.84966481
-0.59000421 0.014564816 1.11731
0.099951297 -0.19871014 1.174003
0.95646876 -0.13122314 1.6672329
-0.07375931 0.058738478 0.32641837
-0.067308314 0.059737671 0.31452253
-0.19425878 -0.066072248 0.85623813
-0.85327554 -0.17394981 1.4398353
0.53891939 -0.14303523 1.2401559
0.079610482 -0.22288331 1.229581
-0.098489985 0.052270837 0.41789308
0.24636322 0.051791821 0.47041127
-0.21256039 0.039024595 0.43352422
-0.072876953 -0.30437362 1.4733394
0.11923555 -0.23404168 1.2227052
0.21131596 -0.14589909 0.95413125
-0.20758727 -0.041921183 0.43933079
-0.07286042 0.057996683 0.39090118
0.4160895 -0.13389251 0.91282392
-0.072099105 0.050683144 0.38615707
-0.068199441 0.046701163 0.56331825
-0.21093032 0.019515837 0.85563743
-0.083906762 0.065016493 0.37900975
0.16270065 -0.20753825 1.0927492
0.42535064 -0.16977187 1.803239
0.0088946316 -0.23520784 1.234766
0.40613699 0.042266201 0.77567089
-0.12146714 0.052707545 0.33521286
-0.055910032 0.059929669 0.47490832
0.23989616 0.056674428 0.48438093
-0.14233293 0.057337437 0.34601393
0.28717715 -0.036780659 0.3826851
-0.69543451 -0.056549177 0.99751604
0.2451891 0.058190621 0.50118077
-0.18926761 0.02147571 0.91857708
0.31218287 0.039018996 0.39392337
-0.1987481 -0.075856425 1.3426653
-0.014665175 0.058774035 0.27616963
-0.12173577 0.055311948 0.24707273
-0.13409866 0.053273451 0.4457182
0.91449803 -0.13221817 1.6702529
-0.017010164 -0.26278016 1.3387591
-0.93750811 -0.079350926 1.4639524
-0.57837099 0.019423479 1.1664252
0.23770763 0.058766406 0.50624979
-0.16950053 0.050310474 0.30629924
0.218061 0.051416032 0.65659511
-0.19825849 0.052336957 0.2750515
0.18707 0.06195787 0.29606721
-0.17900966 0.014847069 0.88567424
-0.76460707 -0.20460768 1.330837
-0.86508799 -0.21221016 1.4914954
0.21215019 0.060611103 0.43175241
0.87896627 -0.20060299 1.6317083
-0.17638755 0.017407201 0.86363184
0.4597173 -0.18132389 1.9582254
-0.15262957 0.04042374 0.52618504
0.21196038 0.063483104 0.54113674
-0.93889874 -0.079340927 1.4590969
0.010007525 -0.22548889 1.1868894
0.39382166 0.046490531 0.4932622
0.61900938 -0.2057191 1.8558244
0.24678467 0.050005198 0.4501932
0.45679021 0.037676241 0.80203593
0.16720618 -0.16044228 0.75652957
-0.21740858 -0.016734203 0.47802159
0.21707307 0.062144782 0.45064935
-0.18968287 -0.065834709 0.42687133
-0.16769628 0.051916197 0.32653102
-0.15141226 0.052953053 0.3886821
0.90795392 -0.16798079 1.6104339
0.10867763 -0.233804 1.3373791
-0.190217 -0.070186146 0.82470965
0.33537784 0.045765571 0.42477301
-0.13559979 0.0505483 0.3929837
0.30816579 -0.080211714 0.40659013
-0.77509391 -0.20718399 1.3514847
-0.089971036 0.051878434 0.40617201
-0.87493247 -0.03527043 2.3456447
0.29911456 -0.077733256 0.39174172
0.2479455 0.053927116 0.71825278
-0.058523856 0.051292129 0.26554963
0.17643274 -0.22679639 1.2043428
0.30255172 -0.016517757 0.40752283
0.4433383 0.041639943 0.84562683
0.084578678 0.056162715 0.72822464
-0.98985612 -0.18384358 1.4841849
0.039003387 0.058628805 0.41002348
0.29236755 -0.015704662 0.39070222
-0.70540357 -0.25231627 1.1760534
0.34195751 -0.032956213 0.44166544
-0.16136782 0.016112017 1.1018301
-0.91970921 -0.031302437 2.4941955
-0.15535001 0.049862802 0.31063864
0.29065016 0.050835904 0.69424653
-0.07378573 0.057911329 0.29574522
0.25540009 -0.24118412 1.7889029
0.12887824 0.061320897 0.27879402
-0.18386449 -0.1006721 0.46050224
-0.63532561 0.026949355 0.87344468
