# .PCD v0.7 - Point Cloud Data file format
VERSION 0.7
FIELDS x y z
SIZE 4 4 4
TYPE F F F
COUNT 1 1 1
WIDTH 650
HEIGHT 1
VIEWPOINT 0 0 0 1 0 0 0
POINTS 650
DATA ascii
1.5818796 -0.099815495 2.5262122
0.97663707 -0.059467971 1.3799968
-0.17174506 -0.18693736 2.6153703
-0.17527097 -0.18675402 2.6430607
-0.24023253 -0.3719252 2.9320521
-0.21325308 -0.3821668 3.1291103
0.64895958 -0.025285721 2.0327497
-0.16796726 0.00034940988 1.7757487
-0.24259216 -0.3055428 2.8921576
0.95473367 -0.23964635 2.4773436
-0.84936279 0.0034699775 1.629571
7.9714675 -0.44415233 16.036816
-0.14153641 -0.32833388 4.1178193
0.76894945 -0.011846777 1.553803
-0.080886304 -0.14866608 3.8800373
-0.28425592 -0.40860435 2.8997498
0.66569239 -0.052584447 2.7744517
0.73217374 -0.01708167 1.5466404
-0.84138793 -0.47502384 2.6588125
0.11920756 -0.072862305 2.2451925
1.0638249 -0.3278451 1.8491392
0.94637614 -0.026598841 1.7435861
-0.22512692 -0.34181643 2.4431643
1.1101716 -0.35482037 2.0439377
-0.79442114 -0.44428298 2.6948981
0.94213313 -0.2753413 1.8690023
-0.79038352 -0.40075889 2.7235079
-0.83455771 -0.24575227 2.8090782
0.15034974 0.05355316 0.48703003
0.65346462 -0.015107892 2.2041283
1.5361586 -0.31258091 2.6381788
1.8755136 -0.064381942 2.551465
-0.018306196 -0.4261007 3.0881567
2.8594284 -0.15151048 4.5122724
1.1215 -0.023724444 1.5721154
-0.57338852 -0.38742951 3.8863397
0.15241385 0.053842254 0.50487375
0.33676422 -0.066780627 0.77264071
1.0799754 -0.023594879 1.5752425
1.1210723 -0.023439713 1.5723033
0.18774486 0.041022055 0.53067636
0.33466458 -0.062813096 0.76178551
1.0983934 -0.068753995 1.5654492
-0.82476479 -0.073731191 1.2590213
-0.86451977 -0.45751363 2.5535259
-0.91602641 -0.39885291 2.4778852
0.37349647 -0.29202905 4.4571147
-0.84521669 -0.35884839 2.5327682
-0.81175059 -0.2386981 2.6941462
1.0762208 -0.022759423 1.5722389
0.27993995 -0.08232601 0.82375097
-0.98150247 -0.4343594 2.6159482
-0.11029416 -0.52080196 4.1135249
0.34158635 -0.13883749 0.79059505
-0.019877851 -0.52470946 3.8076286
1.0809889 -0.023805894 1.5710917
0.3810516 -0.29889968 4.5528207
-0.95238394 -0.41321266 2.6197901
-1.1268332 -0.401131 2.8115492
-0.022439659 -0.52676862 3.8574977
1.1571615 -0.023900453 1.5577297
-0.93546456 -0.34572986 2.5571933
1.0687401 -0.021744721 1.5496535
1.1164813 -0.060163543 1.5737214
-0.76843637 -0.41269904 2.664206
-0.86286134 -0.25674361 2.9508791
-0.85739166 -0.2743746 2.6363001
-0.9193359 -0.45279515 2.6340981
-1.140126 -0.3342239 2.8203812
-1.0139942 -0.38847378 2.5788126
-0.84372872 -0.021677483 1.2922711
-0.75994426 -0.24903196 2.9498067
-0.75595444 -0.39407736 3.0277567
-1.0170023 -0.22384241 2.5772538
-1.0932784 -0.40069172 2.7183661
-0.78865832 -0.40538892 3.1708632
0.33801454 -0.11974248 0.76262712
-1.137872 -0.37199524 2.8078375
1.3740218 -0.024981208 1.6447392
0.03695792 -0.24360517 4.045526
-1.0721457 -0.33418211 2.6685696
-0.84782237 -0.037758835 1.2409024
-0.84083515 0.020482723 1.2319865
0.1196062 0.033693854 0.63571644
-0.83210641 -0.53968614 4.3290634
0.99609369 -0.052498154 1.6128197
-0.66493148 -0.001362782 2.5165153
1.7045393 -0.72966975 4.9590325
-1.1483479 -0.40256792 2.8748646
0.1669485 -0.29588816 3.531487
-0.86259991 -0.28136 1.6564016
0.15614915 0.024795154 0.49636412
0.3613351 -0.069328733 0.75330734
-0.77439016 -0.34804609 3.6063013
-0.90045136 -0.35869038 1.6545486
0.33890128 -0.11835156 0.75473404
0.33047688 -0.067871884 0.76055193
-0.96453732 -0.15141487 1.4669919
0.32499731 -0.046795584 0.75143671
-0.86094755 -0.30283752 1.536622
-0.81151956 -0.25271469 2.7918353
-0.79842633 -0.43559015 2.7567563
-0.78643709 -0.29167005 3.0433774
-0.19648153 0.056124009 0.29529715
0.15666479 0.025033357 0.49616861
0.33230668 0.02788594 0.73683214
-0.88068086 -0.26562339 2.528851
-0.16936266 0.055628143 0.47633457
-0.19208008 0.055033177 0.33569741
-0.86621875 -0.55699086 4.5246816
-0.94150585 -0.43260843 2.6218252
0.079213858 0.050974604 0.41258764
0.34375137 0.026101876 0.75212955
-0.85376829 -0.038387589 1.2527094
-0.80733567 -0.024141803 1.2219262
-0.90571123 -0.32375839 1.6613111
0.99478477 -0.044853367 1.5848532
-0.78038031 -0.3875834 2.6385794
-0.79276663 0.0094522759 1.3328404
0.12574422 0.021939093 0.51166725
-0.72020859 -0.38062212 2.5943041
-0.71784526 -0.20987049 3.2479887
-0.68270737 -0.21761706 3.8141251
-0.94619542 -0.3615481 2.6694956
1.0934789 -0.069256224 1.5579257
-0.93827671 -0.36008409 1.6006026
-0.15742141 0.057760537 0.42832708
-0.77425188 -0.062031366 3.6393909
-0.84043986 -0.18529177 1.5415201
-0.17411733 0.051609293 0.68292904
-0.8902275 -0.36024404 2.7180071
1.0007291 -0.042177096 1.5914893
-0.85472232 -0.15672311 1.4504132
-0.8113268 -0.072922565 1.2379436
1.0116944 -0.05758018 1.5849333
1.2204397 -0.30666649 1.9906316
-0.82955116 -0.3744252 4.1445522
0.016838193 0.055590585 0.54431105
0.15383887 -0.16151083 0.90150499
-1.2437587 -0.47560677 2.9745717
-0.70741981 -0.26014224 3.2975721
-0.69290131 -0.56363624 4.4776311
-0.8037135 -0.38301849 4.2810197
-0.91048545 -0.46198133 2.6709962
-1.228272 -0.42635521 2.7647142
-0.85999089 -0.37579566 2.4570093
0.083515704 0.053841945 0.43969917
-0.36795682 0.057466518 0.52268457
-0.70447391 0.04190857 2.2735815
-0.81142682 -0.019604735 1.2380352
0.70413917 -0.14879128 1.2959261
0.27584368 -0.078513429 0.78388786
-0.80339497 -0.070841916 1.1956205
-0.8459813 -0.075424433 1.2416024
0.16553599 0.052357674 0.47202492
0.16464627 0.052164137 0.4706111
-0.95300204 -0.33649999 1.5621519
-0.11115199 0.055106997 0.41034269
0.050594568 -0.15216917 0.90202284
-0.74685532 -0.2589767 2.8727813
-0.48707896 0.038442846 0.99521208
-0.67400879 -0.0010893643 2.5523796
-0.8688646 -0.25490722 1.5221181
-0.77203149 -0.385593 4.2091427
-0.66101021 -0.19048402 3.4441619
-0.85633987 -0.14333585 1.4628024
0.34465784 0.04452008 0.55716038
0.15031868 0.052858226 0.50031996
-0.37095314 0.058267646 0.53231001
-0.19363779 0.056276437 0.29487371
-0.87919611 -0.26016933 1.6160612
1.2646625 -0.024364568 1.4769826
1.1093106 -0.25559545 2.0071054
-0.10405862 0.053036474 0.52863741
-0.77828449 -0.38806739 4.2335324
-0.85806829 -0.23154172 1.4778709
0.12372077 0.042334151 0.65142345
0.19827765 0.050829012 0.55794001
0.095703244 0.051972132 0.76854229
0.12620753 0.043004561 0.66418791
-0.054333508 0.054089397 0.4190588
-0.57600802 0.022141278 2.1954179
-0.90138525 -0.46762952 3.8390322
-0.59107131 -0.14490938 3.2025261
-0.79319555 -0.23788342 2.9963789
-0.8159067 -0.016724907 4.1038108
-0.73815387 -0.28879437 4.0443287
-0.54404122 -0.38271487 3.7436628
0.30461425 -0.04823672 0.77027607
-0.90813214 -0.031103335 1.3304
-0.93970257 -0.55946904 4.6205506
-0.46742362 -0.1609042 3.1555238
0.2599805 0.03611733 0.42642689
0.33099502 -0.068334341 0.76372528
0.023301601 0.051263683 0.52893066
0.30210334 -0.10498274 0.8884325
1.1012766 -0.069297835 1.5642157
-0.94740885 -0.32753593 1.5413108
-0.90319902 -0.26139686 1.4797564
-0.81311625 0.022499986 1.2451248
1.331923 -0.30302078 2.0516696
0.16128975 0.053881198 0.47134256
-0.84561414 -0.28945997 1.5912709
-0.10581696 0.054651409 0.554214
0.42839819 -0.083989941 0.52795887
0.59707516 -0.025525868 1.3099432
-0.54296333 -0.3902559 3.8045421
-0.87605649 -0.24167496 1.5734143
0.36222166 -0.070122771 0.7559042
-0.11410409 0.05617141 0.42004204
-0.91515344 -0.33905199 1.6544724
-0.79260343 -0.34758484 2.7021875
0.076306939 0.056461051 0.30190158
-0.86018676 -0.26932102 2.5223312
-1.2020152 -0.4623867 2.8703952
-0.25667125 -0.37586668 2.8898621
-0.95686322 -0.29931527 1.5406942
-0.15382898 0.057588145 0.42167807
-0.98431617 -0.43733841 2.6311398
0.33324307 -0.001131855 0.73654127
-0.030328512 0.048805043 0.82087326
0.30229717 -0.0481674 0.76340151
-0.75145596 -0.3746106 2.9777551
0.36116511 -0.11012111 0.72362757
-0.9948346 -0.23378024 1.4436932
-0.9016481 -0.15541908 1.485817
-0.2125749 0.047133714 0.60707903
0.33215541 -0.12330806 0.80507469
-0.053810179 0.05695295 0.29124331
-0.7855981 -0.030727901 0.97228241
0.011272013 0.053867102 0.42451525
1.1448674 -0.045896254 1.5669627
0.54425377 -0.29568025 2.5342593
-0.76864415 -0.030430607 0.94282722
-1.21292 -0.46533093 2.8980699
0.29934621 -0.10402644 0.8730855
-0.76919788 -0.4068701 2.684824
-0.031115651 0.046356026 0.73708677
0.35534114 -0.064437516 0.74340963
0.12944835 0.015978087 0.65577555
-0.8036465 0.014781486 1.2939529
0.18788606 0.019249331 0.54438353
1.3846254 -0.26277846 2.0853386
-0.59158605 -0.092202879 3.3328233
-0.055389225 0.054588541 0.41943789
1.4600637 -0.33344162 1.8318534
-0.80070513 0.024138462 1.2249694
-0.14798379 0.050017677 0.9161973
-0.43518966 -0.041567318 2.8577127
-0.78850168 -0.40717819 2.5201221
1.4178524 -0.25425178 1.8303838
-0.44536144 -0.24196509 3.015099
-0.9828921 -0.21831262 2.4906111
-0.051179588 0.057700913 0.7187891
1.1438107 -0.081174672 1.5031099
-0.83380085 -0.17088246 1.4952693
0.082383931 0.053385828 0.42069149
-0.73947483 -0.33827671 2.6898689
0.12641102 0.015281383 0.62758207
0.29218811 0.04277635 0.60389328
-0.81819874 -0.24128538 1.3402905
1.3389096 -0.3449735 2.015348
-0.84654146 -0.37917534 4.2363143
0.098876595 0.048469629 0.74610424
0.13292515 0.042303879 0.52399397
-0.060862005 0.057131387 0.30025983
-0.97309035 -0.42310879 2.6486993
-0.45952493 0.024844144 2.1030116
0.10704571 0.050993983 0.76575756
-0.52542734 -0.3643713 3.5796456
-1.0291123 -0.23970681 1.5011435
-0.22807801 0.020366553 1.5246835
-0.82389539 -0.075797223 1.2264748
-0.96679789 -0.29917803 1.4800711
0.07630223 0.056444526 0.29124999
0.30755079 -0.03271237 0.35746002
0.30040151 0.041639417 0.58792019
0.21977305 0.047774162 0.41561222
0.1410026 0.025087882 0.49235296
0.30763143 0.018081645 0.36057115
1.1373091 -0.048912637 1.5500641
0.083257079 0.053763375 0.42155313
0.30149198 -0.068671294 0.77207994
0.12541878 0.021708293 0.50772715
0.15671551 0.025106965 0.49321079
-0.046384156 0.051527746 0.80839968
0.30924255 -0.044613503 0.80324364
-1.0357103 -0.18247533 1.4423075
0.14381927 0.054769762 0.32875872
0.27278465 -0.021392424 0.7825675
0.16754365 -0.15190825 1.0014973
0.16856587 0.052985806 0.48032761
-0.30838376 -0.42759541 2.9434733
0.2997793 0.04347568 0.62085247
-0.72147387 -0.39822614 2.6630659
1.0707171 -0.34353954 2.1431332
0.33601969 -0.13057601 0.76356411
-0.11494386 0.056426272 0.41998148
-0.15235472 0.017891549 1.216815
0.52485698 0.036945906 1.0574913
0.25170678 0.04813949 0.31203723
-0.053810477 0.058148086 0.30504799
-0.90519434 -0.2295222 1.554441
0.19001859 0.054555941 0.38074589
0.053841949 -0.15761554 0.96833611
0.30898583 0.0030693188 0.36105943
-0.20667285 0.055016037 0.28121614
-0.83840364 -0.48722991 2.6703587
0.25697702 0.03291529 0.31076074
0.37022191 -0.065717168 1.2288342
0.33054471 -0.11604992 0.73561049
-0.4889769 -0.0089119971 2.4067225
-0.66602749 -0.053527549 3.092988
0.36537105 0.028958876 0.81075191
-1.2586551 -0.17676479 2.8915706
0.076017499 0.056523018 0.30224705
0.48082548 0.035155833 0.97159052
-0.10876703 0.054711767 0.54712725
0.14071119 0.0531395 0.50774908
1.0160747 -0.32818338 2.0151911
0.25935423 0.033396121 0.31464696
2.1297419 -0.32472762 2.5474849
0.79389185 -0.01645454 0.9996829
0.34329146 -0.13558245 0.78858471
0.15665066 0.053419307 0.47333765
0.15257168 0.053521171 0.51528025
0.65500742 -0.44828784 2.4196558
1.1757419 -0.34124941 2.0139427
-0.8963272 -0.28759128 1.5108495
-0.10205913 0.05308754 0.5364995
0.60165411 -0.33074507 3.8401127
2.3167427 -0.35643268 2.8122544
0.049087167 -0.18761939 0.97825766
-0.18975371 0.054635763 0.32791018
0.36783224 -0.075810187 0.76307774
0.22231901 0.046331637 0.42249584
-0.94642097 -0.039256297 1.4290919
-1.0168951 -0.21693295 1.6346879
1.1160672 -0.023057874 1.5646715
-0.62961024 -0.050833009 2.8884311
-0.19747144 0.047944888 0.48825121
0.33625013 -0.11680829 0.74639893
0.13060111 0.041756377 0.51382017
1.0196404 -0.31059271 2.0039859
-0.053514123 0.057260409 0.29927278
-0.97045189 -0.33274645 1.5646467
0.31408155 -0.093471266 0.76160765
0.61766809 -0.41942993 2.3779373
-0.5321824 -0.38520133 3.7485232
-0.80445927 -0.23772582 2.6704626
0.34059161 -0.066014372 0.75268316
-0.76215929 -0.068742 1.226676
0.14342242 0.026794273 0.50237703
0.1777851 0.021464331 0.5074029
-0.92678899 -0.34214118 1.5836043
0.19110799 0.055623736 0.32785273
0.24096149 0.035167053 0.41705132
-0.99472517 -0.31039938 1.5448694
-0.84563595 -0.25606611 1.565093
1.1823068 -0.29854882 1.9246449
0.008094728 0.057908513 0.2706604
-0.41423923 0.057538603 0.7541666
-0.60782355 -0.21978292 2.3180289
-0.060883462 0.057403956 0.30083632
0.34681833 0.030564379 0.77331448
0.30573112 -0.053603612 0.36736035
-0.73609084 -0.33099651 2.6720643
0.17189384 0.024821432 0.50856924
-1.0206859 -0.18935019 1.5092716
-0.048604429 0.054314278 0.40480375
0.017828107 0.054626536 0.42287159
0.010646522 0.055724479 0.43518257
-0.72278684 -0.39700422 2.6749167
-0.16478711 0.049856909 0.72463989
0.34832531 0.029308554 0.77685022
0.31033152 0.026989313 0.37123537
-0.85960251 -0.30506539 1.5637698
-0.18959481 0.059956856 0.27998209
0.30924159 0.018557012 0.3627212
0.21851283 0.050046481 0.33470273
0.15000695 0.019595249 0.49915648
0.21040982 0.0542913 0.26875615
1.1569164 -0.33616093 1.980422
-0.1654976 0.056677572 0.35361171
0.23389888 0.044533268 0.44492006
-0.19218439 0.056511234 0.3459897
-0.80848318 -0.019055564 1.2117734
0.083042562 0.053833403 0.41582108
0.75172669 -0.48071942 2.4159861
0.3096593 0.03609781 0.36706328
-0.1222145 0.039613962 1.0849776
0.24797314 -0.11669358 2.3139262
0.21504062 0.04889876 0.32687855
0.8758828 -0.012947448 1.4062343
1.9627631 -0.42702141 3.0348268
-0.19170135 0.055692267 0.31658912
1.5218282 -0.30442187 1.8707161
-0.95825464 -0.18774018 1.180603
0.24059302 0.045801301 0.45865202
-0.33877629 0.050830472 0.8582716
0.21738058 0.049419511 0.37413454
0.15148103 0.025174091 0.47398758
-1.0496111 -0.24566802 1.5350828
0.1558702 -0.16432366 0.93318224
0.60477799 -0.4005518 2.4438186
0.62684268 -0.42340302 2.4152884
-0.05753839 0.056077123 0.4272337
1.2546296 -0.27816048 2.0008645
0.15347683 0.02004729 0.4310112
0.21720111 0.049314551 0.37373352
1.4865162 -0.35460481 2.4624906
0.12637186 0.041816354 0.65582514
-0.4812054 0.039082494 0.97980738
0.21767378 0.050103724 0.37474036
-1.1374826 0.042379756 1.6142082
0.57056302 -0.18116504 2.473906
0.2257821 0.050971732 0.31517529
-0.20534724 0.044945717 0.61875629
1.1945484 -0.26607969 1.9049344
-0.57842106 -0.16884807 3.8506465
0.2407307 0.035494566 0.41548634
-0.35303098 0.053950459 0.71917772
0.30558497 0.033592477 0.37214994
-0.76455313 0.21625018 1.3204103
0.25140011 -0.037979446 0.74211502
0.5609656 -0.18119308 2.4311242
-0.38321131 0.02504975 1.2685547
0.013155401 0.051788792 0.52663183
-0.50366193 -0.085188292 2.2342153
0.32615834 -0.056214415 0.75251913
-0.43686289 0.068507046 0.63514948
0.14633274 -0.13961732 0.87264204
-0.96739942 -0.18981615 1.1928754
-0.057955563 0.05640921 0.42458439
0.055765271 -0.18831995 0.97957754
-0.83298391 -0.18310803 1.5269623
1.178736 -0.30603877 1.951488
-1.0164247 -0.016503725 1.6715407
1.7133787 -0.30323175 2.1673203
-1.0224018 -0.30478954 2.6092076
-1.0521431 -0.29378182 1.6085892
0.30700976 0.026650988 0.36677122
0.25071204 0.048074968 0.31049705
-0.1995911 0.056031991 0.24572611
0.28687835 0.039075732 0.43123198
-0.93053669 -0.17034745 1.1370206
0.72407371 -0.46540198 2.3273478
-1.2848525 -0.4508763 2.8773398
0.24195832 0.046007223 0.46284199
0.30743062 -0.024378285 0.35760093
1.3486509 -0.29631338 2.0712485
-0.19209391 0.055438876 0.33342671
-0.35636753 0.057034299 0.45633078
-0.80435914 -0.040580861 1.2246695
-0.84969622 -0.23691204 1.6378765
-0.19999194 0.051140353 0.37269306
-0.052986324 0.057759821 0.30239153
0.22979832 0.043850351 0.57768059
0.15682614 -0.16477114 0.93081141
-0.88556069 -0.47858593 2.6534753
0.05009079 0.057145871 0.28240299
0.18666536 0.056428358 0.27633429
0.14833134 0.054863349 0.32248664
0.30611414 0.026620027 0.36557293
1.7113972 -0.029424347 2.1131511
-0.28659785 -0.15251091 2.4465718
-0.13187337 0.063933931 0.29134202
-0.37041897 0.058618795 0.53176308
0.33009785 -0.13027731 0.76690388
-0.16485393 0.051360544 0.49076986
0.22042406 0.048179675 0.5188427
-0.86245328 -0.2150673 1.4949317
0.29942459 -0.10631215 0.75317717
0.63717014 -0.42723557 2.5870209
1.2701781 -0.22270423 2.006865
0.52061087 0.031394392 0.87225103
0.18973327 0.054689929 0.38113618
0.18389046 0.044153318 0.51699591
-0.2053203 0.052894991 0.38327456
0.42052954 0.029611342 0.74649477
0.010010481 0.054479003 0.41859102
1.1135695 -0.33801845 2.069983
-0.16583139 0.055392034 0.46615934
-1.0149949 -0.18756381 1.4971547
0.68222374 0.01844101 1.2668548
-0.58712941 -0.060949288 2.1403184
0.31635469 0.046091769 0.64884901
-0.32338917 0.048308317 0.93649197
0.34894627 -0.053036667 0.90364933
-0.85498959 -0.25704244 1.6183634
-0.11339372 0.055739552 0.41024494
0.17945051 0.054703791 0.30465794
0.17457056 0.054239605 0.39647293
-0.11370999 0.05037028 0.49604034
0.18521392 0.057299457 0.26126623
-0.59700674 0.094305642 0.84120178
1.4209185 -0.41443601 2.0370035
-1.0784979 -0.20268813 1.598537
0.20664483 0.055620007 0.3199904
-0.19141561 0.053086206 0.41663599
1.3287387 -0.16513029 2.3018675
0.14306611 0.054668348 0.32554317
0.034341097 0.061085075 0.28252792
-0.049259603 0.055322614 0.41476107
-0.15087473 0.05342035 0.33148456
1.0828028 -0.24632862 1.7960382
0.27634054 0.048164327 0.31679726
0.31811082 -0.10651537 0.73979282
-1.0741677 -0.2016187 1.5920134
0.22816849 0.051461268 0.26920676
0.18532574 0.057240464 0.261415
0.050508082 -0.15313253 0.92558384
1.0021067 -0.2676979 1.9048066
0.30919474 -0.12491279 0.72129297
-0.96352214 -0.27829617 1.5191088
1.0856647 -0.026355825 2.0029244
0.34885222 -0.066393502 0.73313951
0.1215443 0.05203544 0.53495264
1.4206965 -0.32076907 1.9530401
1.0129385 -0.025000937 1.6119075
-0.38988656 -0.060214467 2.849349
-0.47785646 -0.16865486 3.3464899
0.097510934 0.07002382 0.32702708
1.1361599 -0.052451029 1.7379494
0.62588888 -0.10151907 0.92975235
-0.14941293 0.046262324 0.62271452
1.0668097 -0.27091888 1.9859586
-0.91224653 -0.34702647 2.5353494
0.14534146 0.057634361 0.73420048
0.57486671 -0.022715792 2.8419628
0.34451085 -0.10810358 0.73893261
-0.97181278 -0.16367602 1.1908021
0.60052592 -0.32667011 2.3941026
0.093429744 0.057119157 0.32001257
-1.0528841 -0.27178565 1.5738878
1.4276774 -0.42657578 2.0261354
0.24046284 0.028115787 0.30481482
-1.0482583 -0.23317298 1.5248585
-0.18924546 0.060581803 0.32851028
0.18947989 0.054475628 0.37685752
-0.83064741 -0.016271211 1.2492852
-0.22044343 0.047614414 0.49862957
-0.1437766 0.044074193 0.5906539
-0.65807372 0.017473973 0.84874964
-0.1954428 0.049994662 0.53002024
-0.04816246 0.054792389 0.40574694
1.121546 -0.025073305 1.5715575
-0.34352642 0.054895133 0.43532705
-0.15369791 0.057876196 0.39075422
0.35338306 -0.06355536 0.74019766
0.12842727 0.022607954 0.52000475
0.2610082 0.030103713 0.33710003
0.20817453 0.054027714 0.26574612
-0.20582038 0.065566741 0.71036339
0.23266935 0.04345233 0.37339306
-1.0794621 -0.20262507 1.5326462
-0.196477 0.05672729 0.34654999
0.81361192 0.055377617 1.4769015
0.026222467 0.054079879 0.56106806
-0.11717463 0.053757168 0.50962448
-0.19061905 0.052298814 0.30863261
1.3957291 -0.40323186 1.9377747
-0.06457299 0.060718603 0.28892589
0.2114073 0.054813858 0.27022266
0.22971582 0.050618745 0.30118036
0.21480691 0.051535122 0.24787211
1.194525 -0.2416437 2.03866
-0.05524236 0.060080074 0.31661725
-0.18530405 0.05902943 0.25239229
0.018937051 0.055854261 0.42853737
0.35433239 0.031094044 0.79172325
-0.93525726 -0.16309229 1.4664369
-0.17934585 0.044343643 0.44018316
0.99278253 -0.0056140199 1.5728245
-0.44000405 0.045023676 1.7467213
1.1393592 -0.38554943 1.9625006
-1.0336556 -0.25421843 2.5687199
-1.2243569 -0.26433292 2.7294455
1.0520482 -0.31023845 1.713973
0.24526972 0.033850081 0.39789486
-0.63085669 0.0038989037 2.7139492
0.46853787 0.036401507 0.95345592
-0.17408806 0.055893958 0.57544184
1.200954 -0.22701761 1.9440913
0.083423913 0.054457385 0.43163347
-1.0376596 -0.26922914 1.5511885
0.010676265 0.053912532 0.4217186
0.22781724 0.051986523 0.28358412
1.086719 -0.016248651 1.7505832
-0.32900929 -0.3832463 2.7959504
-0.2158637 0.055168182 0.26645541
-0.20256609 0.055209957 0.26059961
-0.11579102 0.053481527 0.50334883
0.35835606 -0.070498146 0.74623728
0.22120124 0.047734637 0.41350269
0.31540442 -0.054823719 0.72854996
0.30763012 0.013872329 0.37416697
-0.12521696 0.040558219 1.1097775
-0.21364003 0.043703474 0.72753096
1.0171638 -0.35131094 1.9478965
1.033896 -0.048659056 1.8468723
0.0013030767 0.055764336 0.33778906
0.018604279 0.055893365 0.43588829
-0.82326382 0.035152711 1.2282486
-1.0668552 -0.21816355 1.5292912
-0.98177153 -0.30409926 1.5541143
-0.84049469 -0.076044925 1.2308316
-0.96444517 -0.20391464 1.5424304
0.33561951 -0.038443036 0.8449235
0.96326643 -0.038500883 1.5902824
0.11203545 0.032615479 0.49529076
-0.46043056 -0.14542434 2.9583259
-0.7057578 -0.28269666 3.8881035
0.12636131 0.020904237 0.50817537
-0.7460348 -0.36035436 2.8896995
-0.94527167 -0.13183686 1.1682725
-1.2410316 -0.44754043 3.0295587
-0.19035584 0.060855359 0.26229692
0.94972903 -0.078575604 1.5864625
-0.90650493 -0.45566541 2.6702223
-0.013218582 0.057531454 0.43777847
0.097508788 0.04702995 0.68017817
-0.1480251 0.049048938 0.8826437
1.272126 -0.22440559 1.9832969
1.1090813 -0.069833137 1.5805984
-0.44571161 -0.28941676 2.2873993
-1.035223 -0.23037726 1.5038815
-0.37141937 0.058254402 0.5307703
0.32622015 -0.12894002 0.75802994
1.6810577 -0.057457894 1.9311657
0.017338097 0.053010769 0.40714312
0.815579 0.015469313 1.2748222
0.6788227 0.019578189 1.3166533
0.4182145 0.031673905 0.8427968
-2.1203504 0.077276774 2.9616823
1.1375897 -0.38767448 1.955657
0.98121816 -0.081333645 1.6411605
0.012510478 0.052203357 0.53006411
-0.81920713 -0.36443728 2.5137167
-0.90129715 -0.22862634 1.548152
1.0822921 -0.20658803 1.9955931
0.33245707 -0.057746731 0.77116966
1.0070179 -0.222177 1.9951396
-1.2349219 -0.17438123 2.8201494
0.32844049 -0.072906792 0.4817481
-0.96421689 -0.13326317 1.1943951
0.082911611 -0.17669883 1.0149622
-0.85142082 -0.15741104 2.632535
-0.51835322 0.026390556 1.0342116
0.3260718 0.045413092 0.48858929
