# .PCD v0.7 - Point Cloud Data file format
VERSION 0.7
FIELDS x y z
SIZE 4 4 4
TYPE F F F
COUNT 1 1 1
WIDTH 619
HEIGHT 1
VIEWPOINT 0 0 0 1 0 0 0
POINTS 619
DATA ascii
0.11160445 0.035702266 0.30173612
-1.3927506 -0.45518675 2.552336
-1.3148148 -0.2661806 2.390631
-1.4375408 -0.30149987 2.5842755
-0.92769814 -0.36140868 2.2076132
-0.55851364 -0.03926691 2.2570822
0.0083007216 0.059220612 0.25636888
0.31003273 -0.03385352 0.423558
0.31227589 0.01937552 0.39408278
0.090707779 0.05809027 0.45695853
0.09690851 0.050411772 0.58109689
-1.0136533 -0.27568185 2.1871126
0.52627516 -0.21372917 2.0112612
-0.41461545 0.0636428 0.71180844
-0.86005127 -0.23551989 1.2394574
-0.21231818 -0.2492049 1.8635638
-0.044187427 0.051484793 0.51407599
0.072963715 0.050053403 0.59721255
-0.78895593 -0.14069781 2.9908311
-0.44233823 0.031394973 2.4174607
-0.3421874 -0.23076266 2.3810222
0.31251764 -0.061524902 0.42325854
-0.53202951 0.050406896 0.82187057
-0.84460557 -0.21913028 1.176707
0.11280859 0.019799814 0.25441003
-1.0746832 -0.21203777 2.2161868
-0.54936242 -0.047499146 1.4263718
0.66984451 -0.4146454 2.0230663
0.5870707 -0.29742935 2.0689352
0.52239144 -0.36324191 2.3473022
-0.98530698 -0.55574334 4.2008686
0.4861201 -0.41464481 2.3032682
-0.32175499 -0.28129327 2.6173246
0.5586803 -0.42022279 3.8175428
0.11199719 0.041640867 0.29680562
0.11209083 0.023443168 0.19288135
0.13416868 0.02528937 0.35368276
-0.53053772 0.053334877 0.93768859
-0.88262391 -0.25202695 1.2284968
-0.98519909 -0.23113105 1.2757242
0.085036695 0.054596968 0.39940238
-1.0849471 -0.42006478 2.2980196
0.48986256 -0.17834005 2.0841057
0.48388541 -0.41680488 2.3019536
0.32646394 -0.060569514 0.42067742
0.11126333 0.041596152 0.29423976
-0.19513559 0.053675625 0.33711314
-0.18281865 0.049239673 0.46039271
0.49992144 -0.24645537 2.1709425
-0.065756083 0.059536487 0.27596784
-0.17014676 0.055011835 0.524647
-0.19759148 0.051648542 0.42554069
-0.18247098 0.055354081 0.51657224
-0.88700807 -0.34806141 2.6602433
0.34107339 -0.061460141 0.41777968
0.30428118 -0.037474316 0.4214747
-0.1918391 0.055977233 0.315171
-0.97428489 -0.45329311 2.2789581
-0.55654883 -0.050440464 1.4492571
-0.1863302 0.057645507 0.3409493
0.51548874 -0.18975273 2.0450914
-0.20937574 0.064596668 0.39890838
0.47712994 -0.089871794 1.7069919
0.26597035 0.011771761 0.58200431
-0.78346515 -0.31951699 2.3881915
-0.85866666 -0.15458661 1.1832721
-0.94366765 -0.3619931 2.2934797
-0.23010921 -0.14800858 2.1136873
-0.23291379 -0.17618786 2.15223
0.4152993 -0.37477615 2.523711
0.31714267 -0.043454278 0.42378592
-0.46974564 0.055337466 0.62824273
0.11111444 0.053664617 0.28995109
0.45124948 -0.12460437 1.3838608
0.29698539 -0.042440373 0.45059562
-0.21489787 0.053092618 0.29492545
0.29702306 -0.028558645 0.40816522
0.27131659 -0.076374501 0.52659965
-0.060654581 0.056901138 0.49079204
0.13058764 0.030394396 0.15392423
0.28593951 -0.088569537 0.42584395
0.1136235 0.026658425 0.15766263
0.11288327 0.029465731 0.16293359
-1.3911444 -0.42019096 2.4169734
-0.18541569 0.057583351 0.43640637
-0.87774038 -0.26845565 3.2886145
0.64404714 -0.36518428 2.0419705
-0.91288161 -0.21356979 1.1745951
0.10893053 0.022730596 0.26513219
-0.19715142 0.051490463 0.39503884
0.079210699 0.05805631 0.2677896
0.11219782 0.032451749 0.16041732
-0.20012373 0.055437457 0.26307607
0.290236 -0.040920842 0.42865109
-0.12267816 0.057000399 0.39819121
0.11175066 0.032174975 0.15926051
-0.59501576 -0.053671557 0.99645782
-0.53049099 -0.054279294 0.93795753
0.078463018 0.057453196 0.26503921
-0.52403927 0.054190289 0.92486835
-0.86667347 -0.21834174 1.2052586
-0.34761202 0.054380469 0.48921657
-0.065048099 0.07282038 0.34100652
0.5779649 -0.30448207 1.9491484
-0.046848059 0.057138726 0.49300551
-0.87082696 -0.3990519 2.2766445
-0.86714458 -0.25813377 2.1203716
-0.96673036 -0.19563751 1.4517286
-1.294513 -0.4637135 2.5262268
-1.6216152 -0.4832243 2.7895844
-1.3597128 -0.27854505 2.4402759
0.34860051 -0.067099094 0.41439891
0.4919014 -0.44794253 3.0658948
-0.34170002 -0.3896234 2.4380047
0.051182508 -0.19791004 2.0108483
0.11399204 0.020815294 0.16717505
0.46511853 -0.13173823 1.4368122
0.11898834 0.030327654 0.15357709
-1.6275547 -0.47183684 2.7745368
0.10866433 0.041305661 0.19076657
0.31180501 -0.044836152 0.41685987
0.12056077 0.033525288 0.15657735
0.11807889 0.026006961 0.16282582
0.13442248 0.023163816 0.31672978
0.3103587 -0.034484703 0.42021441
0.088101923 0.056733988 0.43417764
-0.91316867 -0.28721261 1.2667468
0.12427968 0.010777872 0.17305636
-1.3546872 -0.43335068 2.5038984
-0.18551743 0.057648748 0.36242795
-0.32049358 -0.14878419 2.4831812
-0.94835675 -0.22304919 1.2124131
0.12575942 0.018340528 0.15936828
-0.53582454 0.045930404 1.3820775
0.11079335 0.023246115 0.19004321
0.28715658 -0.088729233 0.42782426
-0.047242343 0.052928735 0.28930449
0.68872857 -0.24821585 1.8973577
-0.30460566 -0.16987148 2.260535
0.34168005 -0.24469107 2.6231906
-0.16481733 -0.51339847 3.5234215
-0.23140067 -0.19298591 2.225209
0.15292662 0.046338495 0.75954986
0.12529516 0.010873403 0.17500234
0.32883614 -0.055211958 0.42011428
-0.93713796 -0.21665317 1.1982009
-0.35647625 -0.41824612 2.5447652
0.34170717 -0.055386145 0.42043281
0.52310371 -0.14111121 1.9720495
0.081116736 0.057401016 0.45672917
0.33604598 -0.080223843 0.43061471
-0.065361083 0.059406161 0.27708936
0.38436055 -0.018649038 0.65734076
0.099047542 0.038774729 0.25652146
0.109523 0.023125842 0.18739915
-0.85807717 -0.3804549 2.3473179
0.31313282 -0.074944407 0.39497066
0.12526077 0.021909764 0.15691209
0.072729588 0.050778948 0.60798192
0.13106596 0.054164004 0.45062327
0.34436649 -0.078990757 0.4201777
-0.8992604 -0.38925692 3.9284031
-0.30404794 -0.17391753 2.3070056
0.54831612 -0.18886024 2.0320718
0.11537457 0.026588436 0.16014647
-0.54499638 0.045890938 0.67594743
-0.56328607 -0.22274718 2.9886105
-0.222067 -0.18756035 2.1443393
-0.91202986 -0.48802468 2.312423
-0.97872663 -0.4514797 2.2999294
0.15847051 -0.17852668 2.4410136
0.36069071 -0.043370765 0.63163638
0.11722428 0.024674699 0.20578456
0.46806204 -0.13153741 1.4447515
0.52940524 -0.14145374 2.0002363
0.31372643 -0.033782702 0.42758393
-0.87812805 -0.33339837 2.3375757
-0.18122917 0.058456618 0.56422973
0.56423271 -0.39659801 2.1595972
-0.12961334 0.06082838 0.25148416
2.1853335 -0.21605316 2.6919529
-0.018412769 0.059500754 0.29223418
-1.0379417 -0.25281432 1.6151946
-0.48749614 0.044693071 0.75124669
0.1169306 0.058532435 0.28752446
0.69508111 -0.29038185 2.0514476
-0.016028225 0.049739197 0.60505271
-0.60059071 -0.033915903 1.0670063
0.19427717 0.01151612 0.27569795
0.081512094 0.056267306 0.33511519
0.35880196 -0.063199475 0.68011022
0.11262751 0.051931951 0.29465842
0.10890782 0.022527294 0.26419806
-0.8710103 -0.22464237 1.1827252
0.53296363 -0.19209327 1.9518359
-1.026422 -0.40148717 2.2803786
-0.20957589 0.049632192 0.33001924
0.35979307 -0.072984621 1.6332757
0.29980671 -0.043260161 0.42577529
0.28789848 -0.089894474 0.4299643
-0.46123517 0.071967833 0.74640203
0.30584705 -0.046877634 0.42092395
0.48112237 -0.088488907 1.7226589
0.32383353 -0.059997339 0.41772246
0.10433948 0.054387927 0.64271855
0.31344366 -0.063523844 0.42575336
1.0055603 -0.072417215 1.2117164
-1.1365864 -0.46126136 2.4258916
-0.54285526 0.044404332 0.80406213
0.11283863 0.042427339 0.29905343
0.13460779 0.022495722 0.29366088
0.31205744 -0.061202828 0.42096639
-0.10255861 0.092747822 0.5185101
-0.46646762 0.05171746 1.1720483
-0.81192946 -0.20196332 1.1246517
0.11171293 0.049805719 0.28989005
-0.046567738 0.05283891 0.50750613
-0.51233578 0.04332599 0.68353343
0.4263612 -0.067113206 0.82853246
0.32607085 -0.088054538 0.42156053
-0.78162456 -0.38167807 2.2445014
0.27143508 -0.07117109 0.41584086
-0.71812677 -0.23850319 2.1378644
0.089458823 0.061530385 0.36907601
0.28659946 -0.10677615 0.52721429
0.11000812 0.030525977 0.27527785
0.44563115 -0.06221405 1.4137399
0.11112028 0.022733733 0.16501069
0.55568075 -0.45116693 2.4142087
-0.90104902 -0.36947244 1.9172227
0.10983443 0.019847784 0.22541118
0.11450022 0.022232981 0.23089051
-0.12896913 0.040525973 0.23181462
0.11141396 0.020564418 0.16322207
-0.19243115 0.056130707 0.27548051
-0.51287627 0.048121162 0.79000211
-0.091466606 0.056747369 0.46938825
-0.4977504 0.044012368 0.65886998
0.11980164 0.033418801 0.15469766
0.11025381 0.027532088 0.19810128
0.11590916 0.021976614 0.25833678
0.10900909 0.041291945 0.19138598
0.13125926 0.030595269 0.1548574
-0.19866061 0.055307772 0.309232
-0.098239958 0.059188917 0.39074969
0.068202436 0.058988966 0.34715343
0.34882736 -0.074914619 0.41114974
-0.050453067 0.055896532 0.33834291
0.16932529 0.053013675 0.60016561
0.12449151 0.010934304 0.17327762
0.12005228 0.030310273 0.1645596
-0.19619238 0.051510237 0.42298627
0.11239201 0.032564126 0.16069722
0.11360002 0.01128218 0.21960568
0.11604887 0.052366428 0.60057902
-0.23139918 0.050197154 0.66937757
0.11893547 0.029699346 0.16238523
0.33431113 -0.047501232 0.42180181
-0.18311369 0.057608251 0.39560914
-0.18518353 0.057775781 0.46222997
0.11363983 0.031921636 0.15519118
0.11718714 0.0231767 0.24216962
0.1772452 0.027777348 0.63854003
-0.25520992 0.054433282 0.72446895
-0.95438969 -0.2644721 1.2057121
-0.83829176 -0.077105671 1.1738904
0.035376012 0.05563771 0.46134353
0.14459664 0.052600734 0.60658908
0.087689459 0.056320529 0.44263339
0.056837976 0.04465495 0.20824599
-0.052877903 0.05921568 0.28159308
0.48826265 -0.3135238 2.3620799
0.49822593 -0.2956298 2.3035195
0.5077734 -0.073811665 1.8227189
0.46351659 -0.081545606 1.6622965
0.18163693 0.047335755 0.77302241
-0.48051548 0.055610295 0.78936315
0.11230505 0.020487608 0.1642549
-0.18703991 0.049382314 0.78827596
-1.3495725 -0.28023526 2.2643807
0.49115181 -0.34237966 1.9959099
-1.0366311 -0.11990815 2.1994154
0.090071619 0.051616132 0.6081326
-1.0166105 -0.39561191 2.2571757
-1.6922035 -0.37453657 2.7884963
0.13331449 0.0020434372 0.25645185
-0.36307895 0.057529796 0.50917363
-0.88016856 -0.29134592 2.1184657
-0.37025738 -0.359703 2.5004933
0.47186458 -0.26360953 2.0322254
0.95148599 -0.2763271 1.7084939
-0.49904978 -0.25560927 2.615485
0.034822345 0.056259289 0.69854236
-0.22576147 -0.21713823 2.0314434
0.10679573 0.03755372 0.19830871
0.33485025 -0.06128924 0.42981553
-0.18940854 0.058547549 0.3474586
-0.19701016 0.051386893 0.39568448
-1.6498337 -0.409246 2.724314
1.0330224 -0.059842896 1.2664049
0.32891768 -0.054352667 0.3926909
-0.10675287 0.057011537 0.73558402
0.4572798 -0.25270498 2.3531964
-0.24741262 0.052581895 0.45774007
-0.50533009 0.051061533 1.137141
-0.19149357 0.05581253 0.26562905
-0.049263299 0.062461611 0.53172851
-0.73528874 0.058675192 1.1988356
0.13862717 0.0071718805 0.17706943
-0.19936556 0.055241197 0.26200604
-0.19451272 0.053316951 0.3360436
0.088854015 0.051564068 0.60919785
0.36948729 -0.039699983 0.63451886
1.4266288 -0.042540591 2.0953453
-0.063639462 0.05798585 0.26242471
-0.074969709 0.062256061 0.26209474
0.11399782 0.029130196 0.24159217
0.11515212 0.023203913 0.23951411
0.11071157 0.044663861 0.19858241
-0.54482996 0.034712866 0.93668389
0.45905638 -0.10089543 1.3821218
0.1303485 0.03317586 0.15262246
-0.062799633 0.059750859 0.52624345
-0.19028091 0.059112906 0.37270093
-0.66630077 -0.10310856 2.0191009
-0.043438613 0.050605051 0.38616729
-0.25145763 -0.29510236 1.7830369
-0.22208595 0.045696951 0.47393727
-0.38768542 -0.17824391 2.5090954
0.29404527 -0.045697983 0.43030143
0.68941307 -0.39648595 2.0172174
0.13842481 0.057874955 0.49126315
0.1008051 0.040548902 0.66359305
0.025165319 0.051695906 0.6289103
-0.19159395 0.05600787 0.2584703
-0.19510496 0.053009052 0.44878745
-0.21457285 0.053981066 0.30517554
0.069115818 0.053438723 0.27176499
-1.5202062 -0.39556447 2.4937799
-0.85524535 0.020432837 2.0628908
0.33515471 -0.047417451 0.42500329
-0.18432188 0.056883723 0.33682847
-0.74189305 -0.073480919 3.830663
-0.22145259 -0.15783086 2.149461
0.10355359 0.021625826 0.24929786
0.11335486 0.021944124 0.27047849
-0.50145924 0.053637121 0.65174699
0.076857865 0.05362089 0.42645478
0.15251744 0.045588031 0.75492263
-0.1953187 0.057196669 0.24066997
0.12963462 0.03074858 0.15546203
0.291085 -0.077124164 0.44488358
-0.73541141 0.0035098754 2.1617582
-0.18478107 0.05783125 0.44351697
0.10098553 0.05757264 0.29010749
-0.91926742 -0.13836618 1.1272571
-0.19564998 0.054447465 0.25666881
0.11955827 0.033382669 0.15522361
-0.90558767 -0.21264404 1.1713045
0.11362231 0.040881328 0.31274152
0.34699166 -0.066834271 0.4103415
-0.22098643 0.03481818 0.33469033
0.29707366 -0.076117873 0.40523505
-0.66996324 0.053219628 1.0891402
0.72168839 -0.26780629 1.3573167
0.17109823 0.050678894 0.57116675
0.22775042 0.039030667 0.72311187
0.65102005 -0.23330399 1.8189366
-0.19293547 0.056142725 0.31656003
-0.18624687 0.058363155 0.43097234
0.32674724 -0.061213363 0.41945577
0.29651624 -0.041730445 0.43802619
0.11996603 0.006911274 0.1888082
-0.36312819 0.056758612 0.62869954
-0.89774227 -0.4187685 3.2202833
0.111202 0.029353887 0.16011596
-0.77059674 0.0041953102 2.2668302
-0.033720374 0.049128413 0.61047244
0.11735529 0.026650226 0.16056085
0.28172225 -0.070117041 0.43685985
-0.057356417 0.049668133 0.62082267
0.73534286 -0.40181133 2.1134079
-0.12868083 0.040772393 0.41211677
0.13099855 0.018054761 0.270046
-0.79242992 -0.0017652251 1.1124952
0.56844592 -0.36013699 1.974889
1.3562949 -0.032863434 2.0331528
0.31786752 -0.034859095 0.43016982
-0.047307312 0.055086069 0.42654347
0.34447557 -0.06336315 0.41838002
-0.5438664 -0.098294839 1.3836448
0.47455037 -0.30329058 1.8398893
-0.046615481 0.056418017 0.49048066
-0.75406265 -0.3627741 2.2341793
-1.3641984 -0.28070834 2.4446275
0.72747791 -0.26276943 2.0164888
-0.3516708 -0.40058661 2.5551355
-0.12802738 0.040657178 0.40978885
0.11511284 0.029287593 0.15747571
-0.49824512 0.046419803 0.76632237
0.98325217 -0.30394638 2.1509426
-0.32573891 0.017820407 2.0588686
-0.74260235 -0.058061134 2.1603439
-0.52544594 0.012503251 0.77178931
6.69522 -1.7407863 12.877756
-0.012199938 0.057771809 0.35581326
-0.71488214 -0.065208122 2.0776694
-0.18364573 0.058061846 0.45611405
-3.0256989 -0.90609372 5.6658735
-0.35238111 -0.11726564 2.7505109
0.94816601 -0.24845511 1.690933
0.8983382 -0.21658331 1.6974757
-0.56537485 -0.22563139 3.0082533
-0.030667245 0.058254875 0.46951222
0.12980056 0.053813223 0.61885238
-0.61855292 -0.059973683 1.0309751
0.038525105 0.0062061399 0.12329364
1.4812165 -0.088077754 2.093653
-0.24062967 -0.17869283 2.232343
-0.32009065 -0.36794767 2.5944717
-0.33038366 -0.41097927 3.1603615
0.73980415 -0.014361467 1.4965537
-0.25306451 -0.32381642 3.7969673
-0.18188691 -0.14143512 3.4752843
0.89947438 -0.16053262 1.9808767
0.059535265 -0.066255853 1.8938353
0.93830669 -0.27562007 2.0921457
-0.87009287 -0.44120798 2.336386
1.0805408 -0.27200264 1.7387788
-0.8672123 -0.39823481 2.36921
-0.95543611 -0.25354826 2.6191804
2.0235541 -0.10204715 2.4703891
-1.1640862 -0.40781477 2.340369
0.592924 -0.0068686642 1.8590581
0.84001279 -0.0031121708 1.3760955
1.0803603 -0.014755033 1.2507846
-0.63627744 -0.35699561 3.2367485
2.3055336 -0.11988646 3.2311766
0.25311911 -0.2845453 4.1065598
-0.91944218 -0.35715103 2.1829622
1.0290568 -0.013883971 1.2347658
-0.21604395 -0.50601286 3.6764305
-0.12125766 -0.51633626 3.4412506
0.25698173 -0.28914115 4.1715584
-1.0543264 -0.4190852 2.3437436
-0.95179379 -0.26844707 2.1457212
-0.12691832 -0.52738106 3.5681555
-1.0160856 -0.38671649 4.2935019
0.26450729 -0.071548209 0.41233706
-0.19821775 -0.49206838 3.501528
-0.84673834 -0.41153562 2.3218524
1.1766013 -0.066686302 1.8983443
-0.9627142 -0.25782275 2.6573732
-0.92021799 -0.26606154 2.2339427
-0.99275661 -0.45103067 2.2713144
-1.096085 -0.41658834 2.2801144
-1.0976093 -0.39091969 2.2457659
-0.84220362 -0.38431409 2.6640794
-0.84495556 0.022422917 1.8941405
-1.1630712 -0.39762601 2.3342369
-0.88637781 -0.40682334 2.8543122
-0.56873548 -0.06473279 1.4282129
-1.0818872 -0.21396312 2.1878588
-0.06969583 -0.23266813 3.6080348
-0.98463202 -0.55490422 4.1441488
1.9149866 -0.1676448 5.8228731
-1.227628 -0.3986744 2.4992621
-0.91083407 -0.47768626 2.2954323
0.072002649 -0.28640124 3.1406553
0.34326941 -0.062201511 0.41369319
-0.92079711 -0.36104351 3.4717157
0.31246442 -0.060787629 0.42063642
-0.9086293 -0.25180721 2.4997308
-0.85861802 -0.42411292 2.3410814
-0.89428401 -0.29208976 2.7780654
0.47010708 -0.024950083 1.0337188
-1.0117648 -0.56587958 4.2757263
-1.0139862 -0.43033215 2.2557719
0.81173062 -0.033574861 1.1759775
-0.86254978 -0.38851094 2.3122685
-0.86669707 -0.34294844 2.3222287
-0.84903407 -0.23570096 3.7970779
1.0284595 -0.060442429 1.2595088
0.94114351 -0.26988557 1.7137959
-0.96467435 -0.40002212 4.1517906
-0.82902503 0.052319016 2.1271646
-0.35480636 -0.22711292 2.4425309
-0.81032896 -0.15938547 2.3610685
-0.95025003 -0.21191949 1.3969152
-0.92717791 -0.19594026 2.1539085
-0.8222338 -0.43141845 2.0999653
-0.74633634 0.0037593469 2.1989758
-1.2682556 -0.42769894 2.5304291
1.0874131 -0.25512207 1.754102
-0.89436328 -0.26419875 1.9702466
-0.91193318 -0.39135417 3.9656289
0.11046332 0.048911728 0.31907487
-0.95817351 -0.011844251 3.88398
-0.86944079 -0.29049742 3.7868168
-0.60522914 -0.34891805 3.1074708
0.28623831 -0.041374493 0.42941022
-0.62694383 -0.046315495 1.6362197
1.0262442 -0.29222909 2.1328604
-1.0781918 -0.56294 4.3153343
-0.60309517 -0.16998211 3.128597
-1.0077031 -0.43078658 2.2344162
-0.90106785 -0.41790846 2.2988989
-0.17963004 0.054989256 0.36034131
3.6082079 -0.090885967 4.6446733
-0.93803596 -0.26780373 2.1826422
-1.300604 -0.46765438 2.5425103
-0.33136088 -0.36882243 2.5182297
-1.0633453 -0.43735614 2.2811849
-0.88526559 -0.46421531 2.3033202
0.93984103 -0.25366029 1.710376
0.83558083 -0.0034933276 1.0979755
0.90685189 -0.071203738 1.2567894
-0.96847069 -0.21701357 1.4352539
0.4837122 -0.29222739 2.2406318
1.0175726 -0.20778349 2.0209062
-0.80590856 -0.10242763 3.6457617
2.3853145 -0.36059579 2.8246667
-0.16707432 0.055323344 0.52839828
-0.57144332 -0.045327809 2.8687909
-0.65209746 -0.28279105 3.4425967
-0.80168903 -0.32961398 2.2874382
-0.89413166 -0.2580747 2.1703494
0.088685811 0.057597913 0.42050338
-0.59923267 -0.33980283 3.0534642
-0.95358586 -0.21269223 1.4018667
0.86048961 -0.18156806 1.6513283
-0.067694604 0.058932193 0.47930932
-0.80419266 -0.39898115 2.3396251
-0.82574141 -0.058813866 3.8065856
0.98003125 -0.32504943 1.7419741
-1.301802 -0.10918435 2.4598095
-0.69385171 -0.22606605 3.321594
-0.97619438 -0.065081686 3.7352045
-1.3018833 -0.16795251 2.4270523
0.46177602 0.044156186 0.64988112
0.98078251 -0.32508492 1.7317092
0.72057033 -0.47857144 5.5311794
0.9438827 -0.27154842 1.7230175
0.96867204 -0.30182663 1.6832893
0.32363415 -0.057185721 0.41350818
-0.065970123 0.059072681 0.49828696
-0.82127512 -0.33165386 2.3533762
-1.2973717 -0.45142847 2.4573805
-0.79809952 -0.39461982 2.3221452
0.67987096 -0.41913995 2.0576756
0.26971745 -0.16379955 3.2951295
-0.55491841 -0.10034622 1.4106739
0.88189685 -0.0066106766 1.1653759
-0.37528628 0.058819838 0.53714013
0.53371632 -0.38783562 2.0713131
-0.72659481 -0.17503932 3.7550352
-0.53846848 -0.074102819 1.7574818
0.30925274 -0.048947345 0.41595435
-1.3636557 -0.44854411 2.4994299
-0.96510124 -0.47897157 2.3088787
-0.38493168 -0.16267854 2.3545783
-0.94040394 -0.083177477 3.9487188
0.5426966 -0.3866092 2.0867717
-0.90550506 -0.26922324 1.1661708
0.32247305 -0.043386277 0.54824138
0.95905805 -0.26247984 1.594249
0.34137785 -0.0615783 0.4176538
-0.4342041 0.048128903 1.2267616
-0.59237766 -0.1658913 3.1409876
-0.49136114 0.055445056 0.77729964
0.518466 -0.018242802 2.6340463
-0.77826095 -0.10607688 3.599755
0.62784314 -0.3952463 1.9997838
0.5150255 -0.30594084 1.954479
1.0827874 -0.016114563 1.2541072
-0.87900805 -0.33836517 2.2709138
-1.1031227 -0.25073993 2.1944797
-1.3202715 -0.2674216 2.3966587
1.0936551 -0.0092938654 1.5152628
-0.43408537 -0.40279192 2.6575744
0.31093425 -0.056352835 0.42356515
0.11842227 0.025842264 0.16381049
0.11353189 0.027440513 0.1581161
-0.77878523 -0.33418706 2.3614805
0.92196453 -0.071598172 1.2864158
-0.1736666 0.056407548 0.54647326
0.91577458 -0.071982622 1.2755439
-0.90742397 -0.36620924 2.2036874
0.98362577 -0.21938863 1.7436721
-0.060601592 0.056414824 0.46860814
0.28522617 -0.04107647 0.42854285
-0.20841664 0.053299055 0.89159131
0.29810166 -0.078147829 0.42361903
-0.18582463 0.057196796 0.35389686
0.08042872 0.058623262 0.45936942
0.31189603 -0.041420598 0.42122722
-0.75471735 -0.10605724 3.0836298
0.43343937 -0.07822834 1.3736398
-0.29770154 -0.018082526 2.0043628
-0.32260197 -0.37990549 2.6126392
-0.31655753 -0.28167048 2.5996859
1.0500343 -0.32132599 1.6382635
-0.98578155 -0.45680442 2.3163235
0.54052866 -0.19214891 2.3280766
0.45423186 -0.23482028 2.3822696
0.32611293 -0.060714182 0.42036605
0.12565202 0.052210722 0.60816121
0.32693845 -0.078262925 0.41694283
1.0521232 -0.3233265 1.6491983
0.95002127 -0.038173657 1.4398658
-0.90760684 -0.27180865 1.2676761
0.82625604 -0.026646499 1.2074931
-0.52621543 -0.053072426 0.93121886
-0.64930606 -0.16714486 2.8593314
0.1057784 0.034850627 0.28301644
-0.17371339 0.056194156 0.53915668
0.32951862 -0.046673935 0.41503358
-0.19968253 0.06234327 0.52889276
-0.36333054 0.056097034 0.62718797
