# .PCD v0.7 - Point Cloud Data file format
VERSION 0.7
FIELDS x y z
SIZE 4 4 4
TYPE F F F
COUNT 1 1 1
WIDTH 584
HEIGHT 1
VIEWPOINT 0 0 0 1 0 0 0
POINTS 584
DATA ascii
1.9853191 -0.10018398 2.7489583
1.6339386 -0.11438441 2.8140595
-0.11863476 -0.19013771 2.9860775
-0.17657959 -0.37200063 3.2353246
-0.1146552 -0.18790913 2.9701121
-0.13689721 -0.3647669 3.1907656
-0.12422019 -0.0017724112 2.0826547
-0.1843769 -0.30984694 3.2478216
0.81130552 -0.029852197 2.0540965
1.0096824 -0.25005019 2.7943919
0.63635564 -0.049249485 1.6425173
-0.82409704 0.0030139126 2.0261772
8.363203 -0.49369144 16.384329
-0.054099679 -0.32693017 4.356595
8.8214874e-06 -0.15259677 4.2777605
-0.22079718 -0.40849763 3.2072408
-0.23257709 -0.42637104 3.3852069
1.0411289 -0.18312903 2.7408645
-0.7797693 -0.47029632 2.973386
0.16943991 -0.077662557 2.5814006
1.2401068 -0.24293147 2.9790747
1.2036951 -0.24966423 2.0178125
1.1427033 -0.35875118 2.3036544
0.94232941 -0.020969678 2.0842798
0.93948638 -0.023194287 2.0642207
1.1790287 -0.24652122 2.244261
0.57917786 -0.016822398 1.7345302
1.0039831 -0.082160398 1.3374951
1.1074018 -0.086054146 1.4476497
0.24874711 -0.039573736 1.1193297
-0.73646128 -0.4021439 3.089144
0.16489303 0.047433984 0.80524325
-1.0472959 -0.41128784 3.1155317
1.5442678 -0.070631713 2.0801899
1.2240698 -0.35354304 2.2423327
0.040102124 -0.35686195 2.7544062
1.7307955 -0.079851955 2.2524993
0.16395378 0.019286752 0.85201049
0.30850554 -0.10241686 1.1791627
-0.78783369 -0.037645727 1.3727491
-0.89275038 -0.041956529 1.6802638
0.94984305 -0.021168686 2.0948775
0.35969341 -0.067049548 1.1045697
0.17050058 -0.1533633 1.0584691
-0.48748457 -0.38598329 4.1950407
-1.0294842 -0.24023934 2.9744546
0.088131368 0.052264277 0.61800575
2.5660901 -0.15471122 3.985358
0.36764908 -0.016179759 0.98191142
-0.037851155 0.049062293 0.7904346
0.72946382 0.018336486 1.0588295
0.71878451 0.030313358 0.86603951
0.72890723 0.022738099 1.1540282
1.0402586 -0.03061207 1.9144681
-0.014244258 0.047110591 1.2846582
-0.79522669 -0.073736973 1.6067822
-0.19189858 0.054881983 0.37001348
-0.80457747 -0.45463032 2.8759568
0.35322362 0.04028248 0.49195409
-0.83739066 -0.47696471 3.0290649
0.32832474 0.028263386 0.68420577
-0.85716403 -0.39240003 2.7963302
0.31243664 -0.030354775 0.83883262
0.46632218 -0.29635328 4.773632
-0.78795135 -0.35606295 2.8644397
1.1234545 -0.034012552 1.905751
-0.91365778 -0.42561579 2.9160626
-0.025902152 -0.53257573 4.5329866
0.19067848 -0.147027 0.69812799
0.4318341 -0.12704472 0.72915912
0.37313664 -0.075326473 1.0840495
0.059202313 -0.53472012 4.1955662
0.47676539 -0.30472875 4.8860655
-0.90110409 -0.41287166 2.9861119
-0.84045613 -0.27732664 2.899224
-1.0649546 -0.39493644 3.1524203
1.2742324 -0.035541825 2.0435631
0.056242347 -0.5326944 4.2052641
-0.58490217 -0.28727585 3.5026314
1.1999965 -0.034838967 1.8784301
-0.819543 -0.21705635 1.971307
-0.87066722 -0.33864582 2.862591
0.75081354 0.02784038 1.0325911
1.1180795 -0.034054361 1.8872721
0.32680881 -0.11671697 1.1033561
-1.3295521 -0.089850217 4.1053019
-0.014367938 -0.49839634 4.1566973
0.25381559 -0.17669944 0.90061355
1.0434569 -0.029697061 1.9139526
-0.70557702 -0.40828699 2.9760468
0.091127515 0.053764172 0.63937068
-0.96041667 -0.41017652 2.969661
-0.19306946 0.055894412 0.37804127
-0.22970283 0.053483408 0.37598586
1.1873047 -0.097349167 1.8477776
0.2211073 0.027016815 0.9669826
-1.0141884 -0.31036276 2.9496958
-0.96147752 -0.38719761 2.9370058
-0.27194631 -0.37933666 2.9942973
-0.75223815 -0.38085115 1.8114607
0.32501888 -0.067927063 1.232353
-0.58784819 -0.13536708 0.7241981
0.21953446 0.046269614 0.45504403
-0.8043654 -0.01991576 1.616235
1.1161289 -0.080832362 1.9112723
0.29124564 -0.02678341 1.0193183
-0.71716154 -0.25654775 3.4000895
-0.7809751 -0.33797175 2.8529036
-0.74124444 -0.42849874 3.6705859
0.46080899 -0.11470856 0.76765704
0.3266331 -0.10210904 1.2239931
-0.95543063 -0.22052507 2.9060791
-1.0098459 -0.38486642 2.9775455
-0.73184812 -0.41343361 3.5799019
-0.18465823 0.059596166 0.38214636
-0.20943177 0.054421701 0.37959838
-0.8755585 -0.39592785 2.9069612
0.220465 0.047069352 0.45509839
-0.50833499 -0.16382171 0.77040124
0.32430553 -0.12043729 0.59798741
0.38520563 0.014526654 1.1305974
0.40781033 -0.071135357 3.3251879
0.34289056 -0.052238733 1.0823629
-0.74741983 -0.37664998 1.7907898
1.4135338 -0.037578732 1.9519007
-0.95122612 -0.21460471 2.8930061
1.4030976 -0.035823032 1.9365995
0.12014079 -0.24571152 4.3410368
-1.0136201 -0.3318032 3.0133812
-0.81483448 -0.036928535 1.5807664
-0.80635941 0.019376684 1.568433
1.1965545 -0.094670475 1.8484948
-0.80359495 -0.25529242 2.8287771
-0.68367267 -0.49543345 4.2534075
0.23740453 -0.020145793 1.1115353
-0.84738004 -0.3531419 1.949074
-0.7592684 -0.46555924 2.9061759
0.24215353 -0.30217129 3.8792565
0.35825449 0.040379889 0.5057044
-0.20079041 0.051458493 0.51288319
-0.82364953 0.017882064 1.6104853
0.088822007 0.064619869 0.46490788
-0.78260088 -0.2692157 1.885412
0.35693806 0.040442035 0.50220299
1.4769812 -0.050035931 1.9408352
0.43735862 -0.16880928 0.79834628
0.14840013 0.018426482 0.87421966
0.31797272 0.020848278 0.69858527
-0.20340955 0.052827634 0.42140388
-0.18039149 0.050392274 0.67120695
0.38197696 -0.0766498 1.0802262
0.096153021 0.044336446 0.78309131
-0.88794219 -0.38624942 2.7434733
-0.9206003 -0.26854986 3.0500734
1.0206301 -0.028508022 1.8848398
0.74162555 0.0027206764 0.9954741
0.23117137 -0.02070811 1.1206572
-0.665187 -0.33057237 3.7322171
0.71373159 0.03072745 0.85537362
0.073850095 0.056096252 0.29038739
-0.8580004 -0.35556763 1.9858439
-0.1936388 0.056319289 0.38135028
0.32690722 0.028124932 0.67954516
0.35183936 -0.075239368 1.0902507
-0.92559361 -0.14952786 1.8045442
-0.46500492 0.056917191 0.75703359
1.1770031 -0.29696238 2.8238952
0.35060191 -0.054291412 1.0992296
-0.87097561 -0.082255945 1.7617872
0.17196214 -0.13593991 0.67310834
-0.98262167 0.0091034025 2.2422688
0.16548479 0.019733313 0.87273192
-0.82241154 -0.30239236 1.8738844
-0.77300537 -0.45420069 3.2561328
-0.68281209 -0.28010249 3.1870363
-0.79769254 -0.073316261 1.6015065
-0.50833917 0.054707173 0.63264704
-0.49488056 0.048465014 0.82998443
-0.54615355 0.067730814 0.74957156
0.21009368 0.04695718 0.28810358
-0.1927532 0.053788181 0.66320968
0.35952741 0.083086133 0.5620656
-0.20594466 0.054619346 0.37361884
0.331357 -0.10465488 0.68011379
0.17333901 0.019219838 0.83272433
0.35231495 0.02171275 1.0621822
0.3180303 0.020613879 0.69764256
-0.81044614 -0.030040514 1.6266172
-0.80818927 -0.25896078 2.8016989
-0.1009208 0.058150142 0.33416176
-0.15367103 0.05106429 0.80229831
0.40230656 0.025095183 1.5623043
-0.17741913 0.050276551 0.65884471
-0.042627543 0.050692104 0.58191371
0.51946425 -0.033479039 1.6210301
-0.76039159 -0.5455817 4.7810583
0.43517059 -0.16805036 0.79158187
0.092237294 0.044673681 0.73173261
-0.99528444 -0.036975503 1.3096006
0.21364039 0.049596768 0.2751925
0.36572111 0.034708578 0.55568528
-0.20532084 0.051652677 0.42835402
0.36804086 0.041209273 0.5229373
1.0452073 -0.074827246 1.9226754
-0.80512059 -0.0065812878 1.5615566
-0.81741452 -0.037749633 1.5865242
-0.051723957 0.054409944 0.37291026
-0.77461851 -0.024262235 1.5608222
-0.10913968 0.050646693 0.90043712
0.72484028 -0.082286626 1.6193736
-0.85854113 -0.31955981 1.9780362
1.0371484 -0.056074664 1.9089935
-0.051671922 0.053760532 0.54961252
1.1690296 -0.035527855 1.8948667
-0.58660078 0.0029982775 2.505049
-0.7187773 -0.38401967 2.9555905
0.14569104 0.016586937 0.87652135
-0.47403991 -0.16087541 0.76321721
-0.67080414 -0.36646456 2.9270532
-0.49593914 0.041324932 2.3001449
-0.58290154 -0.18781362 3.1754897
-0.46407783 -0.16605388 3.0792358
-0.72127342 -0.32504231 3.1266429
-0.96969473 -0.010065142 1.200597
-0.23155653 0.054078244 0.37872195
0.75138104 0.024123721 1.1948874
0.21468568 0.043524709 0.87318349
1.1123794 -0.079477727 1.8371122
-0.348324 0.054371208 0.84447265
-0.58815277 -0.27349669 3.7522089
-0.8286376 -0.25333899 1.8542058
-0.14144313 0.052572675 0.75099397
1.1172947 -0.03157508 1.8820078
-0.79157162 -0.18207923 1.8515427
1.0068905 -0.072239667 1.8127515
-0.15101188 0.046444643 0.98604894
-0.52435952 -0.31857735 1.9592326
1.3727064 -0.22345404 2.467972
0.60999787 -0.019681137 1.1599796
-0.81739497 -0.28333712 1.9873011
-0.81175864 -0.35027611 2.9753687
1.0403624 -0.053007215 1.9095356
0.14316213 0.059857499 0.34854507
1.045656 -0.29071516 2.3680556
-0.8132509 -0.15478404 1.7772448
0.3693099 0.020578966 0.75097966
0.8741616 0.0079494826 1.6553099
-0.49783051 0.048018448 0.83553576
0.98886275 -0.089629747 1.8620651
0.17115378 0.047961012 0.85417008
-0.50728786 -0.16519076 0.7669847
1.0373026 -0.06745784 1.8760374
-0.60736358 -0.28571606 3.8972952
1.2476488 -0.31208003 2.2631276
1.1669427 -0.036058016 1.8971584
0.31716174 -0.043972164 0.67720008
-0.73466206 -0.36815065 4.4284582
-0.81660199 -0.46819305 2.9468029
0.51450855 -0.16493757 0.97652793
0.030126691 0.048456471 0.80529189
0.21012205 0.054887965 0.29867983
-0.77774799 -0.1530506 2.8788297
0.41672814 0.035689339 0.77436614
-0.18658167 0.060008258 0.38603401
0.32925779 -0.13371654 0.72769952
-0.20051843 0.052327372 0.5132792
0.34040952 -0.051092699 1.1651156
-0.14692342 0.053191304 0.76439023
-0.87452269 -0.33566397 1.884443
0.16037816 -0.1452515 0.68233061
1.8775817 -0.07152357 2.671324
-1.0918369 -0.43264157 3.0537174
0.20840889 0.054341342 0.29563284
-0.60422504 -0.24747904 3.426986
-0.56008333 -0.52426028 4.4529533
-0.62496531 -0.33324993 3.9811718
0.44168866 -0.17915717 0.81445622
-0.87203717 -0.13884293 1.8011701
0.18736941 -0.16299306 1.3391478
-0.23340493 0.054238934 0.38270521
-0.34650248 0.053499803 0.84245133
-0.72779489 0.013896286 1.8202155
-0.10105538 0.057914533 0.25934505
-0.55862427 -0.51885831 4.3938398
-0.99430501 -0.03785006 1.3071415
-0.7654283 -0.025365129 1.5295594
-0.052279562 0.055661842 0.39333367
-0.062055409 0.057551153 0.29734015
-0.7842871 -0.26621932 1.8773863
-0.85156918 -0.45880061 3.006355
-1.0193712 -0.1544877 1.3890817
-0.056999803 0.059969787 0.30960703
0.21429455 0.049755793 0.25331068
0.99703205 -0.20959531 2.1964357
-0.23647028 0.005790662 0.33548236
0.17359763 -0.15444931 0.68611622
-0.028688312 0.056704238 0.29247332
0.072605014 0.055159055 0.28335738
-0.85627007 -0.26633626 2.0263989
1.9227474 -0.12241484 2.4539144
-0.87289536 -0.31614667 2.297343
-0.028376728 0.054696433 0.27622867
-0.18561935 0.059904359 0.38394904
1.488748 -0.056058243 1.8231156
0.10114872 0.049487915 0.80227685
0.165806 0.05556497 0.29502535
0.19646269 0.042443115 0.39774323
-0.54129446 -0.11386284 0.79019952
0.17351842 -0.1339267 0.67576289
-0.47996449 0.05876584 0.79533029
0.21210694 0.038464233 0.44268274
-0.34402835 0.053161845 0.837991
-0.029937476 0.058980606 0.30935383
-0.96810412 -0.15754505 1.2691748
-0.64452505 0.041248906 2.5759032
-0.75729799 -0.019494757 1.528909
0.45698529 -0.15227269 0.76281905
1.1566734 -0.14212142 2.2910783
1.2384429 -0.10490227 1.9277437
-0.15958017 -0.16902845 2.1564677
-0.86149061 -0.35053885 2.911164
-0.48832852 0.061155159 0.63424206
0.20851803 0.054522417 0.29617095
1.1606543 -0.083871767 1.921469
-0.053603977 0.057955503 0.4200871
-0.66428554 -0.16474764 3.0099967
0.2904079 -0.083371542 1.0788066
0.79386377 0.021873325 1.1646016
-0.82060015 -0.1429458 1.8014939
0.16702616 0.056151684 0.30153513
-1.0297269 -0.31882274 2.992461
0.46507561 -0.0069070645 1.5119722
-0.055878639 0.058978371 0.30184627
0.026748359 0.047484919 0.7459805
-0.78444016 -0.073218994 1.5628335
0.15833616 -0.14415328 0.67398357
0.31625158 -0.16507813 0.83692479
0.30354893 -0.15974571 0.80489326
-0.82467079 -0.076323047 1.6046727
-0.75466681 -0.3813256 1.8122871
0.22153795 0.047755193 0.45249796
-0.35446054 0.056466591 0.74639916
-0.10579526 0.059679456 0.27024531
1.1134005 -0.23182924 2.2268498
-0.10850734 0.056043774 0.32788467
1.4553701 -0.05929178 1.873143
1.1331609 -0.26141453 2.2782876
0.18078095 0.046324953 0.80167985
-0.21753347 0.057335589 0.39543509
-0.82801962 -0.23130067 2.0164392
0.0500049 0.05544937 0.27809978
-1.0299808 -0.14360024 1.2960374
1.7838012 -0.055290058 2.0951636
0.17752111 0.045342743 0.78658748
-0.82857478 -0.2070528 2.0241249
1.1864463 -0.18833734 2.4067914
-0.90204847 -0.32920951 1.8733132
-0.06194815 0.05728054 0.29364872
0.22320956 0.046566736 0.30586743
-0.75017607 -0.44804788 2.8298781
1.7686282 -0.059062026 2.0773242
0.078161418 0.055759132 0.41379452
-0.48701215 -0.15554874 0.8203361
-0.4900701 -0.12901497 0.79169822
-0.51270151 -0.11972861 0.76618552
0.26404732 -0.0070666745 0.99326825
-0.49716699 -0.13946827 0.81621337
0.327627 -0.11322896 1.2540543
-0.10104865 0.052361783 0.77986264
-0.51387513 -0.13376977 0.68125248
0.17165202 0.049549077 0.81144118
-0.49458891 -0.16124628 0.82281137
0.076581538 -0.16472048 1.3004439
0.41525531 -0.136436 0.66084933
-0.71529984 0.016783111 2.6965764
0.89627206 0.024195209 1.2523062
0.074723601 0.05694215 0.31341362
0.41328222 -0.10125069 0.55734468
1.1559461 -0.031272825 1.8154557
1.7438267 -0.081461988 2.5042598
0.076849163 0.054966565 0.39967084
-0.5465464 -0.11745031 0.80556226
-0.80321145 -0.24601434 1.791106
1.2203894 -0.060319409 1.8472464
0.7588498 0.033077203 0.9286902
-0.042981029 0.052319162 0.62281084
-0.76152265 -0.022736292 1.5741212
-0.43266594 -0.051864237 1.9661152
1.0463886 -0.028703682 1.6370766
-0.61867678 3.3907592e-05 2.9024732
-0.5222072 -0.12171052 0.78288913
2.0948436 -0.11953552 2.5970628
0.087558806 -0.2071624 1.5729349
-0.17986047 0.058467336 0.37184477
0.30554456 -0.14261928 1.1771615
1.9641495 -0.42207646 2.2711957
1.497129 -0.068868004 1.8325016
2.8407393 -0.43847072 3.8982584
-0.049859762 0.050859395 0.50532031
-0.81568563 -0.24846227 1.8233616
0.31224364 -0.12946796 0.78077054
-0.62738693 0.0036613606 2.7232788
-0.87064588 -0.30968052 2.1020448
-0.64016998 -0.35924292 4.2282629
-0.5713107 -0.18474953 3.6638744
0.082660019 0.051471781 0.51205754
-0.4925108 0.06072855 0.76701903
-0.4992308 0.062526517 0.70835948
0.24517012 0.044019479 0.3518784
0.180363 0.053279795 0.38493586
0.36207604 0.034684286 0.54897189
0.33712947 -0.16188282 0.79560876
-0.21349007 0.058454048 0.7373631
-0.21045548 0.053773776 0.40487647
0.33856249 -0.13731888 0.83629394
0.13255376 0.055376172 0.28324556
0.21751726 0.050631009 0.26209426
-0.5040468 -0.14206763 0.82951283
-0.80244434 -0.13906248 1.7599928
-0.54150546 -0.15157931 0.90119243
0.34697539 -0.17603475 0.83528495
0.35172987 0.034267794 0.85500407
0.078496099 0.056969009 0.42085195
0.44769263 -0.14955117 0.74723172
0.32180858 0.031212017 0.77258992
0.17676252 0.050156634 0.89173913
0.32195461 0.029272147 0.69647074
0.35320085 0.039657634 0.4996829
0.22193992 0.049038459 0.3687675
-0.35257661 0.055245154 0.86344647
0.16568571 0.055676777 0.29451799
0.20689207 0.048348986 0.24449015
-1.0044736 -0.04338859 1.3244407
-0.84252489 0.02284367 1.1132691
-0.089057654 0.062951535 0.30661488
-0.0953888 0.055846345 0.32903194
-0.50437278 -0.13113023 0.66709948
-0.50085372 0.062879503 0.65514994
0.33210683 -0.0081644394 0.68084049
0.34191179 0.033842035 0.68009591
-0.10306394 0.059758998 0.33515811
0.34032124 -0.13473342 0.84061265
0.79285657 0.022283968 1.1095083
0.45589423 -0.15189406 0.7598269
0.47429603 -0.12176548 0.67394471
0.27269131 0.027148895 0.63127136
-0.49529696 -0.13944511 0.81359696
0.14094448 0.058301479 0.36190271
0.38417786 -0.15489128 0.97322965
-0.066901207 0.052133434 0.27908325
-0.18798488 0.053618632 0.64989805
0.30711085 -0.15146524 0.80584216
0.32027346 -0.16141236 0.79793334
0.30263603 -0.14847115 0.79854703
1.9980589 -0.11206777 2.4654276
0.17280602 0.044292513 0.7692802
0.31722063 -0.13369218 1.098285
2.0106118 -0.43446773 2.3309896
0.34238416 -0.17364083 0.82397485
1.5287583 -0.064090692 1.9736793
-0.53089285 -0.11197193 0.77402234
1.3146232 -0.034825519 1.8054593
0.14894992 0.013314813 0.62526917
1.1543999 -0.26605982 2.3193219
-0.085622847 0.047383349 0.83161998
-0.65517855 -0.36669636 4.3136196
0.07357204 0.055872131 0.28607869
-0.83713675 -0.35997117 1.8457911
2.9918637 -0.48634392 4.0683222
-0.82969368 -0.23461069 1.8382299
0.14253879 0.037791505 0.99108577
-0.48308492 0.041872256 2.1546066
0.21753496 0.044929754 0.91084361
0.14495248 0.038829688 0.99738336
0.13346547 0.034056243 0.93813586
1.3151003 -0.033275805 1.6154482
-0.041270435 0.049652334 0.76281571
0.3200947 0.029201116 0.69060183
-0.47750854 0.017556202 2.2725761
-0.47416782 0.013299879 2.2634103
-0.72297204 -0.4113881 3.6517351
-0.41261554 -0.11381321 2.7240336
1.702786 -0.062412187 2.0291359
-0.63066876 -0.013374694 3.8068931
-0.54661715 0.025837645 2.7415531
1.2210149 -0.059044495 1.8576519
1.6393948 -0.061366692 1.8951051
-0.61032188 -0.26835847 4.0658102
-0.43935567 -0.36403477 3.8386223
-0.11606157 0.061668284 0.41336656
1.8452235 -0.28812826 2.3048518
-0.47788757 -0.15544854 0.79157805
1.2996613 -0.068956636 2.069525
0.31837797 -0.054125011 1.0713489
-0.30835915 0.038163826 0.48753953
-0.50590444 0.062832214 0.61761928
-0.053970873 0.057536013 0.28964758
0.16239053 0.055715151 0.31199956
1.910726 -0.19409515 2.8896716
-0.1912412 0.059672903 0.50877786
-0.27566469 0.066143394 0.45881724
1.8158015 -0.38926113 2.3206565
-0.20579976 0.052567717 0.50858665
-0.027107 0.056763534 0.29574275
-0.19611895 0.042892762 0.84755492
0.14067018 0.037834957 0.97796607
-0.53393042 -0.14590797 0.73582149
0.18528998 0.019766439 0.83214211
0.16292113 0.051776238 0.43675947
-0.1130296 0.056589551 0.48389912
0.18193668 0.019789103 0.81511331
-0.52970856 0.056955475 0.66175127
-0.72540867 -0.022923864 1.3624856
-0.062305778 0.057558734 0.29351783
0.051029921 0.056029163 0.28296375
0.012970716 0.057688002 0.32105398
0.61435276 0.028850995 0.72643399
0.27966356 0.036826514 0.44099307
-0.38152504 0.0619376 0.64731121
0.31817013 -0.13019352 0.81096292
0.23886132 0.045902047 0.29721856
-0.044030219 0.063904256 0.29790759
0.3226465 -0.0350734 0.68945074
1.1421852 -0.31035411 2.7621782
-0.76556814 -0.25374222 1.8566744
0.08526963 0.052538119 0.53270769
-0.05255428 0.052658025 0.51466274
-0.35125005 -0.14652701 3.0404241
0.052047729 0.056597807 0.28844929
0.28316694 0.031764377 0.7816627
0.015458494 0.05816149 0.32520771
0.22066092 0.05037722 0.30010319
-0.08218953 0.061423387 0.28625321
-0.20209742 0.051609315 0.45507932
0.19287145 -0.14649202 0.75067639
0.35521567 -0.076069579 1.1031358
0.50380075 -0.14335959 0.68409824
0.55684459 -0.10478586 0.99421287
0.038981915 0.045485951 0.85164475
1.332471 -0.033877894 1.636946
1.7742482 -0.26391518 2.3805048
1.7625979 -0.055114262 2.0697505
-0.86151075 -0.36780447 1.9000657
-0.80665958 -0.22797208 1.7725141
0.025882781 0.048949651 0.76024604
0.33931011 -0.15422882 0.81271434
0.078789532 0.0573075 0.29143095
0.13058788 0.053875849 0.3239367
0.30431652 -0.10493261 1.1337569
-1.0120426 -0.042681903 1.3353846
0.26950818 0.030023471 0.73702312
-0.06229651 0.058834851 0.42672372
1.1210097 -0.030325495 1.8918107
0.77352428 0.021330986 1.1363823
0.47978598 -0.11872976 0.67902589
1.7230741 -0.044092283 2.5902569
-0.17098343 0.053251207 0.8410356
1.1676548 -0.082310721 1.9298799
-0.91781139 -0.33083355 1.9020641
-0.84220517 -0.31810534 1.9410717
0.081168592 0.058390856 0.31052852
0.099045455 0.041592322 0.20263886
0.08412689 0.051848732 0.52762914
0.088027894 0.061614729 0.46230483
-0.15934581 0.062167365 0.42670536
0.34159899 -0.13898748 0.75082278
0.27596182 -0.16505477 0.80863738
-0.20865738 0.053056981 0.43603945
-0.0090174079 0.057529844 0.30313849
-0.05639717 0.058953967 0.30193019
-0.61431324 -0.142033 0.96396565
0.32038724 -0.13368598 0.8129251
-0.81843114 0.022891533 1.0815575
0.17808831 0.047278766 0.80492234
-0.02685985 0.054574836 0.28227568
-0.94673169 -0.18261281 1.8241045
0.13564914 0.055858776 0.34020662
3.1642971 -0.44025409 4.3406248
0.12953621 0.055125486 0.29795456
0.24612021 0.050910357 1.0031927
-0.20111144 0.043914594 0.86856866
0.29187185 0.031698316 0.80362535
-0.43232262 -0.10143928 0.69893789
0.32031143 -0.03249348 0.68456078
