# .PCD v0.7 - Point Cloud Data file format
VERSION 0.7
FIELDS x y z
SIZE 4 4 4
TYPE F F F
COUNT 1 1 1
WIDTH 522
HEIGHT 1
VIEWPOINT 0 0 0 1 0 0 0
POINTS 522
DATA ascii
0.3182233 0.03233397 0.74270356
0.48465735 -0.1650631 0.85211527
-0.80501509 -0.019277982 1.1992928
0.34332198 -0.14948422 0.94577992
0.22777224 0.047108598 0.86093271
3.6973042 -0.36690626 4.8447304
-0.90759629 -0.13272403 1.6566383
-0.93221933 -0.0925676 1.5744776
-0.93131375 -0.09366712 1.5689901
-0.92517084 -0.16096142 1.5602664
-0.84826088 -0.018721774 1.2082926
-0.91001952 -0.13555829 1.6528255
-0.91568106 -0.21602602 1.5678834
0.72397959 -0.047361668 1.478212
0.80617684 -0.054969903 1.5575329
0.38904929 -0.064530671 2.0193076
-0.9573285 -0.10167862 1.6063498
0.26101652 -0.027610268 2.2979999
-0.97307205 0.051565398 1.4775597
-0.94967306 -0.015185391 1.616217
-0.27808312 0.010506845 0.45354307
0.23004687 0.047364172 0.87515938
0.19677325 0.053224523 1.4075519
-1.0111998 0.033564027 1.3585464
-0.91073501 0.0207504 1.6175634
0.75580335 -0.038190331 1.3607765
-0.84722412 -0.023412745 1.2715524
-0.93093103 0.028864641 1.2929064
-0.66502821 -0.16885397 1.4674104
0.20742097 0.054695748 0.57555556
0.35433 -0.12933785 1.1594628
-0.73667753 -0.19105849 1.4949592
-0.51604247 0.046765622 1.181218
-0.72846949 -0.17213628 1.5580183
0.54003215 -0.12642244 0.71371853
0.775962 -0.048425246 1.6075724
-0.07953918 -0.38724628 2.0791087
0.14097202 0.056962814 0.58762753
-0.078836471 -0.38237694 2.0573459
0.80262971 -0.05060846 1.5499219
-0.93511862 0.027936514 1.3003463
-0.21430911 -0.030600611 0.27852237
0.32794929 0.048711013 0.51304758
-0.32178715 -0.37101826 2.1836185
0.24281302 -0.17441557 1.219901
-0.52886283 0.047227468 1.2097899
0.24921343 -0.019934181 2.9463091
-0.22238949 0.044304706 0.28009522
0.55221856 -0.028405596 0.83154714
-0.55275017 -0.037774377 1.1752082
0.66361326 -0.10726831 1.2287637
-0.65562481 -0.19181591 1.4812115
0.73124439 -0.010925612 0.91589868
-0.52941966 0.047283731 1.2079376
0.20035924 -0.23132859 1.3044168
-0.90984017 -0.21700589 1.550608
-0.88853145 -0.2136137 1.7313074
0.35016 -0.22691421 2.213726
-0.29589933 -0.20753442 2.0622959
0.82931536 0.090381399 1.7292551
0.8595705 -0.055695664 1.1930441
-0.2006439 -0.32539913 2.4722257
-0.73585999 -0.22951375 1.5086414
0.14201152 0.057008166 0.587448
-1.2899528 -0.24956362 1.5688823
0.34233361 0.027081709 1.0853056
-1.301648 -0.25154313 1.5839406
-0.67603064 -0.23559879 1.4525195
-0.70240051 -0.22642432 1.4950222
0.56396759 -0.15196742 0.84171498
-0.33405182 -0.24655868 1.9031371
0.73143589 -0.016698692 0.9249233
0.56263709 -0.10532972 0.71807516
-0.97265649 -0.013766189 1.6444238
0.06264247 0.058388531 0.48848641
0.69862753 0.078276128 1.4407774
-0.30230707 -0.20237043 2.0432034
0.20817193 0.056779411 0.58886147
-0.77094537 -0.24398531 1.6282479
-0.97180068 -0.26364043 1.6372782
-0.91283 -0.26994038 1.54732
-0.43784279 -0.0015704939 2.2609639
0.22763756 0.050596483 0.44639456
0.40645128 -0.18490119 2.4869003
0.35017741 -0.22810183 2.2271361
-0.25065857 -0.032685444 0.7019527
-0.064648658 0.058107171 0.45653665
0.24473371 -0.20727868 1.1652805
-0.22789419 0.048633888 0.66318858
-0.83182186 0.010477555 1.7108873
-1.0290576 -0.26582867 1.786322
1.3947448 -0.045988113 2.0100689
-0.97813332 -0.27332154 1.6567363
1.981589 -0.10677584 4.0882025
-0.18548374 -0.088964008 1.5831882
-0.61765182 -0.13933006 1.4085797
-0.21322778 -0.22157393 2.2427154
0.50762385 -0.10486801 2.3912888
-0.71485996 0.028039049 1.1914495
-0.72558987 -0.22699013 1.4939188
0.15059945 0.059165761 0.38122129
0.3340019 -0.15919612 0.98905456
-0.2843442 -0.37350059 2.0927138
-0.9821254 0.048696954 1.4553887
-0.12126005 0.05969603 0.69927537
-0.19255391 -0.29729757 2.5064478
-0.22953612 0.047623865 0.66916907
0.35423735 0.046434749 0.92803395
-0.83719218 -0.012637801 1.2644342
-0.96915841 -0.094107352 1.2800835
-0.88078022 -0.21007356 1.6631314
0.21627378 -0.25773713 1.2430333
-0.11654907 0.061731253 0.77082241
0.44971681 -0.16811562 1.9254912
-0.94509202 0.025854759 1.3142005
-0.17286068 0.060349457 0.74409091
0.35056639 -0.15118563 1.755613
-0.28909111 -0.37813097 2.1194048
0.78627813 0.098654039 1.9200569
0.66905773 -0.008302615 1.3731683
0.40138254 -0.10957838 4.1533613
-0.062140912 0.055387024 0.61878955
-0.2462939 -0.2180135 2.0364242
-0.26686269 -0.26295263 1.6569842
-0.16664189 -0.32600024 2.6558242
-0.24542469 -0.25465816 1.9693793
-0.18415746 -0.32597122 2.6058569
-0.16281928 -0.29966697 2.3499193
0.47562981 -0.19085851 4.3558707
-0.19262651 0.048715986 0.29070568
-0.73758507 -0.19004329 1.5021917
0.26235569 -0.0066603152 1.7507631
-0.19845851 0.054582834 0.39841986
0.769023 -0.045931283 1.5778369
-0.21708 0.03803803 0.27861726
-0.91030931 -0.24890746 1.5171343
-0.84684485 -0.024287056 1.2725931
-0.17773819 0.052438784 0.85674918
-0.98370647 0.048933242 1.4555436
-0.25312898 -0.30097803 2.0156388
-0.22194609 0.044783786 0.27881253
0.1248825 0.051176727 0.51028836
-0.21594819 0.038476177 0.27628291
-0.51303887 0.061984409 0.93429434
-0.51518047 -0.060005572 1.6027557
0.30917814 -0.18389337 2.1004362
0.34281489 -0.024523988 3.1807313
-0.89385426 0.017668325 1.6283838
0.82160878 -0.029625773 1.0205764
-0.29621077 -0.20385414 2.0320711
-0.23713264 -0.38513598 2.2984567
-0.92093796 -0.018239181 1.6955944
-0.53477156 -0.037007693 1.6426159
-0.18472615 0.055612132 0.28080297
0.67134356 -0.0075246422 1.3776311
-0.34047648 -0.43752718 2.1834412
-0.18293789 0.051748712 0.67878234
-0.92213476 0.023502432 1.6438972
-0.88994473 -0.011797211 1.2848612
-0.93052799 -0.096137315 1.5619045
0.062860325 0.058539931 0.48761559
-0.23688024 -0.35980296 2.1935802
-0.36023021 -0.28711 1.4726962
-0.91343194 -0.17706648 1.7060202
-0.25939393 -0.19807923 2.0036364
0.4295482 -0.17701498 2.1888671
-0.21534552 -0.025353529 0.6626904
-0.23796597 -0.36867139 1.8986024
-0.29230937 -0.37924409 2.1273484
0.2466135 -0.17511484 1.237167
0.22093199 -0.19317178 1.061684
0.43826503 0.044031147 0.76276362
-0.21754003 -0.038668659 0.27726007
0.26423976 -0.13277248 0.94209516
-0.20904997 0.047140591 0.2948544
-0.12874591 0.060111631 0.45771444
-0.3175239 -0.26827842 1.4508113
-0.92554355 -0.22181939 1.5765394
-0.31701547 -0.27043977 1.446916
-0.22337621 0.028080866 0.6626091
-0.92304444 -0.13256039 1.7017535
0.41722214 0.039056398 0.68647659
-0.23794705 0.023890451 0.6595912
0.57481903 -0.08397688 0.7121433
-0.94565952 -0.019023489 1.6188809
-0.92492795 -0.0081208432 1.6332191
-0.30925304 -0.26345769 1.8699473
-0.15429872 0.060826324 0.41117573
-0.83014661 -0.24749438 1.4026076
-0.14768964 0.061408672 0.32306957
-0.16995206 0.059450112 0.71553659
-0.1590032 0.062327784 0.43568063
-1.0951525 0.055322118 1.6422859
0.4071641 0.04342974 0.59724307
0.35740852 0.042479042 0.49135137
0.41488051 0.043746687 0.72211778
0.58629549 -0.085937358 0.73160267
-0.21072266 -0.046506241 0.28123319
-0.14694619 0.061002105 0.32030129
-0.22449911 0.027970783 0.66735649
-0.20525929 0.046606909 0.2828517
0.442954 0.045583915 0.77501738
-0.23987609 0.050551772 0.53882885
-0.073318399 0.060137101 0.39194834
-0.90399843 -0.25628349 1.5397578
0.20403659 0.05947851 0.49791217
-0.36096588 0.05633628 1.4830648
0.30857143 -0.14238761 0.90602529
-0.25028035 0.032949254 0.79366839
-0.31815061 -0.26940927 1.4436167
0.43033683 -0.059485253 2.5626636
0.4782756 -0.149498 2.3102007
0.00096503645 0.054763645 0.5995878
0.0011625066 0.054559629 0.59445417
-0.28890157 -0.26379466 1.4530097
-0.41454387 -0.17735912 2.1499424
-0.26914373 -0.25320092 1.9305791
-0.053626575 0.052586451 0.76783681
-0.80788624 0.049634498 1.3252181
0.54722804 -0.21763065 5.1450906
-0.40835643 0.0037846947 2.9384646
0.54473591 -0.40978476 5.5066743
-0.21774802 -0.36036316 2.7380652
0.19673283 0.057739053 0.46976388
-0.68639982 0.060131323 1.0727268
-0.57963049 0.085372068 0.82285058
0.34552175 0.048013516 0.70532882
-0.31741479 -0.36620834 2.1348495
0.20677057 0.061036397 0.35084951
1.2238889 -0.063068762 2.3341117
1.0847671 -0.071819343 1.9905034
0.4756996 0.04588775 0.81215322
0.056767419 0.063019171 0.27649736
-0.45012724 0.046150122 1.8827258
-0.23432833 0.048715219 0.64758122
0.21640971 0.054302651 0.45740795
-0.20657507 0.037264157 0.29197979
-0.29762122 -0.21953692 2.4557905
-0.22090065 0.04504763 0.2766372
-0.2129897 -0.040388934 0.2772218
0.15346073 0.059799839 0.3894819
-0.89378434 0.05697193 1.3288242
-0.25687689 -0.31878644 1.9357444
-0.063865855 0.057791471 0.46047437
-0.15470016 0.058148522 0.33836162
0.3582764 0.017699473 0.96895421
0.67981398 -0.010414689 1.2737042
-0.072428882 0.059080448 0.38169634
-0.93855631 0.029089175 1.3047177
-0.062098801 0.058534022 0.71624637
-0.20062551 0.0496062 0.68843961
-0.34369123 -0.28491813 1.432892
0.20680702 0.060436379 0.35060143
-0.19970609 0.055318441 0.40093756
0.22471657 0.056036506 0.31284094
-0.13665666 -0.22200622 2.4924984
-0.20548719 0.038470991 0.28724885
0.21763355 -0.017472915 2.4967694
0.37457672 -0.18909812 1.6556607
-0.27110693 -0.40866017 2.3760324
0.46006793 -0.23592067 1.2678767
0.14970422 0.061888184 0.28695452
-0.49444509 -0.15749478 2.3428717
0.36623597 -0.16633394 1.8258523
-0.62896204 -0.13904922 1.4429404
-0.3383593 -0.2316684 1.4201838
-0.94149262 0.035016324 1.3472656
-0.32682049 -0.2220359 1.3567823
2.254539 0.25155535 3.1008515
-0.054662339 0.055936556 0.83686793
0.30423531 -0.020967759 3.2320638
-0.41729105 -0.18255453 1.6862594
-0.2083559 0.048086014 0.27991343
0.16241357 0.063913688 0.28695869
-0.51177084 -0.060993876 2.944191
-0.34082305 -0.34562019 2.0142636
0.41678083 0.04806355 0.82149994
-0.9298327 -0.27732104 1.502792
-0.65715384 -0.19116659 1.4756125
0.34360653 0.04390182 0.89350426
-0.17570153 0.055026796 0.31579447
-0.93039727 0.034065254 1.3229605
-0.1142413 0.060246039 0.77768946
-0.18482849 0.055562798 0.28171062
-0.11446641 0.062541969 0.2849654
-0.23710519 -0.28942367 1.9492382
0.20114057 -0.22159065 1.2258555
-0.35233909 -0.15667963 3.0549884
0.56665343 -0.22258146 5.3112307
0.44885439 -0.01063455 2.3940997
-0.44690311 0.015554813 2.176055
-0.17518313 -0.26812392 2.6390381
0.46143669 -0.037239783 0.65120697
-0.19344959 0.049027666 0.29170561
-0.16829368 0.057438433 0.47891128
1.1777661 -0.053470131 1.4693593
0.36392176 0.0077679111 1.2340728
0.56632322 0.064727053 0.85211003
0.22479561 0.055102814 0.30575788
-0.29309312 -0.21795167 2.4032965
-0.30439615 -0.24052493 1.8102857
-0.12618542 0.043310255 0.51798332
0.33500421 0.050554853 0.52779818
0.6308139 -0.27247936 4.7595024
0.33808815 -0.20371506 1.7198349
-0.15322651 0.057917748 0.33499384
-0.25516257 0.051538527 0.54569972
-0.13555005 0.041832764 1.518592
0.36300147 0.043050047 0.69436121
0.20734668 0.059944201 0.35202825
-0.63422191 -0.13966011 1.4559802
-0.33406079 0.03350839 2.3184118
0.29647645 0.0079536689 0.88643873
-0.11253528 0.061350539 0.27487242
0.063826516 0.059371825 0.49874341
0.23459722 0.052343383 0.46307683
-0.14519924 0.060365811 0.3149544
0.059389457 0.058189664 0.37356758
-0.22130823 -0.057350662 0.27390027
-0.18467242 0.055782694 0.28170419
0.20798513 -0.18184598 1.0935086
-0.53958821 0.047663849 1.2476619
0.25317845 0.053070772 1.0060426
0.33542371 0.050314274 0.52846503
0.57621795 0.040865216 0.8924185
-0.89085495 0.061623946 1.3108348
-0.21416055 -0.064319871 0.29300141
0.21652448 0.05584909 0.5061096
-0.078056991 -0.39270633 2.1198673
-0.15143541 0.054038901 0.37883282
-0.57137752 0.048437227 1.6000391
-0.43138054 0.023431093 2.091547
-0.20860013 0.016835008 0.26862991
0.087498322 0.055271659 0.91045225
-0.42162648 0.018420808 1.9022034
-0.64887387 -0.27374572 1.4359742
0.43153101 0.052391592 0.6035459
-0.63148308 -0.13846229 1.4471883
-0.91363037 -0.17541228 1.7067832
-0.22432175 -0.25089076 2.3702788
-0.17500141 0.055280861 0.28692901
0.49626651 -0.13165279 1.3177503
-0.61703408 -0.18062094 1.4738518
0.4219957 0.045169909 0.62360215
-0.22207591 -0.040892683 0.29118788
0.22215421 0.055823613 0.3102088
0.69003069 -0.014339301 1.2007405
-0.52775824 0.046272133 1.1986598
0.35660946 0.086563602 0.45279849
0.22137891 -0.19546565 1.0781006
0.21185198 0.054598693 0.49261093
-0.18233693 0.052647699 0.67755902
0.95506698 0.096062653 1.7656807
0.020325124 0.061900254 0.26685321
-0.51860654 0.060322035 1.0909621
-0.18675964 0.055069 0.25183845
0.010299668 0.056332354 0.78216362
-0.2735047 -0.24498986 2.0059428
-0.50973934 0.059543163 1.0642358
-0.74692351 -0.2192937 1.5355669
-0.75367785 -0.22872172 1.5369357
0.34482458 0.043998238 0.8918041
-0.53268468 -0.20206489 1.4061614
0.38358936 0.049714174 0.74992573
-0.58122796 -0.047056332 1.2455631
-0.62253666 -0.31038308 1.3738443
-0.23082778 0.050403986 0.6768012
-0.21482484 -0.01396585 0.28215766
-0.77910811 -0.007020372 1.0509709
0.39858639 -0.084524937 1.3808442
0.79167366 -0.085969001 1.3702363
-0.23417535 0.046492483 0.7082814
0.31533241 0.045994617 0.48653674
-0.61604172 -0.31519666 1.4409121
-0.62401384 -0.16918138 1.5150217
0.20695898 0.05855279 0.38668692
0.13487689 0.058003869 0.51375115
-0.066014677 0.060442671 0.49831963
0.47636116 -0.18049593 2.0505662
-0.18466896 0.054077771 0.61929822
-0.19141927 0.065000616 0.32255971
0.41995543 0.0048512304 2.450542
-0.16783106 0.056935515 0.31551504
0.35941049 -0.1095009 0.95834839
-0.66197711 -0.28122446 1.4743069
0.55870026 -0.073897108 1.2584347
-0.41693774 -0.035501648 2.7850389
-0.15689966 0.059160892 0.34317434
0.015336275 -0.38754338 2.0441527
0.43357557 -0.17519252 1.1823705
-0.11814639 0.062627681 0.78585088
0.23224501 -0.24357538 1.3136119
-0.21388565 -0.041183703 0.27897286
0.25092417 -0.17902371 1.252813
-0.21381661 -0.03110997 0.27839625
0.22759828 0.051442858 0.44766963
-0.16409025 0.055845715 0.30487382
-0.38099316 -0.2057986 1.5002288
-0.51292127 -0.19459933 1.3453287
-0.1940136 0.049104836 0.29203379
-0.17635375 0.052655641 0.86142313
-0.59392381 0.05121981 1.4921559
-0.21327245 0.051296797 0.29226017
-0.1305588 0.05658298 0.57175624
0.21521518 0.054081753 0.45354676
0.20153128 0.05330639 0.46594536
0.47101295 0.044671301 0.66317856
0.17992167 0.058562249 0.55525339
0.053151563 0.059235785 0.25453913
0.37356156 0.043400448 0.77360237
-0.21794778 -0.042596083 0.27396739
-0.17540619 0.056867305 0.43540597
-0.064242847 0.058913026 0.48561692
-0.17440744 0.052654274 0.39472806
0.3078171 0.025611229 0.70689797
-0.1609045 0.057505444 0.41333187
-0.21450311 -0.030778371 0.28010666
-0.21181691 -0.0016231537 0.28353417
-0.67264211 -0.18029748 1.4666175
-0.61951351 -0.24689217 1.4305223
0.018650442 0.062108323 0.4605509
-0.21777457 0.017167551 0.28540421
0.66943198 -0.1370744 0.93022001
-0.21696749 -0.054188151 0.27227926
0.29977655 0.02403504 0.69951844
-0.10088277 0.060731553 0.30989468
-0.14347446 0.062908508 0.28896201
0.35908946 0.041198704 0.73404717
-0.21823367 -0.031096108 0.27828074
0.21387365 0.05276167 0.59377563
-0.063823089 0.059601441 0.29901898
0.18552075 0.060175873 0.57521212
-0.076808728 0.074098118 0.38762093
-0.073295116 0.059583634 0.37940669
-0.14731148 0.061185021 0.3214103
-0.22976887 0.051776182 0.5587312
0.31482774 0.048286464 0.67598796
-0.18303949 0.055226386 0.2782582
0.31965327 0.025224023 0.6929636
-0.47845185 0.049431026 1.0809213
-0.07179223 0.058666218 0.43826544
0.32681328 0.04983592 0.40463555
-0.21545693 -0.017263971 0.27157629
-0.15639144 0.059077285 0.45808911
-0.56353539 -0.21902974 1.3625821
0.20835182 0.059575532 0.35173643
-0.2111223 -0.0017800378 0.28240418
0.010337621 0.061824355 0.45043683
-0.20108512 0.050473455 0.26670349
-0.1618782 0.056157727 0.32806051
-0.1865316 0.054861452 0.30105829
-0.23337361 0.050279196 0.6854881
-0.13624103 0.059145369 0.5985496
0.11911834 -0.0094379475 0.17938352
-0.21812859 -0.0035876529 0.27799714
-0.21468443 -0.053648587 0.26793253
0.059125066 0.055212762 0.45276332
-0.10466336 0.055563014 0.58973837
-0.53623801 0.061191976 1.1303779
-0.15427437 0.054017529 0.38601279
-0.20964271 0.048162971 0.28261077
-0.50990903 -0.2203133 1.2800158
-0.57966465 0.035279457 1.2223788
0.14914015 0.058983393 0.51648998
-0.5656122 -0.03760767 1.2170931
-0.34770393 -0.37304956 1.6647764
-0.51380473 -0.29624969 1.400921
-0.37101674 -0.20315692 1.4902693
0.27113816 -0.1726965 1.1852061
0.43876225 0.0029945085 1.3788153
-0.32149595 0.0088908067 1.4747978
-0.0026588961 0.058235094 0.44191492
0.21527661 -0.19830306 1.2493073
-0.62567067 -0.16866647 1.5157369
0.10644126 0.058514412 0.49089825
0.18759041 -0.25634661 1.2352518
-0.28994784 -0.17311274 1.3729511
-0.94172132 0.024449635 1.636247
-0.213094 -0.018198151 0.28018272
0.061903164 0.058397468 0.44143248
-0.0033993125 0.060006838 0.46334505
0.13200918 0.057824384 0.58881414
-0.19279632 0.049222585 0.29237521
0.026058339 0.060994659 0.35417688
-0.56933522 -0.13099094 1.4994656
0.30413514 -0.24061199 1.9510099
-0.86622435 -0.26989961 1.6861452
-0.4286499 -0.18923411 1.7497579
0.09279196 0.059951738 0.9580611
-0.48497033 0.011450184 2.0178571
0.30166626 0.15363839 0.70249224
-0.98523343 -0.32045633 1.8541187
0.06252189 0.061453145 0.4064852
0.71575207 -0.018221378 0.90694726
0.13413338 0.059041567 0.5245961
-0.15798762 0.062150709 0.31592679
-0.99986053 -0.32473856 1.8823472
-0.41706207 -0.22123182 1.8961982
-0.89015299 -0.17230627 1.7394098
-0.1558892 0.061466753 0.41598821
-1.0179285 -0.33345926 1.9186035
0.55916715 -0.098623134 0.71293664
-0.5631609 -0.026741259 1.2221657
0.40616319 0.040007453 0.67857933
0.28263444 -0.22423977 1.7938081
-0.70939845 -0.18910405 1.4828714
-0.25372043 -0.39520329 2.2808633
1.4467458 0.17967494 1.8269852
1.1238968 -0.047876347 1.5366193
0.06982331 0.047964741 1.5061592
-0.56918418 -0.13412623 1.492833
-1.0645825 0.051003162 1.7291709
0.58925158 -0.20188643 3.612361
0.4459576 -0.031736828 0.65646291
-0.57005644 -0.13746467 1.491182
-0.23516667 -0.37944743 2.6030374
-0.22320682 -0.26360425 2.1440845
-0.92691159 -0.22225209 1.565076
0.37200281 -0.025519513 3.9886894
-0.11156212 -0.19828585 2.2870798
-0.11286715 -0.20410162 2.3719387
0.56227064 -0.20385006 5.2748199
