# .PCD v0.7 - Point Cloud Data file format
VERSION 0.7
FIELDS x y z
SIZE 4 4 4
TYPE F F F
COUNT 1 1 1
WIDTH 527
HEIGHT 1
VIEWPOINT 0 0 0 1 0 0 0
POINTS 527
DATA ascii
0.9729495 -0.050056137 1.3979125
0.6191352 0.00054115988 1.4258842
2.4687743 -0.11830055 3.9337139
0.7319991 -0.043686464 0.92919469
0.18400943 -0.027928378 2.5559855
-0.36241993 -0.21846083 1.4814675
1.5099678 -0.10210498 2.5738349
-0.46851352 -0.0028366707 1.4278049
1.8897996 -0.11256555 3.4988403
1.3108249 -0.087397344 2.8857708
-0.56131166 0.0031724256 0.86978412
0.39834845 -0.16554439 1.2268138
-0.29187134 -0.21674833 1.3105772
3.3474519 -0.30819032 4.7057734
-0.22567618 -0.32143226 1.8734233
-0.23503214 -0.3191171 1.811506
-0.23281524 -0.34687194 1.89166
0.2515654 -0.17543635 1.3247738
0.25314599 -0.031683132 2.4407992
-0.55248493 -0.036016639 0.86838698
-0.30417877 -0.19682527 1.2791963
-0.56070435 0.0021052361 0.86826611
-0.5711152 0.03098828 0.8816514
-0.57049364 0.030421915 0.88151026
0.59410506 -0.11086946 3.6826868
0.465359 -0.16827723 1.929729
-0.31815869 -0.2561008 1.2533042
0.39424011 -0.22447419 4.2418489
-0.22680432 -0.24587014 1.5664008
0.38966051 -0.4203296 4.7224655
-0.24982944 -0.26038572 1.8058178
-0.5798319 0.020534482 0.81663227
-0.23324156 -0.25775439 2.2263641
-0.51099175 -0.14872509 1.4449396
0.31290942 -0.16069785 1.093019
-0.46998933 -0.18550831 1.0310912
-0.42353684 -0.16571432 2.309824
0.4107115 -0.23229036 4.4380221
-0.48245397 0.013159673 1.3889284
-0.40850958 0.030937906 1.7206721
-0.48491153 0.020342343 1.3992851
-0.51460677 0.018225314 1.3998485
-0.26304531 -0.23542276 1.4891806
-0.31658885 -0.24172112 1.2725019
0.39408603 0.0070704445 2.0782311
0.26846799 -0.25695583 1.378963
-0.46158943 -0.18387523 1.0149932
0.47876552 -0.2060183 2.8238554
-0.29880854 -0.38321152 1.9012904
-0.17976692 -0.21254256 1.7523561
0.40301165 -0.21275231 4.3594108
-0.37439907 0.054594949 0.83055568
-0.37279698 0.054515257 0.81895685
-0.51411837 0.021522276 1.1117759
0.31131971 -0.16018274 1.0842681
-0.43572441 0.032610651 1.4392869
-0.53914726 -0.12486482 1.4908919
-0.40275535 -0.086088657 1.9834728
-0.39468625 0.058977768 0.58299994
-0.52758318 -0.12032417 1.4460297
-0.53473526 0.016522203 1.4542964
-0.55587763 0.029478658 0.87409329
-0.23992494 -0.34030503 1.9809949
0.38219497 -0.3765389 4.1870189
0.70751125 0.020655757 1.3337364
-0.2119993 0.051823646 0.42786074
-0.11415135 0.035209846 0.35274124
0.25283849 -0.24084589 1.2539606
-0.26706767 -0.12472662 1.7748067
-0.57306665 0.02389333 0.86031294
-0.42106679 -0.20366001 1.2593093
-0.46577761 -0.12219732 1.4200759
-0.76743346 -0.099953972 1.9827573
-0.75719458 -0.093862481 2.1246951
-0.175836 0.046019129 0.90819025
-0.24131984 0.061355338 0.7690568
0.23341355 -0.24470264 2.5060878
-0.27988082 -0.21324459 1.5338948
-0.23836344 0.050698221 0.37747121
-0.53207183 0.004327964 1.2703605
-0.40652403 0.031314984 1.6964717
-0.48880902 -0.10544436 3.2477918
-0.35303742 -0.19228509 1.3013494
-0.56544155 0.030926188 0.86932898
-0.54403275 0.014604145 1.197614
-0.43429008 -0.16025004 1.2842007
-0.56790274 -0.00081864186 1.074373
-0.42941228 -0.18244648 1.3365543
0.030951805 0.049816884 0.74219537
-0.37597287 0.055306755 0.70128083
0.13480052 0.058359534 0.32949257
0.31237352 0.028152518 0.46641564
0.39057785 -0.13254604 1.0341198
0.28979242 -0.14217088 0.99758267
0.39737833 -0.1642898 1.2192872
-0.4810895 0.01129303 1.3935504
-0.13084298 -0.12416228 1.3795221
-0.49609718 -0.21597987 1.3328569
-0.35714558 -0.19526383 1.3230095
-0.54515707 -0.058940627 0.87068057
0.33747843 0.042829521 0.45681787
0.35300136 -0.27971417 1.889317
-0.3291311 -0.25124046 1.3198197
0.45130926 -0.17664114 1.1505704
-0.18489879 0.051351182 0.41560173
0.082102768 0.057852805 0.47615886
-0.55905896 0.0019168612 0.86722374
0.14927617 -0.020060983 2.0620847
0.42076319 0.026179455 1.2092898
-0.56242806 0.004805252 0.87050414
0.50590891 0.038049951 0.59964228
0.33490404 0.026615843 0.46732497
-0.63862002 0.044400863 0.83604932
-0.55113333 0.020811152 1.0705469
-0.58692747 -0.12672779 0.75596285
-0.53733152 -0.10881167 0.86140847
-0.53802341 -0.10929579 0.86310554
-0.47674814 0.00073419139 1.4248714
-0.068545319 0.057858743 0.40702367
0.34766543 -0.15297222 1.2042012
0.40636873 0.0051073059 1.2848637
-0.2735782 -0.29536092 1.9349506
-0.21717009 -0.29230043 1.8195019
0.20220742 -0.033870999 2.9754157
0.68944758 0.021527071 1.2066286
-0.43327942 -0.15930167 1.2802269
-0.59154385 -0.12744254 0.76276636
0.3235549 -0.28480628 1.7689526
0.45686206 0.043766595 0.60181403
1.1388762 -0.26203063 2.8057847
0.14628083 0.056900598 0.37942839
-0.56874835 -0.00078318454 1.079145
-0.37760261 0.055988688 0.70422697
0.60288471 -0.10751363 0.71523952
-0.17433465 0.046963669 0.91365767
0.23779228 -0.26151833 1.249069
-0.25076044 -0.29098272 2.4743381
-0.26987609 -0.16958979 2.4355516
-0.33369607 -0.25186798 1.2456219
-0.21159595 0.050637506 0.5273304
-0.54212326 0.0041840766 1.5550573
0.36212674 -0.2308453 1.7517843
-0.44731674 0.025187718 1.4219322
0.077189885 0.05621333 0.40389013
-0.53877205 0.015144419 1.1774821
-0.47133294 -0.19196528 0.99528837
1.1805432 -0.05800911 3.3195
-0.30317947 -0.39427468 1.9077654
0.46500242 -0.025184028 1.9194534
0.30560601 0.035530511 0.46152592
-0.21376291 0.052264102 0.4357779
-0.57349664 0.052155055 0.7677474
0.66943282 0.030502193 1.1082213
0.38439605 0.021088973 1.1518979
-0.57298982 0.047520734 0.76710582
-0.4045665 -0.22992977 1.2561166
-0.26861796 -0.28650194 1.8717635
0.49077556 -0.15418401 1.642792
-0.59787828 0.05714269 0.76052547
-0.53214973 -0.12373742 1.459964
0.15903592 0.054190136 0.53222299
0.96570486 -0.14740154 1.6119199
0.50381321 -0.17841801 2.1169851
0.22180676 0.034778498 1.2587695
-0.19738773 0.054634802 0.45065641
0.3176983 -0.24958706 2.0728405
-0.79525334 -0.08088275 1.7862747
0.27307561 -0.20330262 1.1507118
-0.53185385 0.0074732807 1.5452726
-0.19510871 0.052362241 0.52644682
-0.42537454 -0.18232995 0.99450707
0.53445768 0.024062786 0.79823565
-0.56458181 0.030514196 0.87031841
0.12612268 0.057664033 0.375314
0.21351102 0.057116508 0.40686011
-0.26970619 -0.27898932 1.3383615
-0.54209954 -0.10985132 0.87144947
-0.051637821 0.052905772 0.45630264
-0.18343908 0.053021587 0.79765296
0.66746753 0.0036362447 0.95982909
0.35781047 -0.20159513 1.122617
-0.52469176 0.045712151 0.83718276
-0.30296645 0.071038373 0.87276602
-0.49607232 -0.20037374 0.98744822
0.52156681 -0.18542236 2.1764374
-0.41842774 -0.22456962 1.3805554
0.37053812 0.036446203 0.77894926
-0.50030655 -0.19240171 0.93547916
-0.29074007 -0.37169695 1.841826
-0.0994009 0.052552603 0.73997521
-0.050038971 0.054728743 0.67853332
0.1589272 0.044085234 0.73673105
-0.55108792 0.045672543 0.80543494
0.04619544 0.050359115 0.88757563
0.39966547 0.0083826929 1.2825706
-0.46450731 -0.19624436 1.0568357
-0.19911972 -0.207663 1.8494167
-0.57707518 -0.12469646 0.74083447
0.33788478 -0.22452644 1.4368737
-0.26697195 -0.19707093 1.4101987
-0.30709973 -0.19925135 1.2946866
0.55667257 -0.11385895 1.44484
0.4200677 0.035553094 0.55278826
0.29035911 0.05092724 0.40866756
0.31692025 0.035380978 0.4808979
0.66705197 -0.00038174354 0.87671208
0.073655911 0.054111362 0.36418653
-0.1991356 0.056083523 0.30805326
0.23568612 0.050594222 0.37904572
0.12679246 0.057474211 0.37500215
1.3948286 -0.058111921 2.015744
-0.21660832 0.053306669 0.44287682
-0.43342534 -0.18126723 0.9693234
0.33960152 0.044831838 0.60516787
0.12372269 0.055919945 0.36092019
-0.21162555 0.049898744 0.52640057
0.43857205 -0.16485208 1.1939273
0.17344958 0.049691144 0.83318448
0.40854764 0.023739617 1.2480416
0.20969895 0.054801457 0.52598739
0.25675729 -0.21539992 1.1332641
-0.20331702 0.052993815 0.35845399
0.31789604 0.032069147 0.47620296
-0.78486425 -0.088336781 1.5691235
0.32144055 -0.15256739 1.141598
-0.036147185 0.051793672 0.72120881
-0.42062825 -0.20384064 1.263078
0.57253611 -0.1677433 2.10589
-0.36725101 -0.22832811 1.2988124
-0.415784 -0.22378418 1.372041
-0.59684592 0.056474805 0.76058984
0.01310011 0.056299131 0.34982181
-0.053203054 0.054593593 0.48534584
-0.38499907 0.028769838 1.7441072
-0.54451293 -0.17104241 1.5094514
0.54768866 -0.12797749 2.0894837
-0.28021997 -0.31796628 1.8956716
1.7383077 -0.41894367 4.6647096
0.15366429 0.042590376 0.71447659
1.4858363 -0.33480686 3.7370415
-0.456929 -0.12072585 1.3845007
-0.47600666 -0.07162042 1.4199579
-0.11806927 0.029829739 1.4205103
-0.36713025 -0.036338322 3.0131316
0.61481124 -0.3549456 5.3623309
-0.27512559 -0.20183074 1.3828309
0.45201963 0.020542111 0.65771723
0.1984573 0.06092976 0.27878284
0.63683718 -0.1635119 0.76784658
-0.18908697 0.060213327 0.35234952
-0.051074736 0.057083815 0.69545555
0.36370501 0.045537122 0.6107409
-0.31793216 -0.25545532 1.2568514
-0.4060421 0.029477416 1.6945698
0.3507801 0.01931031 2.0780559
-0.57107711 0.05149816 0.76285005
-0.20794496 0.053445283 0.36908221
0.33317414 -0.22345954 1.1284361
0.3293187 0.021926474 0.4673562
0.31818357 -0.21742672 1.1610725
0.32880756 -0.14313093 1.1132205
0.068779446 0.059637018 0.26790285
0.17719525 0.051135045 0.8560884
0.12400644 0.036343269 0.98944664
0.4456794 -0.17568469 1.9756367
-0.42465967 0.023340609 1.5929592
0.3699851 0.027993526 1.2344661
0.35425916 0.036752239 2.1632581
-0.22079507 0.052231841 0.35685945
-0.030598991 0.054777324 0.97635984
-0.32057741 0.067986667 0.51136756
0.40468246 -0.22340566 1.057487
0.42173433 0.044424117 0.51978135
1.0667424 -0.27094343 2.068135
0.24163491 0.046171125 0.67731285
-0.46822396 -0.12349909 1.4274397
-0.59443003 -0.19764954 0.87025476
0.31290454 -0.21399039 1.1346307
-0.0909952 0.051178597 0.84002566
0.26624134 0.05225708 0.48745847
0.3178418 0.032283857 0.47735834
0.13889343 0.05853356 0.34973145
-0.9361797 -0.093025304 1.3838665
0.13912407 0.058124237 0.39702249
0.33461088 0.026127681 0.46971631
0.7749036 -0.033926941 1.0356174
0.79338789 -0.035304535 1.0783081
0.31479007 0.028838268 0.47240615
-0.28777033 -0.17775628 1.8441091
0.31529483 -0.43544537 4.3747129
0.24162406 0.046807155 0.67814517
-0.016857155 0.046910048 0.91161919
-0.55758363 0.04300911 0.78635621
-0.49091259 -0.19838214 0.97601724
-0.21382162 0.045379817 0.73858857
-1.8147061 -0.0873181 2.683424
0.83494419 -0.031256583 1.8955004
0.2357024 0.050941564 0.37947249
1.1007649 -0.27114132 2.1265957
0.35139787 0.026557129 1.1218965
0.75582737 -0.029527456 1.4310362
0.21601263 0.056768507 0.34564233
0.082357101 0.0552551 0.49447656
-0.2996816 -0.27167588 1.7339969
-0.25551638 -0.23051369 1.4246094
0.25600842 0.044820935 0.90913606
0.35205665 -0.20202082 1.1165729
-0.45551035 -0.12141494 1.3882627
-0.59271294 -0.058009431 2.201282
-0.24341333 -0.21185908 1.8936698
-0.60029072 -0.19976318 0.87879705
-0.45281485 -0.27869686 1.39094
0.42590243 0.04451932 0.52531195
0.26340872 0.046725973 0.94345689
-0.59863168 0.032142177 0.77856445
1.1139752 -0.2430239 2.1929646
0.35285848 -0.12352047 0.62952781
0.99251693 -0.29649857 2.5326405
0.15930957 0.054513503 0.53285122
1.1763519 -0.24989936 2.3391848
0.39345479 0.0090071913 2.0970623
0.39904401 0.0043526962 1.2391667
0.35489908 -0.22024181 1.2004228
0.34127226 -0.21036884 1.1410339
-0.065658845 0.059848212 0.2691319
0.39375114 0.042511068 0.53419352
0.34017932 -0.20358369 1.0408654
0.21114776 0.056926221 0.34909058
0.31058055 -0.15783367 1.2557981
0.01095181 0.058303498 0.36602139
-0.19443199 0.052422926 0.52438426
-0.29467741 -0.35692963 1.9311876
0.43423823 -0.081033699 3.8731866
0.35941032 -0.16155222 1.4549379
0.2371347 0.051451847 0.49241614
-0.54317385 -0.058471665 0.86732674
-0.43018964 -0.17498362 1.3094332
-0.56267172 0.028936341 0.79326153
-0.51399177 0.041672736 0.86784959
0.73094207 0.017720129 1.6625233
0.1882675 0.049169838 0.75639629
-0.53362352 0.016203923 1.2647128
-0.11375455 0.057216775 0.40450883
0.67749578 0.0075096935 0.97735476
-0.21786413 0.051833048 0.54593778
0.3203178 0.0031936504 0.46678686
-0.18617144 0.0098095722 0.73019767
1.4367924 -0.19973606 3.7875705
0.098767243 0.050712284 0.71034908
0.027955286 0.05048329 0.717345
-0.51462382 -0.18156585 0.92339849
-0.48778698 -0.18784991 1.0740273
-0.61957926 0.055579856 0.76531315
-0.30436417 -0.22866759 1.3838868
-0.21075517 0.050858878 0.52800632
-0.36470857 -0.204036 1.3630521
0.39109585 0.039437845 0.73627543
0.21601579 0.057276342 0.34497261
-0.21226275 0.054825269 0.32177925
-0.075979538 0.044657283 0.73610449
-0.54484028 -0.14614826 0.71134138
-0.50810218 0.040367965 0.85621333
-0.07445886 0.059948966 0.26995921
0.48502108 -0.033623368 0.62401819
-0.066180848 0.059975423 0.26990056
-0.49791434 -0.19833538 1.3212879
-0.059429295 0.06148117 0.30721784
0.16176838 0.050912559 0.69246197
-0.39335683 0.057591636 0.87705278
0.094955809 0.058211554 0.35002875
-0.211521 0.051196154 0.5280354
0.21555781 0.057017699 0.34401059
-0.29535979 -0.13694638 1.6376216
0.3621043 0.044792645 0.60700512
-0.58918923 0.026159702 0.81293297
-0.2071749 0.049275964 0.64062071
1.1203628 -0.055988893 3.1501479
-0.31475338 -0.24235392 1.2737327
0.32240883 0.044567302 0.63153625
0.21973091 0.058273934 0.36644721
-0.19258881 0.054248907 0.43116522
-0.19747528 0.056747265 0.32408285
0.49229345 -0.1460624 1.2552795
-0.57817841 0.021094417 0.81700659
0.73214555 0.019886646 1.3901882
-0.19512418 0.046554267 0.71429706
0.33103698 -0.077446289 0.4713316
-0.52629298 -0.11930165 1.4423997
0.41224557 -0.16343042 1.7950623
0.32429314 -0.076352112 0.46283674
-0.23380694 -0.26962888 1.5284307
0.23225418 0.050538391 0.47783852
0.21387422 0.057633273 0.35633111
0.2374731 -0.25162491 1.2711623
0.11946505 0.047703516 0.94570827
-0.60011667 0.046711873 0.76343393
0.093194149 -0.030211754 0.89063573
0.86730683 -0.26201084 2.2692289
0.69239902 -0.15657508 1.9986801
0.11594608 0.04858879 0.90590096
-0.47940174 0.012578439 1.387521
-0.50796574 -0.17834872 0.91313195
-0.58223623 0.022446167 1.0619731
-0.55230206 0.015753377 1.4619446
-0.1826365 0.052287739 0.25681353
-0.088528328 0.0270504 0.32980371
-0.30554837 -0.19783634 1.2932305
0.32253671 -0.07530681 0.45754623
0.4163579 -0.12873116 2.7584858
-0.0067920014 -0.069125958 0.8069694
0.29976231 -0.12072716 1.5210321
0.2347452 0.05137597 0.48450208
0.21577209 0.057903461 0.35800529
0.19024831 0.082350239 0.41640806
0.20168459 0.052886602 0.80882668
0.012558199 0.056164026 0.3487463
0.49175712 -0.20423329 1.5056551
-0.59648776 -0.19256252 0.86051226
-0.18343511 0.053085193 0.78040934
-0.71052873 0.010112775 2.9554262
1.4582696 -0.15475452 4.0410933
0.18310079 -0.056058683 1.9000108
-0.21764937 -0.45490894 3.8776889
-0.21843222 0.054362535 0.27978063
0.042816617 0.056031086 0.2774303
0.32852286 0.006451495 0.47747445
0.37855858 0.047387742 0.63807893
0.22581708 0.055452082 0.31924319
0.14287671 0.055632938 0.37083983
0.14450017 0.059175473 0.2566309
0.070663534 0.051983297 0.35748816
-0.201801 0.056496315 0.35070133
-0.079911895 0.060871836 0.29489589
0.19792885 0.06106456 0.27768159
0.076036297 0.055527762 0.38515472
0.32320511 0.0054939315 0.47094536
0.32830054 -0.12312225 0.62864804
0.20680702 0.060303163 0.25104642
0.23782745 0.051670462 0.38294148
0.38451412 0.041450091 0.52300644
-0.61742467 0.048665203 0.76089549
0.1282084 0.057673775 0.3679924
-0.53599995 0.020416873 1.0380511
0.15014395 0.058087848 0.39379239
-0.18810129 0.059023801 0.39350295
0.31030309 0.042745702 0.60426044
-0.21304908 0.052926391 0.43459892
-0.072295584 0.065889746 0.30171871
-0.22058907 0.054929439 0.28345942
0.34192589 -0.12864244 0.65756559
0.30401692 0.0015849732 0.43869042
0.45023084 0.047745492 0.55738568
0.30778658 -0.19489831 1.1084015
-0.80049533 -0.17821386 1.5265384
0.32672366 0.029818019 0.47581387
-0.21691713 0.055708647 0.33005214
0.24565741 0.050742451 0.79008389
0.34371948 -0.19200945 1.067224
0.25407705 0.053573545 0.34445596
0.31564724 0.0042101182 0.45784211
0.06953565 0.060166325 0.27086449
-0.59137994 0.048145913 0.75350595
0.32837293 0.0321187 0.4742825
-0.54608476 0.046055913 0.80050588
-0.19359764 0.055943683 0.31639099
0.15589115 0.059046287 0.33536863
0.40154046 0.036809206 0.54282737
-0.060626514 0.058274314 0.40174341
-0.56242925 0.032223385 0.79247117
0.33043393 -0.086769104 0.4706254
0.14559692 0.060368013 0.29172134
-0.062786706 0.056617863 0.51924205
0.24732873 0.045181364 0.7177093
-0.41239467 -0.25349581 1.2614014
-0.19318339 0.052380573 0.52078581
0.33088204 -0.036268972 0.47145605
-0.069856487 0.05907679 0.41163254
0.31669021 -0.21666041 1.0790229
0.14754015 0.063748486 0.34146786
0.72151524 0.018331748 1.6403327
-0.052922986 0.055822022 0.50294256
0.07720428 0.056055732 0.38352132
0.32169235 -0.057716735 0.45454693
0.15435904 0.046828952 0.65083647
-0.45426306 -0.19947934 1.22086
0.47998995 -0.20119795 1.1643763
0.20096642 0.053692438 0.82881021
0.5901801 -0.19591406 1.6752634
-0.4172996 -0.22440386 1.378051
0.40950274 -0.21683478 1.0933588
0.31742406 -0.25309768 1.4529126
0.77253705 -0.047808506 1.9855139
0.30315363 -0.15320542 1.2179732
0.83691067 0.016848899 1.9431093
-0.053214692 0.054951735 0.49300385
0.3584516 0.02312988 1.4071982
-0.50037378 0.01627337 1.3139472
-0.5397495 0.05909415 0.83172917
-0.45389363 -0.12058202 1.3751876
-0.25098956 -0.28960216 1.4546525
0.7149545 -0.096367128 2.8352079
-0.45414147 -0.17529643 1.3139744
-0.38273525 -0.15124059 1.8800521
-0.056575827 0.060857832 0.74281788
-0.19928375 0.048200756 0.27572989
-0.11962438 0.032853778 0.42170835
0.37802368 -0.16145286 1.8808293
-0.032558955 0.049898386 0.69332051
-0.24043748 -0.2777406 1.383193
-0.27443874 -0.26235327 1.2654943
-0.11439242 0.055304963 0.96470332
-0.50483119 -0.17367712 1.427634
1.3087606 -0.048269026 3.3003259
0.22018057 -0.15799972 1.5660329
0.54762727 -0.088362888 2.3864999
0.83572072 -0.10871131 2.2917833
-0.21421075 0.066639796 0.4522512
0.41667864 -0.3743664 2.3495812
0.23841104 -0.26320726 1.255486
1.1681441 -0.37302634 3.0148883
0.039152317 -0.0080768801 0.20414424
0.58020926 -0.10482951 3.5991411
0.38749239 -0.11096285 1.8874836
-0.40847835 0.099347211 1.2009959
-0.23855737 0.064562142 1.1408415
-0.39720234 -0.10112559 3.2701554
-0.42519495 -0.20585626 1.2762125
