# .PCD v0.7 - Point Cloud Data file format
VERSION 0.7
FIELDS x y z
SIZE 4 4 4
TYPE F F F
COUNT 1 1 1
WIDTH 1423
HEIGHT 1
VIEWPOINT 0 0 0 1 0 0 0
POINTS 1423
DATA ascii
3.0493298 0.33036146 0.20496649
2.6082149 -0.60886121 -0.054112621
2.4476244 -0.29631662 -0.067295372
2.2305987 -0.17619275 -0.074181765
2.5782249 0.22431898 -0.066005617
2.9515591 0.55550009 0.22833753
2.2371666 -0.19765912 -0.074502647
2.8779008 0.4047482 -0.049559146
2.2471936 -0.066316515 -0.072660416
2.5304844 0.048757747 -0.059483595
3.0489364 0.21926433 0.21814105
2.3137255 -0.45738256 -0.056699436
2.807781 0.18100418 -0.057895422
2.129276 -0.049974736 -0.076631114
2.1858623 0.051305566 -0.073301561
2.9462881 0.30889881 -0.045311328
2.1122656 -0.17684057 -0.076678678
2.8705413 0.37492099 0.12237308
2.5569859 0.18383349 -0.022074122
2.6464467 -0.62965935 -0.054148037
2.2315798 -0.17648491 -0.074332468
2.1209338 -0.17855297 -0.077494621
2.2555778 -0.056685288 -0.072907425
2.2070746 0.056374677 -0.075254649
2.5123222 -0.46598339 -0.038589314
2.8797622 -0.90108019 0.019316114
2.1286576 0.048780344 -0.06812945
2.1371083 0.00097101193 -0.077023752
3.180851 0.32850608 0.0031500831
2.1719959 0.018325664 -0.078981623
2.095717 0.081829414 -0.072873086
3.0351977 0.60202813 0.24604496
2.3546357 0.054627102 -0.064740822
2.2420716 -0.19811739 -0.074389711
2.6385181 -0.6015256 -0.053841025
2.4406312 -0.2834253 -0.066388749
3.1754944 0.32562155 0.0036238804
3.1281314 0.66238999 0.17081347
2.6172824 0.037163574 -0.056626402
2.3008528 0.054818321 -0.067307428
2.584244 0.22568782 -0.065694079
2.5197999 -0.49360511 -0.033003367
2.1099296 -0.10643451 -0.072393134
2.1642797 -0.11171675 -0.077850506
2.2376127 -0.19680095 -0.073840171
2.3224132 -0.34821975 -0.07394626
2.2526524 -0.059972364 -0.071457922
2.2451923 -0.057795841 -0.07158383
2.3039114 -0.48182148 -0.063913807
2.2281706 -0.061505295 -0.068745196
3.3794127 0.052080028 0.26322478
3.4068148 -0.56809437 0.0097259805
3.4876099 0.21573584 -0.0065024868
2.6308398 0.35262254 -0.06565363
2.4921432 -0.4857834 -0.05277165
3.2779691 -0.47207317 0.25629237
2.5245798 -0.090918757 -0.067711405
3.1089175 -0.53628355 0.13566312
3.3303459 0.084395669 0.25046486
3.3716023 0.09598507 0.19215691
2.4412754 -0.28291023 -0.065823875
2.9643567 0.12619445 0.19360954
2.9622781 -0.037054516 -0.046861865
3.6446469 -1.7367626 0.12743679
3.1400774 -0.52901554 0.14199352
3.37272 -0.58935076 -0.02025748
2.3122807 -0.34571823 -0.070102759
3.0002339 -0.38198692 0.11061042
2.7904718 -0.35101154 0.021821909
2.1418679 0.078460619 -0.074459381
3.0786223 0.80935448 0.066835754
2.8222408 -0.42804959 -0.054650322
2.8532763 0.422328 0.16970348
2.1573889 -0.11126575 -0.076914907
2.7112329 0.020796748 -0.052924182
2.1761892 -0.10900482 -0.076437406
2.4032288 0.046725783 -0.06462422
4.2519193 0.41405043 0.11197638
3.5224819 0.027435692 0.35678291
3.996217 0.07624729 0.0968275
4.6965275 -1.0064493 0.16977277
2.6299124 0.35274902 -0.065608613
7.7972498 -5.35221 -0.5703063
2.2314532 -0.19333521 -0.072550006
3.2903183 0.29509667 -0.010664806
3.9401789 -0.036725897 0.37585539
3.9301755 -0.043357749 0.29342899
2.5664759 -0.24520691 -0.064090021
2.5289998 0.45370796 -0.063370213
4.5932312 -0.014554067 0.19744393
3.4299502 -1.2648677 0.046722777
5.4500136 -1.0974275 0.13042778
5.1575928 0.22449099 0.0080517232
4.5961118 -0.09451019 0.21397787
4.5476289 -0.095630534 0.19596666
4.3821111 -0.06807448 0.21268255
2.8221564 0.31532222 -0.13893391
2.1142032 0.0024841269 -0.07824479
2.5576134 -0.7487098 0.10014752
3.4313946 0.027661407 0.33778393
3.2288795 -0.62223887 -0.02338735
2.2162318 -0.46266782 -0.06873861
3.8052819 0.45795035 0.093348585
2.4363389 -0.27382016 -0.067321092
3.4700851 -0.038798556 0.38779303
2.9691236 0.6536991 0.25173607
3.3972514 0.66736144 0.096271954
2.6493025 0.36259156 -0.067112401
2.5600162 0.020273395 -0.057973921
3.9149985 -0.017172424 0.37818038
3.0960197 0.69024169 0.16855061
3.0149405 0.34706375 -0.057455525
2.8555253 -0.017932253 -0.054373775
2.6682518 0.23973449 -0.067503393
2.7992013 -0.091643654 -0.056313526
3.4567833 0.0024735034 0.19500077
3.1688097 0.33780438 0.0059763417
2.5095809 -0.46840057 -0.048435405
3.1238387 -0.5687542 0.19212499
2.4395771 -0.27468979 -0.067492589
2.1436357 -0.057522271 -0.067432635
2.2060645 -0.12230767 -0.076018021
2.4030824 0.046079211 -0.064564198
3.4481184 -0.61148793 -0.020067755
2.5351379 -0.81069523 -0.011159431
2.9803569 0.33977807 -0.0028113499
2.9138315 -0.37641186 -0.05362758
3.4348469 0.14856502 0.2210747
2.7434175 0.049301207 -0.066490524
3.4469836 0.19373591 0.072728954
2.3412971 0.044457879 -0.070468068
2.9243863 0.28145206 0.17120907
2.5246429 0.046799913 -0.059325755
3.9847765 -1.3534981 0.27108935
3.4115078 0.013065244 0.27732098
3.0956922 0.23515789 0.19721764
3.0776665 -0.46635342 0.18267047
5.4010801 -2.8389823 0.11787324
2.2003639 -0.20849538 -0.074590333
3.9269795 -0.6539638 0.28715485
3.002058 0.3426204 -0.029900949
3.4804213 0.22173735 0.0041675717
8.9541664 -5.4502859 0.34364286
5.0548553 -1.1194757 0.069991834
3.4060311 0.19422159 0.19773123
2.2577667 -0.24363466 -0.073630489
2.2079573 -0.12267026 -0.076331824
3.2665284 -0.62646747 -0.0070325509
3.1766136 -0.64858717 0.15647027
3.08445 -0.013594029 -0.05060111
2.4122486 0.048262663 -0.065217145
3.5305078 0.57300889 0.18631601
3.5617757 -1.7140495 0.14131457
2.8754992 0.35902062 -0.052419499
2.2538218 -0.27651149 -0.075265996
3.4580028 -0.59027827 0.22379115
2.8572791 0.46333197 0.15753466
2.418251 0.04286794 -0.065125443
3.1086049 0.23359396 0.1968981
2.8805878 -0.57775915 -0.042654261
2.5237894 -0.092558935 -0.066774823
2.2376382 -0.2530252 -0.072300233
3.4864414 0.19782211 0.010264941
3.6568689 -0.76440847 0.15775627
2.249958 -0.42893749 -0.066256046
2.3565295 -0.52003455 -0.049135558
3.1018052 0.23734339 0.19775113
2.5007808 -0.092630118 -0.064978123
2.9944849 0.36156943 -0.019364312
3.0122712 0.51645243 -0.057143085
2.977922 0.34238854 -0.02988147
3.0824416 -0.549891 -0.014013898
2.3918273 -0.51797414 -0.064427331
3.0873489 0.5988307 -0.04663641
2.6787071 -0.70865142 -0.049080767
3.7576351 -0.10041973 0.19607326
3.5334055 -0.51526046 -0.027732521
2.2506959 -0.42922732 -0.066431232
3.1029 0.62559438 -0.043939814
2.2063861 -0.054634873 -0.07036107
3.0855391 0.26495445 0.19553599
2.4641607 -0.22745889 -0.064454697
2.195889 -0.12124486 -0.074975088
3.0377526 -0.85965848 -0.034638904
2.2893767 -0.47235924 -0.062749654
4.4746056 -0.93193042 0.22331697
2.9067962 0.39065146 -0.033644076
2.5018799 -0.46398494 -0.047588132
3.0389788 0.70563382 0.20785728
3.3334799 0.067587189 0.25273705
3.7962193 0.083396189 -0.016386453
2.8906033 0.46800724 0.18355146
2.4594734 -0.28939784 -0.068548776
2.5697148 -0.68335366 -0.051777519
2.653259 0.027396629 -0.059645709
3.5740116 -0.095694527 0.16153124
2.5796344 -0.11097261 -0.062873729
2.6927204 -0.79355913 -0.0078969672
2.2555854 -0.32259139 -0.07380873
2.336323 -0.076869711 -0.06878759
2.1575563 -0.0065779872 -0.076303691
2.2926285 -0.4738771 -0.062785372
2.2005076 -0.12202064 -0.075574547
3.6016138 0.025308488 0.22391194
3.5446601 -0.55579865 0.29887325
3.098556 0.61835849 -0.034720793
2.9126146 0.21273603 0.16578671
2.2184393 -0.46429864 -0.068824396
3.632194 0.13439062 -0.013154879
2.6425369 -0.5439716 0.10169647
6.7584567 -3.0903611 0.88576269
2.2910457 0.05705002 -0.069749698
2.863307 0.47434455 0.15893513
3.3522677 0.052020583 0.19536424
3.1527827 0.32420325 -0.0040520877
6.5024185 -0.89043462 0.48855859
3.1039364 -0.62180096 0.20823109
7.9395881 -1.3618572 0.23911336
3.2559929 0.25298235 0.20952445
2.5213132 -0.4722583 -0.04264307
2.5671406 -0.58181411 -0.050800133
2.9473071 -0.2480925 -0.053108878
2.8993478 -0.59061486 -0.043507349
2.8312325 -0.091731638 -0.057127886
3.1633995 0.32722634 -0.0063411519
2.8922794 0.38561857 0.12437762
4.2733593 -0.87616646 0.20775679
5.9693232 -2.0082185 0.30671316
2.5967445 -0.32484502 -0.062832765
2.2196031 0.08257173 -0.078354076
6.4733791 -0.7891885 0.46174377
3.4916732 0.20190625 0.0055481419
2.657846 -0.6937235 -0.049114984
2.7309237 -0.42012602 -0.053539917
5.2104464 -0.077509768 0.22172356
2.9574678 0.36502591 0.19042891
3.0813291 -0.88823456 -0.067405254
2.9839246 0.28171435 -0.049619954
4.001358 0.44629991 0.099181779
2.6607966 -0.38609207 0.13420847
2.4639769 -0.36365509 -0.06724035
3.1651974 0.30873767 -0.017331183
4.0632691 -0.80507678 0.090666465
2.9080455 0.42266375 -0.051555417
6.8408747 -0.98866528 0.39098299
2.7204475 0.021048788 -0.053176507
3.6621778 -1.2836372 0.15436205
2.4928904 -0.63271463 -0.056808934
2.2547951 0.069952652 -0.065798543
8.4584284 -1.1457338 0.70652741
2.2939241 -0.39094165 -0.064435117
2.8720803 -0.43523765 -0.10360233
2.8944566 0.41938704 -0.053290289
3.5205188 0.16498983 -0.023738515
3.4243321 0.013545002 0.27848256
4.1606011 -0.89026839 0.14223349
2.997009 0.37808523 0.19461909
2.7306502 -0.41998222 -0.053309944
2.5266786 0.047639031 -0.059595592
2.5310638 -0.56006455 -0.051273886
2.4775991 -0.089591578 -0.064891696
3.0180182 -0.87573588 0.0016379878
2.5018995 -0.45829397 -0.04393883
2.7747712 -0.1508366 -0.055315703
3.0309179 -0.033991054 -0.049243964
4.4792447 -0.91830468 0.11497179
2.4068115 -0.35501438 -0.067801349
4.2688913 -0.70944989 -0.0036657378
2.6852612 0.20653665 -0.062514208
2.9342725 0.34669501 -0.045928698
2.9432511 0.36870363 -0.020519622
2.865104 0.35128766 -0.042838804
3.1564157 -0.54404718 0.16273126
2.4836345 0.053736266 -0.067366347
2.7347038 -0.78428781 0.1444
2.5087993 -0.47555903 -0.042024504
2.878669 0.36096901 -0.051264327
2.4333377 -0.2920481 -0.066876963
2.320502 -0.20332262 -0.068274744
3.9347751 -0.041894231 0.29182488
2.3457816 0.045918666 -0.070764467
2.5868356 0.040701602 -0.064243622
3.5257692 0.16636984 -0.024678688
2.7023664 -0.82498276 -0.061189987
2.8764594 -0.36599052 -0.052133933
3.0784781 0.20991875 0.17989576
3.0679488 0.59848958 -0.034261864
3.6360133 0.060366202 0.17286178
2.8664241 0.35079756 -0.041582309
2.3195312 0.084932998 -0.064285398
2.5845428 -0.11478154 -0.062509522
6.5125837 -0.3271153 0.56554627
3.9266067 -0.065160207 0.2182374
3.396862 0.18173154 0.16422564
2.2601848 -0.33855557 -0.067758784
2.4132185 -0.28440297 -0.068776816
6.1159039 -2.1115623 0.41699058
2.5640593 -0.2463198 -0.064482205
3.1719546 0.31128427 -0.016795911
2.3194687 -0.20361632 -0.0683088
2.5007792 -0.088938236 -0.067166612
2.7827582 -0.0073214956 -0.056839772
2.9801352 -0.19009301 -0.048846997
3.0455329 -0.98614025 0.028760776
2.4371476 -0.16213968 -0.067331553
3.1626534 0.34011468 -0.018985339
4.5408659 -2.100894 0.11476343
3.3022344 0.29317304 -0.0094853416
3.1552413 -0.53831017 0.14635822
3.0553987 0.25644794 0.18945366
4.1222591 0.4443368 0.11925655
2.7748163 -0.21241754 -0.054934435
3.2305229 -0.52642405 0.14867768
2.9739771 0.29530719 -0.040915526
3.8436255 -0.021841284 0.22924688
2.4959929 -0.23540415 -0.06889537
3.038151 0.21356939 0.18519238
3.4477541 0.0047189202 0.33149123
2.7924387 -0.059780721 0.17383024
2.5274622 0.028669078 -0.060655914
2.2481794 -0.063437134 -0.073858917
5.9278431 -0.051493201 0.15791276
2.4022548 0.045819093 -0.064501889
6.2081804 -0.92353332 0.24315178
5.9252682 -0.29853305 0.4699567
3.1229105 0.15522037 -0.10104026
3.6298606 0.19615474 1.5988946e-05
2.448555 0.033456888 -0.068291515
2.3178265 -0.20307539 -0.068233669
3.6266522 0.13320045 -0.013042562
2.349575 -0.075717881 -0.070217982
2.4552333 0.045861337 -0.061199754
3.1365416 0.45954102 -0.072685018
3.5966356 -0.84127474 -0.015529063
3.3488479 0.087954588 0.25430462
2.8689847 -0.8461808 -0.0075957775
2.9550893 -0.86002493 -0.013490431
2.43118 -0.5246464 -0.059587065
3.5397584 -0.13230291 0.13949269
3.4870236 0.21487348 -0.014167361
3.035533 -0.48868334 0.18417764
3.2826376 -0.48987529 0.28531942
3.349617 0.050278675 0.19510373
2.9148886 -0.37769136 -0.052186869
2.3162858 -0.33758309 -0.071370691
2.8281441 -0.820885 0.018266313
3.4429531 0.015072675 0.28222382
2.7312157 0.22842559 -0.066232309
3.1387589 -0.52801627 0.18962008
2.4614682 -0.36193329 -0.066942185
3.1203063 -1.0224885 0.1379779
4.0224333 -0.69418097 0.29683638
2.4572499 -0.30030847 -0.068352513
3.5210743 0.24860431 0.12303288
3.8875916 -0.068853647 0.21211034
2.5719478 -0.36772501 -0.062474065
5.7281113 -1.9328402 0.23598224
3.4635258 0.25395662 -0.0095374361
2.3608623 -0.069382921 -0.070577227
2.9050963 -0.3070367 -0.050851345
3.007015 0.2827332 -0.049972136
3.2213836 -0.47252637 0.27457952
3.2828441 -0.57639825 0.22888529
5.2789907 -1.6273626 0.083057277
3.1345477 0.23973019 0.17932707
2.3398333 -0.20811759 -0.070475638
3.4048302 0.23376366 0.19676632
4.0802135 -0.010645768 0.020200782
3.3435628 0.27082574 -0.011559002
2.6036012 0.040778145 -0.056167513
2.816854 -0.37847593 -0.055684812
2.9537029 -0.45606512 -0.048316583
2.8622525 0.45211071 0.13172224
2.4677784 0.050285634 -0.061777502
3.1666675 -0.55859154 0.22055638
4.0547662 -1.1219839 0.053200632
2.3923886 -0.35353795 -0.06639985
4.7568769 0.28578261 0.082699858
2.5004053 -0.088310011 -0.067722961
3.1738784 -0.49729487 0.25375324
2.4688191 -0.23023292 -0.066654854
2.5533798 -0.24291907 -0.062894031
3.5986941 -0.65209484 0.16800356
2.9142418 -0.029446889 -0.050685093
2.7778494 0.0001092871 -0.048811611
2.826035 0.34077615 0.13944396
4.2333713 -0.73201913 0.36244622
2.7478361 -0.34159914 -0.056982428
3.7010689 -0.023046073 0.34237117
2.4675887 0.050378993 -0.061587628
3.0646403 0.30327141 0.18204132
3.3517184 0.05069105 0.19551662
3.0920074 0.21562405 0.1808506
3.2556028 -0.82320559 0.044328287
2.412395 -0.35775667 -0.068349645
3.5174513 -0.042092573 0.25829914
2.518774 -0.33544731 -0.078053266
4.0450983 -0.50587076 0.060141079
3.1520493 -0.55820799 0.20181364
3.4384677 -0.71898711 0.19270858
3.0942252 0.60122883 -0.052909143
2.6277425 0.038707305 -0.057135157
2.8839412 -0.30091658 -0.049289413
2.6135428 0.020988161 -0.058063082
2.5205057 -0.46746814 -0.047612105
2.8577125 -0.38879207 -0.057390224
5.8768649 -1.6178906 0.12126208
2.8749404 0.38517901 -0.056729779
2.9497054 -0.45405877 -0.048401147
3.3428319 0.15160897 0.22919735
3.2635708 -0.62961471 -0.0042618588
4.0968843 -1.1390549 0.24317795
7.2163506 -1.0452282 0.22028449
2.6248431 -0.66802752 -0.049069472
3.9147761 -0.057150543 0.25360888
3.2696195 0.28678867 -0.012445778
2.4574187 0.064187758 -0.060764022
2.4175148 0.0576391 -0.063005701
3.5217617 0.24819918 0.12748456
2.4017081 -0.35206172 -0.0672509
5.8502631 -0.73824954 0.22300395
3.0723844 0.30744413 0.18444154
4.1930728 -1.3678104 0.098234199
2.8771899 0.38696718 -0.04516691
3.7495863 0.10914056 -0.018008403
2.7611256 -0.45098311 -0.043546177
2.4613359 -0.23002125 -0.066666424
3.067461 -0.51824397 0.20152092
2.8855355 0.38879761 -0.04963794
3.2113283 -0.82408607 -0.031302359
2.910145 -0.64182633 -0.039712362
4.0098953 -0.76386619 0.18737072
2.6130159 0.020881344 -0.058017865
2.7443449 -0.34798193 -0.05674981
2.9439118 0.30737364 -0.045629386
2.8345029 -0.56553262 -0.044032212
2.7177496 0.0055635478 -0.055731282
2.906666 -0.37522587 -0.0527054
2.5013514 -0.46725211 0.024294429
3.3172283 0.16041388 0.19778714
3.1248434 -0.51770288 0.19905469
2.5714424 -0.24833705 -0.066954449
2.5025408 -0.48049182 -0.037559491
3.8157723 -0.73312849 0.19753641
7.5752873 -3.1596675 0.44841921
3.3638468 0.049508248 0.25964457
3.114038 -0.56137967 0.19131041
2.8774412 0.38502783 -0.055986166
3.2083299 0.080269665 -0.0055514649
2.8706377 0.44782054 0.12516224
2.8761744 0.23283064 -0.11404011
2.9929068 -0.32497329 -0.049183272
3.2672274 -0.6298269 -0.0052393675
2.5575349 -0.24293877 -0.06272991
2.4343436 -0.52707177 -0.059930488
3.4882879 0.24491571 -0.011406846
3.9428864 -1.0648987 0.23350036
2.4330389 -0.16267109 -0.066926531
4.0384011 -0.68096614 0.28126267
2.6209171 0.037971392 -0.056699567
3.3797464 0.094219729 0.19787499
2.4385428 -0.16416675 -0.067023002
2.7905235 0.0021015014 -0.050021451
2.7302496 0.25888574 -0.070277497
4.1876879 -1.2061098 0.27101541
3.4756308 0.19042221 0.124056
3.4338591 0.14796996 0.22085366
3.9470294 -1.062469 0.055857249
3.4998758 0.22711563 0.17391917
3.0696363 0.22068124 -0.12028483
2.4331908 -0.38231137 -0.061444767
3.0749645 -0.60824251 0.20193771
2.4470868 0.045510847 -0.064662188
3.0814996 0.22461922 0.18377468
2.5071955 -0.47253671 0.00053251535
2.577266 -0.11426178 -0.061683819
2.9021919 -0.11881869 -0.051396407
2.4886656 -0.088334136 -0.066823527
3.6354344 0.54139435 0.18495002
3.1575832 -0.47799554 0.20670116
2.7190435 -0.12968448 -0.059933051
2.5648613 -0.11340873 -0.061029244
3.4213219 0.21337016 0.16345599
2.4975982 -0.47783864 -0.035846103
2.9117305 0.33296007 -0.04527244
3.9849162 -0.74153984 0.056358866
2.5304024 -0.38850003 -0.060549729
3.4378517 0.13593291 0.18385211
2.5135734 -0.46689624 -0.041787073
4.0381999 -0.0086064842 0.2527355
4.2443919 -0.84063184 0.21130612
2.8034475 0.016270841 -0.047329947
3.3579643 0.024913888 0.26314455
3.9150398 0.73026615 -0.30944955
4.0423832 -0.01094627 0.25073358
2.6194341 0.042809881 -0.065313667
3.4580474 -0.019563776 0.27719927
2.6279607 0.038591504 -0.05677437
4.3733764 0.25414303 0.08284881
5.3683929 -1.9735636 0.38961667
3.3412902 0.20590274 0.20382482
2.4320548 -0.1845703 -0.066616662
2.5080626 -0.48117381 0.069724195
2.7992084 0.17920615 -0.058028974
2.3566301 -0.077599071 -0.070218235
2.3363576 -0.33405921 -0.072237514
3.2384686 0.18467483 0.17015734
3.4376535 0.23325282 0.21972856
2.782155 -0.095329739 -0.053804148
3.3596683 -1.3888835 0.10218316
2.8563449 -0.027432166 -0.053157572
3.470716 0.22467296 0.16521093
2.46263 -0.23072512 -0.067072585
3.2561257 -0.85610658 -0.030112475
2.4038317 -0.36050957 -0.068648756
3.1252213 -0.52074915 0.20160815
2.4409914 -0.36736521 -0.067649297
2.5282328 0.048034023 -0.059218701
2.5777369 -0.11371869 -0.061775457
2.9970136 -0.81895059 -0.03474265
2.8909478 -0.24239597 -0.05220772
5.9463625 -2.1907589 0.29498166
4.0341377 -0.078336015 0.31715575
2.4492121 -0.29754204 -0.067280881
2.9816663 -0.76270908 -0.024080746
2.5068381 -0.47168142 -0.016572375
3.8979948 -0.047181819 0.37834722
2.5028639 -0.23519909 -0.069574177
2.6125789 0.020901375 -0.058125153
2.5085011 -0.48116243 -0.032922439
3.258847 -0.85546416 -0.029527534
2.9121342 -0.11984289 -0.051277921
3.1445904 -0.54885179 0.13921362
3.3074365 -0.53081232 -0.034380972
4.1713524 -0.5857662 0.060319729
3.2125506 -0.66428381 0.16588253
3.092792 0.29879591 0.19459891
3.2442334 -0.62152541 -0.0028817803
3.9117553 -0.59211588 0.23346281
3.7291381 -1.0325657 -0.011062689
2.3385985 -0.33524895 -0.072855525
2.5658178 -0.11130256 -0.061831869
2.4859226 -0.39766553 -0.058734447
3.9972196 -0.68822896 0.29277262
2.709089 -0.13004605 -0.059072509
3.1064067 0.2742036 0.17982161
5.2081132 -1.7791873 0.084496669
3.1182575 -0.52210385 0.14019397
3.5245256 0.23319441 0.17730585
3.3303483 -0.70985085 0.15006113
2.7939751 -0.36676344 -0.054117989
3.4631572 -0.13962451 -0.024757221
4.1373882 -0.70376939 0.3486205
3.8773527 -0.51589572 0.029058211
3.3974042 0.03740349 0.21939048
3.9949155 -1.0381393 0.097211413
2.973526 0.33011821 -0.0020782575
3.9254062 -0.66688919 0.15412349
3.4145753 0.23611872 -0.010439344
4.232491 -0.74458277 0.003115423
2.9118564 -0.17391394 -0.050628327
2.9478731 -0.17450097 -0.052951105
5.7083106 -1.4154325 0.15863916
3.8413095 0.13424312 0.0033291355
3.1875131 -0.24728853 0.079575174
5.9208798 -2.11308 0.38751566
2.9779441 0.33197892 -0.0022006109
8.048419 -3.0848851 0.61084521
2.8391941 -0.41086391 0.024868049
12.814042 -8.3737087 0.42636555
2.9750609 0.33195302 0.033960454
6.6898971 -0.36773175 0.55098969
8.3627281 -0.9391405 0.70532817
2.7849116 -0.091964699 -0.055541988
3.4175169 0.23443218 0.21935952
2.9949419 -0.04312646 -0.047332462
3.1728299 0.23661877 0.17030257
3.4375732 0.24618201 -0.012153927
2.588846 0.027855998 -0.058414437
3.1658168 -0.77776939 0.17841747
3.4381926 -0.79064244 0.2194277
2.9858115 0.34320399 -0.0043835118
3.5154631 -0.79876363 0.22242463
3.1932251 -0.91028637 -0.016293172
2.5648899 -0.2452637 -0.063455969
3.124429 -0.51877981 0.19840628
3.1043587 -0.90807122 0.00065490603
2.7880483 -0.090047024 -0.056110024
3.5081787 -0.79709876 0.22228211
2.8900614 -0.011954444 -0.046577986
2.9428272 -0.4514432 -0.048203781
3.3752909 -0.9168269 0.048701286
3.3328485 0.12512176 0.23027265
3.489459 0.22304295 0.14752105
2.6074107 0.040295426 -0.056351181
3.1656973 -0.77713054 0.17676318
2.704474 -0.26611754 -0.053779319
4.0170088 -1.4668353 0.28724861
2.5779033 -0.31805345 -0.061413839
3.076596 0.26100183 -0.069626488
2.8973079 -0.10069188 -0.051689766
2.9881988 0.23097184 -0.065049484
2.8691576 -0.026219629 -0.051658235
3.4273181 0.231618 0.26435325
2.7810204 -0.091022663 -0.055382602
3.3908699 0.22965857 0.19732136
2.7202065 -0.1287567 -0.060591437
2.9104717 -0.73768586 -0.027714387
3.2187078 -0.61866498 -0.023428187
3.4424908 -0.77829432 0.19577622
3.1049895 0.22798426 0.16574869
3.1409237 0.29946634 -0.018294659
3.2392113 -0.6285134 -0.024702374
2.5068772 -0.47769296 -0.043791477
2.6073971 -0.13849199 -0.060850173
3.4670336 0.19566496 0.073313929
3.1788356 -0.75424916 0.14187396
2.8927391 -0.44103903 -0.050703056
3.3792777 0.16590849 0.17522764
3.9659238 -1.3925065 0.28532812
2.8041608 -0.37436143 -0.055359431
2.923866 -0.64063567 -0.03859517
3.1946776 -0.911654 -0.016116828
2.9159355 0.16435747 -0.055380702
3.4765723 0.19269349 0.1029455
3.4729795 0.21070851 0.14386025
3.4740691 0.1892003 0.12382511
2.5047634 -0.47341892 0.039714478
3.5245028 0.24699542 0.21551991
3.3969512 -0.74282384 0.2022281
3.1809945 -0.78627211 0.17983627
3.336175 -0.71077335 0.19468483
3.1426198 0.22543497 0.16663849
2.7937293 0.014606284 -0.047399826
2.6174939 0.012217388 -0.054900933
2.8354194 -0.36968291 -0.05378262
2.6905234 -0.26957735 -0.059749559
2.6132736 0.0208671 -0.058286853
3.3529844 -0.71749544 0.1989004
3.163991 0.31972715 0.0041631833
2.8028133 -0.37164414 -0.054600075
3.1881518 -0.77605397 0.19907534
2.5903497 -0.079343118 -0.062755555
3.1836369 -0.60246021 -0.01999791
2.6496894 -0.5336647 -0.054317992
3.7512324 -0.94396687 -0.017494228
3.6213224 -0.97883409 -0.01365637
3.6824269 0.52329725 0.18937579
2.9026406 -0.10053618 -0.051574595
2.8497281 -0.019932583 -0.053682741
2.7569785 -0.21131125 -0.052973665
2.7951372 -0.15389524 -0.055337351
2.9280429 0.2115227 -0.061913952
4.0942783 -1.4410683 0.20116124
3.1168261 -0.34984899 -0.041667279
3.2255344 -0.62034154 -0.024649803
2.5064685 -0.47972515 -0.033167772
3.9697859 -0.83903021 0.18837002
3.466496 0.22509183 0.16398934
3.4077721 0.037844494 0.22525752
2.7288055 -0.15742187 -0.058620237
2.5051863 -0.47732636 -0.0021418631
2.8048937 -0.15388146 -0.056294955
4.0368075 -1.3667636 0.28429163
5.1315489 -1.9965084 0.28207919
2.9104803 0.31575444 -0.055026591
2.5160306 -0.47914881 -0.016886968
3.4982357 0.21616028 0.14951894
3.3967221 0.5889594 0.1751034
2.9025047 -0.37212163 -0.050912738
3.7210252 -0.75244576 0.016773425
2.959229 -0.11373098 -0.054194629
2.7038665 -0.13193209 -0.057778105
3.5043037 0.20226392 0.10043485
4.2293663 -0.71913105 -0.0048016906
3.4468985 0.18824099 -0.026329443
4.7795758 -1.5018058 0.059734456
3.7477589 -1.0491589 -0.012372311
2.9080617 -0.64039147 -0.038643353
3.0112617 -0.19878781 -0.047982238
4.2434521 -0.75113201 0.0064207986
3.4566181 0.22699746 0.20328841
4.3226366 -0.65106541 0.23824868
4.2452936 -0.72141963 0.024249427
2.9840093 -0.82729977 -0.034525294
3.7408988 0.114354 -0.0014486834
4.235806 -0.73429018 0.33311111
3.8484204 0.13049352 0.0032563806
4.0231409 -0.6202907 0.24841115
5.2145514 -1.59799 0.075631075
2.9086645 -0.73503709 -0.025858212
5.7281442 -2.0125966 0.37601677
4.4541507 -0.75728941 0.30041775
5.9330645 -2.0328019 0.22573036
3.015676 -0.19577263 -0.048436195
2.7715445 -0.1501721 -0.05451823
3.1592066 -0.5338949 0.19266382
2.9876494 -0.80845869 -0.034387529
2.9753966 0.3380284 -0.0027946159
3.5236318 -0.16690899 -0.024847608
4.1444988 -0.74312669 0.1237954
4.9709902 -1.7402966 -0.00056228787
3.4781084 0.55871689 0.090468653
5.7951055 -2.0623171 0.36913183
4.9070606 -1.3690473 0.09707164
3.0808175 0.29113823 0.13474655
6.759346 -3.7362771 0.20413095
2.740525 -0.34693471 -0.056464642
3.3425982 0.048727099 0.19415623
3.4868605 -0.13757794 -0.024934981
3.625921 0.18564382 0.00010125339
2.6592414 -0.24416845 -0.05929406
2.7172394 -0.39583558 -0.059346527
3.5676732 -0.84388852 -0.016098645
2.7821009 -0.013052896 -0.056730404
2.8731265 -0.57424837 -0.042905744
3.2429688 -0.63553977 -0.0074431226
3.0134861 -0.85555065 -0.035640217
2.8452361 -0.01087207 -0.051696748
4.0338545 -1.5059896 0.23040587
4.0947309 -0.6368978 0.26054505
3.9828475 -0.075805925 0.31105804
3.3365836 0.18409562 0.22211695
3.8588543 0.13307996 0.0029277876
4.0997138 -1.5433002 0.36939055
2.6761267 -0.26691365 -0.058902912
2.8762698 -0.24203037 -0.051712811
3.8652241 -0.010101767 0.29204652
3.4786775 0.2050904 0.039386325
3.0861266 -0.12063086 -0.049657367
3.4557467 0.23923242 0.22861767
2.7097564 -0.0070681367 -0.056411259
4.6398273 0.2558184 0.061789863
2.8540306 -0.43662822 -0.05094469
2.5914738 -0.32646894 -0.063815661
4.3521013 0.29216665 0.17583832
3.7434208 0.48026496 0.093352579
3.952275 -0.032656115 0.32426172
3.8392506 -0.55765092 0.032724582
4.1182613 -1.5166119 0.2265918
3.4151957 0.22915155 0.21789381
2.9579508 -0.03137419 -0.043741647
3.5714355 0.55053312 0.186138
2.8220232 -0.033516314 -0.050348893
4.975781 0.062417384 0.10671141
3.0754569 -0.14918037 -0.045480292
3.789808 0.49630234 0.23521766
2.9698308 -0.040850919 -0.047189303
2.7790744 -0.28283277 -0.056006446
3.9411736 0.44559732 0.19784957
2.8535392 -0.37356836 -0.053483006
3.4698215 0.18795998 0.12037577
4.8810391 -0.08604221 0.11244131
3.1813529 -0.91016722 -0.028409168
4.2528358 -0.72537136 0.023851484
3.1541903 -0.90953594 -3.7029386e-06
2.711314 0.003674265 -0.05484771
2.9439323 -0.24707256 -0.050225787
3.1734791 -0.90337986 -0.028319631
3.9671121 -1.4452461 0.38420156
3.5265377 0.02802253 -0.033739276
4.0025601 -1.5638667 0.24890488
2.787348 -0.28543803 -0.057267267
2.9216628 0.16338147 -0.054864831
2.776545 -0.43467808 -0.052786045
2.65236 0.022520574 -0.055119477
3.3872907 0.26128063 0.21063304
2.8324432 -0.014373554 -0.050555535
2.8188472 -0.0064042825 -0.049748
7.3564782 -4.2300062 0.20901763
3.9465473 -0.036967147 0.35585561
2.8137677 -0.36038506 -0.052751787
3.4729741 0.19802135 0.074373879
2.9359553 -0.24599151 -0.050058421
3.2267697 -0.91207528 -0.017357685
2.8951724 -0.4409689 -0.05133564
2.7753277 -0.28212383 -0.055761606
3.4865234 0.2136074 -0.004414916
3.7623253 0.11134531 -0.017026968
3.6321151 -0.7151686 0.00019917637
2.691103 -0.33984771 -0.058576249
2.7412324 0.028498886 -0.054906957
6.5336385 1.8800943 -0.70612288
3.5053725 0.55988544 0.18006587
5.3576994 -2.0896521 0.34585267
3.4693036 0.18727039 0.11980348
4.0666142 -0.65198165 0.26638174
3.4057097 0.079126656 0.16663054
3.5049782 0.24719594 0.15061793
3.741996 0.50142246 0.20574519
4.0741959 -1.5251647 0.36404601
2.7796273 -0.28272074 -0.055895571
3.3522868 0.21107717 0.20839995
2.7749567 -0.28227437 -0.055908613
3.4794316 0.20823148 0.079852499
4.5878835 0.28962696 0.09144976
3.1967845 -0.51507008 -0.039630257
3.0455055 -0.86867791 -0.035092257
3.1614316 -0.23000339 -0.043541484
3.4368865 0.011424528 0.22699732
3.8489647 0.482117 0.19736251
2.9110446 -0.17191179 -0.051240701
3.2948744 -0.52947187 -0.037052907
3.8926854 -0.08949063 0.32721624
2.8117375 -0.14894015 -0.055761628
3.3858669 0.23816042 0.19282377
2.8946528 -0.44155958 -0.051535938
2.793093 0.0032134764 -0.050029375
2.7745607 -0.21090353 -0.056001075
2.6671016 -0.2632938 -0.057454616
2.7328851 -0.15723145 -0.059080906
3.9075193 -0.043703135 0.33944169
3.3519905 0.15692273 0.17099246
2.8564258 -0.37808597 -0.054686926
4.4751177 0.22947682 0.059282295
2.9174871 -0.10054673 -0.051821135
2.9211774 -0.12043412 -0.051933769
2.6382072 -0.3361429 -0.063146606
3.9675341 -1.5231384 0.19845891
3.8586404 -1.4394367 0.31738639
2.9294662 -0.24429233 -0.049706772
2.8517582 -0.35677549 -0.053230889
4.1182747 -0.70422536 0.1879378
2.9700005 -0.11620095 -0.050435208
3.7311265 0.36378908 0.27683908
3.409044 0.26790047 0.21452877
3.1209254 -0.65589207 0.16416174
3.2020957 -0.60794437 0.15427536
2.8568981 -0.025768619 -0.053543415
3.293561 0.26764396 -0.015140176
3.2612145 -0.93255198 -0.024429403
3.3946707 0.22424792 0.21644202
3.078182 -0.93780315 0.026667431
7.2262597 -0.83990973 0.46114975
3.8691866 0.053182267 -0.0376577
3.9713271 -0.66853839 0.22755855
2.8979046 0.15489946 -0.053511262
3.0811248 -0.14861177 -0.045843557
4.4553003 -0.86352438 0.080019183
2.7834995 -0.55237919 -0.04656918
2.8067813 -0.3755613 -0.055816766
3.3737016 0.16280609 0.17215428
3.205152 -0.57819915 0.14617914
4.6132674 0.25200513 0.06434419
2.9188831 0.16184416 -0.054784499
7.647696 -1.3763347 0.26394057
3.9680569 -0.074753702 0.29344827
3.9266648 -1.4394435 0.30762139
2.9403121 -0.10086026 -0.054468721
3.9083204 -1.483277 0.39543435
3.4217563 0.14635818 0.2188504
2.6651826 -0.26080003 -0.056568302
3.4871294 0.24615575 -0.0075329356
2.556618 -0.24347156 -0.062706672
3.5557714 0.0066642389 -0.030580781
3.8972631 0.46337995 0.19772071
3.1512628 -0.55742943 -0.030248497
2.8093419 -0.14896263 -0.055297036
3.7563357 -0.0057530571 0.26513621
3.3131771 0.22911288 -0.030268531
2.7679689 -0.21017516 -0.055203043
3.3050287 -0.66011208 0.17388311
3.7405195 -1.4018292 0.13207757
2.9200501 -0.12110768 -0.051999256
4.174542 -1.624995 0.25538453
4.0434818 -1.4306619 0.2805801
4.01297 -0.68550706 0.23369259
3.1881509 -0.5748294 -0.030954201
3.6128888 -0.62958264 0.21044084
2.780267 -0.098594934 -0.055597078
3.2661114 -0.6392101 0.16775894
3.2647414 0.28580776 -0.018533576
2.7697649 -0.20935972 -0.055739187
2.6994519 -0.12850343 -0.058630925
2.7868044 -0.097796857 -0.05641064
3.506748 0.19567059 0.003688097
3.2766261 0.30106053 -0.0051175058
2.8548427 -0.43768787 -0.051262312
4.0730886 -0.69009328 0.28829136
4.3599081 0.32825792 0.11723945
3.354326 0.2459918 0.19080517
3.0078263 0.23834281 -0.06589631
2.8979373 -0.24482642 -0.053269848
4.2827129 0.24309251 0.14439622
4.0821276 -0.63215625 0.25847092
3.630259 0.067865446 0.17350897
3.2295432 -0.62256986 0.15754354
3.4565847 0.29615244 0.2144722
3.7942259 -0.0028563123 0.27133885
4.0862093 -0.69089401 0.19132304
2.7871363 -0.15522598 -0.054236203
2.7447433 -0.18300319 -0.056807771
3.4628007 0.20117605 0.07214155
4.1252952 -0.70785713 0.18086809
4.0734444 -0.69790983 0.31916091
3.490695 0.2416953 0.14846033
2.8750174 0.10288535 -0.066974282
3.6515274 -0.60786062 0.17608118
3.9499648 -1.4545593 0.3085351
3.4805095 0.24438551 -0.0078047514
3.9299335 -0.07324452 0.29267964
3.304657 0.25580868 -0.040770531
3.3982692 0.035218775 0.22380781
2.9559774 -0.6857174 -0.034668632
2.9204299 -0.11551468 -0.053183354
3.6980264 -0.5335024 0.023672514
3.2730684 0.24759918 -0.040293984
4.3726106 0.33365235 0.12036598
5.0621061 -1.8233595 0.45001203
3.9845066 -0.76320302 0.07573951
3.2271051 -0.632882 -0.02439275
3.6603487 0.032151125 0.19460002
2.7161236 -0.12820129 -0.060854886
2.9282312 -0.24439771 -0.050290965
2.8751216 -0.59884727 -0.042655855
3.4137139 0.22578494 0.19388148
4.023037 -0.080656543 0.34479317
5.984787 -0.28984284 0.39722633
3.2844706 -0.81465638 -0.029799696
3.7931187 0.4611806 0.28746954
3.5737908 0.016663047 0.21816331
3.3955858 0.035065003 0.22251767
3.1794097 -0.23348071 -0.042472787
3.8906159 0.46303415 0.23768097
2.8558929 -0.43823105 -0.051243823
2.9109995 -0.17083691 -0.051744804
2.738658 -0.0053119492 -0.058114126
3.6619513 -0.60222131 0.23903209
3.9663048 -0.66700107 0.2888214
3.4786589 0.20166436 0.06007915
3.8505123 0.48230481 0.19486758
3.9973722 -0.86333066 0.19060427
2.8524935 -0.3569144 -0.053151682
2.8823659 -0.30211103 -0.050274678
3.3478739 0.24985163 -0.0097911432
4.9970746 -0.98598135 0.28140432
3.1153767 -0.72338158 -0.02461566
3.3353252 -0.74759996 0.20779771
2.9728444 -0.042714294 -0.047480144
3.2325869 -0.84146148 0.027484044
3.7668834 0.11193953 -0.016780581
3.200527 -0.53195024 -0.039919488
2.9612143 -0.11455659 -0.050464988
3.6212699 0.18383475 0.00085084885
3.1209786 -0.85611564 -0.02627736
2.7811041 -0.098754451 -0.055799428
2.8899183 -0.30541819 -0.051665403
3.9430158 -0.06980025 0.29526204
3.4014587 0.19823873 0.17558229
3.3634021 0.23532026 -0.014319181
3.0720489 -0.4790054 -0.045595698
3.1616788 -0.5597021 0.14389259
3.3412712 0.072283968 0.19416726
3.147469 -0.90189266 -0.020519696
3.5162015 0.19841163 -0.0067250431
3.2355688 -0.91263062 -0.023866024
3.494518 0.24261023 0.148785
3.3440127 0.22766753 -0.012335598
3.4721751 -0.68604439 -0.024026416
2.7290585 -0.003706269 -0.043134581
3.6403146 -1.1065476 0.055209868
3.3463762 0.22348681 -0.013401147
3.402452 -0.94005603 -0.024124537
3.4625216 0.23207065 -0.031917542
3.3089106 0.22675356 -0.030539148
2.7460003 -0.34174153 -0.057024501
3.5034053 0.36276674 -0.048342213
3.5498466 0.20622657 -0.0054251403
2.770165 -0.20950994 -0.056448847
2.8155563 -0.42582613 -0.054795608
3.7408934 -1.04135 -0.010817517
3.8418777 -0.0021521542 0.27868629
3.7154677 -1.2540053 0.048761733
7.4309273 -0.85682911 0.4774521
3.8861892 -1.4077678 0.3378776
3.5482194 0.0042365156 -0.030521765
3.7872477 0.49539363 0.23462641
3.2510858 0.25147939 -0.040377498
3.8280458 0.47379705 0.23445681
3.1322513 -0.42588612 -0.043905184
3.4836192 -0.11581529 -0.012882102
3.4663699 0.18698698 0.12317435
2.7901051 0.0023243017 -0.050203353
3.9384391 -0.026152683 0.23227188
3.6262047 -1.0035132 -0.012034938
6.3348827 -0.94979858 0.27924713
2.7809577 -0.28500679 -0.056974806
2.9828916 -0.04019637 -0.047939077
3.0378575 0.2409645 -0.06635496
3.1987951 -0.54184967 -0.098182023
5.7951612 -2.924592 0.1288206
2.9904566 0.061896462 -0.072424114
3.8871217 -1.4504553 0.17423129
3.9874933 -1.6339885 0.29270813
3.3795156 0.19032632 0.17254561
2.9052751 -0.17092857 -0.051074982
3.1968932 -0.23783006 -0.042340979
3.4865882 0.19834051 0.098172702
3.4368219 -0.42542082 -0.035421506
3.629925 -0.98923761 -0.015148845
10.388803 -6.9968815 0.35081482
2.8026319 -0.47381899 0.011102192
2.7240684 -0.0027850214 -0.057824172
3.544889 0.25250125 0.1625888
3.9426405 -0.060246076 0.32318169
5.179225 -1.7070688 0.069705598
3.0336645 -0.20299608 -0.048957456
3.5619576 0.054017249 0.16184735
2.8901801 -0.011921085 -0.047131971
3.0005887 0.090779364 -0.078808472
3.0696843 -0.47703055 -0.045146972
4.307054 0.24620086 0.09761446
3.4691913 -0.13667169 -0.024413992
3.6672657 0.51556593 0.1874935
2.8775547 -0.22713867 -0.051234141
2.9602914 -0.52008736 -0.068341285
3.8581841 -0.060365479 0.26993084
2.9585528 -0.031669028 -0.043783326
3.9496174 -1.2045603 0.053822927
2.9133646 -0.12230576 -0.050720073
2.6915145 -0.34023309 -0.058844492
3.2226894 -0.62128055 -0.026242044
3.476609 0.20087282 0.058950029
3.4817991 0.20997994 0.087942921
2.8524902 -0.363383 -0.054158341
3.470571 0.19110365 0.10263585
4.9774203 -2.4614043 0.12571537
2.986517 -0.043466322 -0.047353942
3.2882493 -0.82182372 -0.033796001
3.1296098 -0.42428923 -0.043844618
4.3149757 -0.81408763 0.20679167
4.0589075 -0.0013476348 0.21643308
4.2617302 -0.72826892 0.024056025
2.8903511 -0.10124382 -0.053061768
2.7446551 -0.32436684 -0.0439739
3.1571898 -0.22275971 -0.044040814
3.310725 -0.92910141 -0.007888481
4.6575222 -2.0781319 0.088592865
3.8600469 0.027065825 0.23994637
4.4546428 -0.93112695 0.17150629
3.8468533 -1.6104155 0.11731478
3.7895453 -1.5207959 0.17129573
4.0051055 -0.072128817 0.30739918
3.7313578 -1.3109727 0.047731556
2.9647663 -0.11397605 -0.05190482
3.6423268 -0.59571302 0.23344132
3.4710581 0.1881727 0.11922916
3.9709487 -0.069586366 0.29946518
3.8952398 -1.3795362 0.17921314
3.5865757 0.14309742 -0.01990908
3.2653427 -0.66009456 0.17161879
5.1641054 0.030921062 0.078335606
3.4445689 -0.67492473 -0.024877448
2.8902254 -0.10167378 -0.051849186
3.9946713 -1.4738783 0.22614878
3.7960169 0.49666825 0.19454193
2.9046822 -0.024386253 -0.050495092
2.799001 -0.36164105 -0.055089436
4.1070938 -0.68585312 0.35110807
3.5909717 -0.62451285 0.22247401
2.8002555 -0.36129981 -0.055079851
5.124001 -1.1544853 0.28995523
3.8829231 -0.02853791 0.22412047
3.4404535 -0.67109424 -0.024439562
3.5899835 -0.62335807 0.22254485
6.4738517 -0.42325997 0.35746685
4.0574899 -0.12250102 0.22875893
2.8736577 -0.22712798 -0.050678864
3.4730392 0.19940612 0.059452243
4.2288074 -0.77164328 0.053080566
4.105516 -1.5666711 0.24535233
2.7931194 0.0026346184 -0.049987778
3.4803927 0.20907873 0.0082187578
6.1051865 -2.2236569 0.16545576
3.7540216 -0.93599957 0.2000739
3.880687 -1.2007576 0.056765787
2.9696882 -0.41258544 -0.064315006
2.7855182 -0.091458216 -0.055446528
3.8851259 -1.3576615 0.19179082
4.0451207 -0.70126843 0.3093043
3.8691196 -1.1895953 0.055964254
4.0508757 -0.71777487 0.38653678
3.3153241 -0.93706065 -0.021290213
3.6223125 -0.61581808 0.24682558
3.7207091 0.50100404 0.19211453
3.3506589 0.07470008 0.19589549
3.010886 -0.20028137 -0.047031589
4.0986428 -1.5050663 0.22377968
3.4327955 -0.13644889 -0.023299862
3.6423118 -1.0730143 0.20938763
3.7229292 0.50297904 0.18786085
3.2292681 -0.71582341 0.14525852
4.0672197 -1.4553553 0.2505427
3.75015 -1.0886379 0.095103197
4.0362382 -1.4252923 0.15400597
4.101089 0.56254065 0.11912649
4.2346845 -0.65562552 0.0023107082
3.033175 0.015588408 -0.080354884
3.857729 -1.5485116 0.24342111
3.4703982 0.19836271 0.058616169
2.9574916 -0.032364625 -0.043748192
4.0888195 -1.4851831 0.30173507
3.6339803 0.14174996 -0.012314335
2.9263217 -0.03273325 -0.04836553
3.3500376 -0.27694637 -0.033029765
4.0499468 -1.4098943 0.21150804
3.192539 -0.11772526 -0.042604323
3.16045 -0.1835753 -0.04473006
4.20082 0.21257715 0.21116006
3.7803762 -1.5132043 0.17033973
5.1741333 -2.371778 0.10962989
2.8538072 -0.43679255 -0.051032305
5.0754471 -2.3964493 0.11198568
3.3436432 0.19887504 0.17534515
3.3517246 -0.95584196 -0.028257545
3.0198464 -0.20166318 -0.047571737
3.8695538 -1.1901045 0.05672159
3.8222106 -1.4402132 0.1559259
5.0804672 -2.4022624 0.10979494
5.0891562 -1.6611667 0.068829589
3.4580007 0.023879208 -0.033415969
3.9840114 -0.087511033 0.27831411
3.2305899 -0.71709114 0.14567253
3.0406017 -0.19566298 -0.048567712
3.5640552 -0.63142455 0.23997
3.9026577 -0.025621839 0.22700837
5.4933081 -2.6610017 0.11642347
4.0149555 -1.411185 0.24288774
2.9256458 -0.032741852 -0.04856284
3.61906 -0.63276035 0.21151873
3.3863993 0.19342643 0.17237088
3.2919903 -0.71400565 0.17574814
4.1594858 -0.059192333 0.22115666
3.7638831 0.11177543 -0.01699521
2.9031014 -0.04366171 -0.04772266
3.107518 -0.15506576 -0.045827433
4.2466435 -0.71929359 0.023583718
3.8845837 0.005368961 0.28833535
5.96486 -1.7285194 0.098231234
3.615659 0.064546108 0.17063731
5.2116175 -2.4104316 0.12027097
2.9186916 -0.37878892 -0.051740311
5.5543633 -2.6952021 0.12792253
2.8497145 -0.36182737 -0.053814381
3.9032135 -1.4930334 0.26085436
2.8542426 -0.43691501 -0.051111564
3.4797454 0.20611645 0.034801401
4.0897574 -0.69338381 0.19309893
4.0988512 -1.4956737 0.30389598
2.8809202 -0.226963 -0.051801115
2.9116936 -0.12288821 -0.050368544
3.8372784 0.47764137 0.23372239
3.4673634 0.17833543 -0.022639614
3.8681712 -0.68390453 -0.010893192
2.933949 -0.25115725 -0.050983235
3.0693266 -0.19713391 -0.050102338
3.7924981 -1.5624485 0.14646536
4.1359744 -0.69130337 0.28364792
3.6238251 0.20015256 -0.0026774704
5.5319681 -2.6775854 0.12988353
3.0341847 -0.1954817 -0.048339736
3.4575126 -0.4351691 -0.038811006
4.0572863 -0.66851318 0.25101516
24.355108 10.412367 -2.913897
2.9097641 -0.036852151 -0.051258251
2.9824457 -0.32107201 -0.047090679
2.9292538 -0.21937364 -0.051186733
2.9859943 -0.11006725 -0.05584757
4.0542903 -1.4671737 0.25917417
3.8957233 -1.217195 0.057521217
6.3435073 -0.18628933 0.4818216
3.9527895 -0.61972505 0.00092771649
3.9982986 -1.3972921 0.23941123
3.4805162 0.21221639 -0.014694899
2.9966242 -0.32520455 -0.0484531
3.2895744 -0.71370733 0.17436543
4.1649222 0.11000355 0.020356022
5.3461413 -2.2392111 0.42049801
3.2582037 -0.85384977 -0.029356182
4.4636445 0.039574023 0.21303022
2.8036704 -0.15675996 -0.055318661
3.0324178 -0.09972319 -0.049332336
3.0252297 -0.46378055 -0.045143709
3.6003313 -0.95134783 -0.0144636
2.8605816 -0.23859122 -0.049804583
4.3127775 0.25211981 0.14686507
7.7415853 -4.7435799 0.25411141
2.9045243 -0.17822392 -0.05151939
3.6280851 0.20154765 -0.0029227659
3.913373 -1.2945597 0.19563332
4.1978683 0.2586779 0.10135851
4.271708 -1.5759598 0.12806132
5.2363577 -1.7384603 0.068238489
3.8474259 0.14575076 0.17518845
4.5780282 -0.73982304 0.23115641
4.0116487 0.096960813 0.025386274
4.7345939 -0.75636542 0.2281611
3.8676641 -0.68625063 -0.00678581
3.1994877 -0.23477997 -0.043636203
3.803721 -1.4998194 0.19681114
3.1785965 -0.5036152 -0.040403783
3.2183857 -0.6187191 -0.026841644
4.2922554 0.24043977 0.10710319
3.259279 -0.91255379 -0.023072828
4.1191516 -1.5592953 0.16935864
4.1118703 -0.8521474 0.14437878
3.1330552 -0.42699274 -0.044112042
3.3448527 -0.93190199 -0.0054673031
3.4794121 0.20698801 0.021707274
2.9200048 -0.37902182 -0.051566809
3.1083128 -0.34974945 -0.043560114
3.0029292 -0.32689828 -0.049021967
3.7695317 -1.4980762 0.21834451
3.2348073 0.078338459 -0.041853059
4.0430717 -0.70024067 0.28145918
5.1619921 -2.4713552 0.10375261
3.0806749 -0.14992717 -0.045688894
3.0181665 -0.12927963 -0.042898305
3.325887 0.16328177 0.1499148
3.1703827 -0.18720692 -0.045454901
5.3320003 -2.0040741 0.28551409
4.3791738 0.10764702 0.02502469
3.5717127 -0.087988302 -0.030982092
3.1313636 -0.1705936 -0.043815687
2.9430354 -0.24726163 -0.049489774
2.9188247 -0.12259415 -0.051228222
3.4687634 0.17847824 -0.022715695
3.1094398 -0.34983239 -0.043538213
3.4733784 0.20556284 0.079487346
3.0836661 -0.12013607 -0.048901811
4.4668331 0.27712852 0.24576563
3.0123632 -0.33042806 -0.050020505
3.2338386 -0.62336105 -0.026301313
3.4215128 -0.62666285 -0.027993131
3.2249105 -0.62314928 -0.026202857
3.2231672 -0.63329691 0.11724012
3.140172 -0.22094473 -0.042916365
3.490695 0.23578517 0.12037676
3.1828592 -0.50503868 -0.040606692
3.0653067 -0.12512836 -0.047219511
3.7300892 0.15526767 0.0016682595
3.5108755 0.028278844 -0.034449223
4.2121372 0.21146694 0.20841053
3.88276 -1.4663247 0.21171468
3.2178755 -0.37435389 -0.042048808
2.9466469 -0.45389497 -0.048889473
4.4546161 0.194565 0.14640391
3.9788401 0.15746832 0.18267405
4.3192911 0.4434841 0.11764821
3.147481 -0.18955424 -0.04139632
3.1501915 -0.18746737 -0.044183157
3.3998437 -0.95436931 0.0052122921
3.8501573 -1.3404508 0.17395505
4.1989198 0.21195816 0.21298248
3.1866438 -0.23813434 -0.041597508
3.4469604 -0.56970602 -0.035172567
2.9444268 -0.4528226 -0.048939105
3.5335629 0.18969417 -0.0039913803
3.9236994 -1.5036926 0.18077579
3.0046875 -0.32765356 -0.049347378
3.4467559 0.18871751 -0.026105028
3.2188501 -0.61873001 -0.026066404
3.2321603 -0.62215948 -0.025687616
4.4664569 -1.0037683 0.030259691
4.0049071 -0.66722149 0.16332155
3.8001363 -0.52272731 -0.018805809
4.1610227 -0.67599696 0.2556951
3.252007 -0.70412385 0.14833853
3.6867313 -0.73350769 0.0019373149
4.4820094 -1.0078934 0.24717143
3.2530723 -0.71328717 0.15719375
4.4049807 -0.96729797 0.11776986
2.973896 -0.039021533 -0.047511622
4.3373747 0.22568063 0.0050987005
3.3477943 -0.93712288 -0.0053116158
4.0958037 -1.4852945 0.30476776
3.9863007 -0.80165356 0.18263188
4.479723 -0.94437438 0.17283463
3.4116781 0.20475402 -0.030676454
4.0551629 -0.8331418 0.070459627
4.1618462 -0.73269033 0.39042601
4.5006208 -0.9256624 0.14821693
4.4460025 -0.96639663 0.1077079
6.9045362 -0.38108984 0.36545986
3.3642342 -0.27794716 -0.032997929
3.189348 -0.57656878 -0.034448199
3.9230945 -1.4393727 0.22744599
3.7606075 -1.4762725 0.17381069
3.3998065 -0.25146329 -0.031048786
5.179285 0.0065443143 0.099081241
3.1878345 -0.22755682 -0.043820467
4.0839787 -0.65060616 0.23513132
3.4704487 0.17969556 -0.022996042
4.0488391 -0.6587382 -0.010275163
3.1146526 0.091680415 -0.076673992
3.0748558 -0.14868638 -0.045328081
3.4792719 0.20241134 0.059244446
4.5538635 -1.9697207 0.15290046
6.8396087 -0.37270963 0.36043799
4.0976014 -0.69892448 0.17293981
3.6469936 -0.86875767 0.17799449
3.564266 0.19054638 0.1430454
3.6099594 -0.62945253 0.20941055
4.5257273 -0.17462227 0.22719231
3.2322462 -0.75601602 -0.027892839
3.0304313 -0.20361204 -0.048502959
4.0710273 -0.85569143 0.046122372
4.440949 -0.96365094 0.11366772
3.0220764 -0.19961251 -0.048247382
4.413022 0.31867701 0.13112339
3.2546029 -0.65858328 0.14210898
4.0119524 -0.68413895 0.16896322
3.0642464 -0.37165153 -0.046578206
4.0959988 0.26499695 0.17861935
3.8389237 -1.4578853 0.15835509
4.3887029 -0.97066087 0.16756275
3.1396868 -0.22066724 -0.043162771
4.4085507 -0.92472106 0.095499553
3.0877538 -0.11072354 -0.046308968
5.553628 -0.12100504 0.36624894
4.2532654 -0.80985641 0.053690419
3.1892006 -0.11689307 -0.043117113
3.2119613 -0.43243182 -0.040072802
4.9176016 -0.80231935 0.25659448
3.2209227 -0.37524322 -0.04185893
3.2152803 -0.37260374 -0.040802516
3.7293198 0.10303445 -0.016153641
3.9010322 -0.68464637 0.23341465
3.6292555 0.20058191 -0.0026447251
3.175066 -0.18739079 -0.046416949
3.5524423 0.0030839741 -0.030271728
3.9665439 -0.65015125 0.21257162
3.4434738 -0.13501005 -0.023921706
3.5119538 0.16077183 -0.031484891
3.8503571 -1.4673065 0.12699461
3.0306332 -0.46862257 -0.047475427
4.1907048 -0.70468426 -0.005585283
3.8080137 -1.4440386 0.21426338
4.2471595 -0.72600895 -0.0049482137
4.2918663 0.27541131 0.10104857
3.9059055 -1.3887876 0.18083817
4.2991891 0.33599001 0.11129653
4.3107805 0.27675954 0.11888979
3.1682723 -0.51460892 -0.038696185
3.2408059 -0.62463814 0.12518445
3.1016457 -0.055905532 -0.039103188
3.5713475 -1.0088015 0.043999635
3.1809857 -0.5044713 -0.040585946
3.0112653 -0.46826825 -0.046430666
3.4734962 0.1974297 0.073423244
3.6586914 -0.8707304 0.16119301
4.0276785 0.097573191 0.021174319
3.3070936 -0.79149729 -0.026625797
3.1504948 -0.22143888 -0.044001974
3.1875117 -0.23907076 -0.041359156
2.9945798 -0.37595996 -0.045143891
5.0073261 -1.8548156 0.074611329
4.0581532 -0.5993014 -0.011192463
3.1201947 -0.40356168 0.017322667
3.4700093 0.18890528 0.10438893
3.9224665 -1.5082313 0.1846343
3.4621143 0.19956775 0.0096708611
3.7386951 0.16703124 0.0047448948
3.1500714 -0.42416021 -0.043266326
3.2403185 -0.62412161 0.12482496
4.1762815 -0.69890684 -0.0045143887
4.2206998 0.21686447 0.21040329
5.0785847 -2.4063601 0.10900369
3.9123347 0.10976062 0.0013540462
3.9791408 0.063335329 0.043535553
3.4794438 0.20776577 0.079762302
4.2319598 0.14805561 0.13547435
4.0212545 -0.45340005 -0.0092849024
4.1433673 -0.68548608 0.22084016
3.5857072 0.16720246 0.16250232
3.1393173 -0.22765015 -0.043283157
3.2213752 -0.37408617 -0.041428644
4.0516572 -0.66698378 0.26427615
4.0591097 -0.70929885 0.31313545
3.2125726 -0.62772727 -0.024917431
3.649415 -0.72441405 -0.00096786767
4.2554526 0.22611964 0.21601969
3.0118425 -0.4687539 -0.046287194
3.5391436 0.44913572 0.0098626688
3.4674964 0.18997055 0.10174369
3.5435512 -0.67566937 0.17490679
4.1227784 -1.6357033 0.07999409
6.1830788 -2.9243851 0.63727242
3.9900205 0.011054713 0.25763953
4.0944085 -0.71511573 0.19135964
4.011446 -1.4374586 0.1935727
4.1063676 -1.5704744 0.24758255
3.1354532 -0.42786974 -0.044186868
3.8871853 -1.5113639 0.13113758
4.1060715 -0.71762854 0.20544469
4.700717 -2.2628322 0.12060221
4.1423798 0.40142602 0.11869291
3.6926332 0.15891391 -0.013158113
6.2813854 -4.2137012 0.12829185
4.3761091 -0.93408448 0.10591815
3.5715702 0.19361293 0.14446267
4.1660891 -1.6735702 0.083799295
4.3183494 0.28446627 0.10825395
4.0625052 -1.5262208 0.22786513
3.8824327 -1.4054521 0.18332425
3.6793561 -0.74536568 0.13098752
5.180089 -0.69097942 0.068755306
3.6431041 -0.72711593 0.14835468
4.0128374 -0.66672277 0.22105587
3.6453648 -0.72183383 0.0009412244
3.8348451 0.12465404 0.0040892288
3.1828189 -0.50645977 -0.040911343
7.7842107 -1.400434 0.20496142
3.5200191 -0.17968963 -0.031312287
3.4843853 -0.62151146 -0.021878563
3.7117951 -1.1123775 0.048071615
3.9396217 -1.4239122 0.13024101
3.4365082 -0.42562881 -0.034052871
3.6372166 0.19041136 0.00074037164
3.3245649 -0.29440141 -0.035286918
3.6611438 -0.86820745 0.15932107
4.0396018 0.24397838 0.19237682
3.3836195 -0.7755006 -0.0033061281
