# .PCD v0.7 - Point Cloud Data file format
VERSION 0.7
FIELDS x y z
SIZE 4 4 4
TYPE F F F
COUNT 1 1 1
WIDTH 1456
HEIGHT 1
VIEWPOINT 0 0 0 1 0 0 0
POINTS 1456
DATA ascii
0.18682866 0.10492622 1.1082484
0.18995968 0.099305317 1.1055405
-0.35274896 0.096005492 1.0242894
-0.32919851 0.14866094 0.90262961
-0.3603642 0.073151916 0.97532213
0.15856367 0.11262067 1.1758901
0.19222578 0.18742751 1.2987779
-0.8738364 -0.23644698 2.4584503
-0.34607804 0.083075203 0.68588507
0.26027891 0.09130612 0.87433898
0.21317728 0.14136326 0.98850131
0.78025508 -0.068264298 1.1062666
-0.34314793 0.078965463 0.6819613
-0.42495373 0.13344719 1.374511
0.66385818 0.13351303 1.5140618
1.1200418 -0.42261145 2.1431694
0.26551229 0.23042652 1.5166392
0.1905776 0.0049985447 0.37954164
0.31341031 0.070826955 1.4095895
-0.21942958 0.18163446 1.1555862
0.31792501 0.09489812 0.9247365
0.57745397 0.14761247 1.3438427
-0.36259919 0.082612261 1.5319803
0.28773943 0.097211264 0.897798
-0.64706564 -0.17668317 1.0666697
0.21935509 0.1104643 0.89348477
0.44606566 0.10554337 1.4697909
-1.0191129 -0.40204969 3.3367729
-0.082102254 0.16798466 1.29927
0.18002191 0.15960132 0.94325334
1.444932 -0.38747862 3.5926702
0.28053591 0.070606843 1.2421367
0.53546214 0.1215416 1.4712955
0.18344696 0.012829917 0.39705533
0.31463182 0.070667461 1.3039138
0.57259595 0.12499269 1.432398
-0.32878986 0.076188184 0.81405109
0.23745692 0.1327676 0.81909412
0.57242709 0.14258425 1.3888128
0.26399106 0.11052803 0.87743115
0.26019925 0.071358278 1.5346642
0.18348351 0.02860404 0.38914329
-0.340951 0.078792401 0.79870826
-0.022528332 0.16301246 1.0946186
0.2765072 0.11321005 0.79379988
0.14337672 0.16088822 1.7267898
-0.19561286 0.17342249 1.1550727
0.17697318 0.10417206 1.4210904
-0.44941875 0.034551233 0.83065617
-0.35036996 0.1091677 1.3756418
-0.62456375 0.048028819 1.0146226
-1.038406 -0.26993492 1.7909673
-0.34902719 0.07536824 0.68173522
0.19738905 0.073705584 1.5971698
-0.38020918 0.091341138 1.0455023
-0.010826941 0.17894547 1.2136005
0.1652758 0.11781853 1.5806687
0.14995718 0.11199164 1.4113266
-0.35248587 0.10965953 1.3753389
-0.078490131 0.16720088 1.2922724
0.77553242 0.062272292 2.2993348
0.69303262 -0.056195982 1.0943227
0.20158054 0.10918564 0.90917712
0.66585916 0.13060614 1.3537558
0.01492461 0.17136274 1.0517035
0.15459757 0.10739112 1.0603813
-0.0052473475 0.13633791 0.88513416
-1.1599814 -0.36743572 2.7831411
-0.34356442 0.079980202 0.68210542
1.0634087 -0.287352 2.6810443
0.68959677 0.10347681 1.5406216
0.21883909 0.12006196 0.87970787
-0.18906352 0.16005836 1.7832806
-0.17960559 0.16857834 1.3034515
0.93454188 -0.29524207 3.1362727
-0.33400908 0.096601851 0.78376591
0.16107132 0.14977087 0.94544929
0.17017113 0.098529011 1.1405985
-0.36694586 0.11191233 1.4066229
-0.86697662 -0.2350004 2.4374456
0.17940465 0.13280022 1.0774145
0.52693921 0.14740045 1.1078898
-0.070755556 0.1587562 1.2418138
0.25799257 0.12128041 0.91704702
0.28514653 0.12294428 0.83460021
0.7418294 -0.063073583 1.0699604
-0.30365649 0.17249551 1.5282005
0.67294604 -0.10194466 1.2044644
0.18761791 0.098425224 1.0901456
-0.0927165 0.17487261 1.2675405
0.13593443 0.11066009 0.96888983
0.1749922 0.12163023 0.90895379
-0.88908559 -0.26026019 2.5449238
0.14205155 0.14931743 1.312845
0.14884111 0.14016169 0.9821862
0.17595604 0.1143189 0.96992409
-0.33170179 0.092749916 0.86138755
0.14992324 0.14612308 1.2359546
0.14134662 0.14907955 1.1057277
0.81839502 0.031220831 2.1954813
0.014525814 0.16106249 0.96495503
0.2114535 0.10088518 0.99887472
0.73455226 -0.054824043 2.3406851
-0.092470281 0.17160429 1.2390703
0.14207533 0.15253851 1.0413866
-0.21806981 0.16934504 1.0623784
1.4530798 -0.6166724 3.4666395
0.16066897 0.11154605 1.0939531
0.005252786 0.16023855 1.0548949
-0.36677906 0.078291416 0.69304329
1.4552069 -0.60709709 3.3994043
0.29544556 0.071946137 1.3589393
0.16593054 0.14064138 0.86744893
0.14250441 0.11406833 1.0314926
0.31271893 0.11866782 0.82010818
0.24819562 0.11058854 0.86735022
1.198724 -0.34395975 3.2358525
0.56262672 0.12495516 1.4961791
0.26273671 0.13673189 0.80916274
0.17584543 0.1143873 0.82097185
0.77462834 0.20582575 1.1632131
-0.14768989 0.16487095 1.3150319
0.20505914 0.24107008 1.8427982
0.16800575 0.13538393 0.91031134
0.7809087 0.066451401 2.3030918
0.23552886 0.10007585 0.86322898
0.28756338 0.07758829 1.1394591
0.18138953 0.12153076 1.0220346
0.26087153 0.097312391 0.88524687
0.69189489 -0.06161039 1.2161851
0.17690986 0.11760889 0.92935765
-0.1671468 0.17602445 0.98243165
0.71350801 -0.062283598 1.2474728
0.14918527 0.10926082 1.2028658
0.14894027 0.13564777 1.026915
0.19595419 0.10343645 1.1003746
0.16652371 0.11648807 1.0121179
0.21193671 0.056091417 1.0422741
-0.16537048 0.17360476 0.97459584
2.1361656 0.48018366 3.4306545
-0.4827784 0.16374914 2.4187036
0.14578579 0.12299264 1.0685389
0.32499394 0.073219195 1.1569315
-0.36283156 0.08081159 0.82931376
-1.118968 -0.28193149 1.7158213
-0.99098355 -0.16794436 1.862601
0.15170233 0.0864674 1.5939238
-0.33339718 0.098796822 0.78449661
0.21563104 0.13257144 0.87064642
-0.37920684 0.091883957 1.8664385
1.3554317 -0.62778151 3.1413198
0.25210461 0.12358957 0.83962703
0.17795353 0.13082211 0.90403932
0.61679423 0.12991729 1.5302594
0.20369841 0.08346469 1.3298568
0.73800808 -0.045250714 1.0655819
1.1465316 -0.27317584 2.4426961
-0.33311844 0.093966447 0.86312699
0.18915868 0.10805946 0.91600871
0.57008946 0.13938163 1.52484
0.28259903 0.073710643 1.4819758
0.15184443 0.10851097 1.1228038
-0.4052088 0.10340752 2.8103635
-1.1060427 -0.30591974 1.8086621
0.184126 0.15991007 1.6508251
0.63281298 0.1237326 1.3283865
0.93366921 0.22236007 2.6813567
1.5207828 -0.6397689 3.8755021
-0.34445903 0.17282128 1.6414897
-0.24819702 0.18039106 1.5302614
-0.32558918 0.078048594 0.7388227
0.70820326 -0.048326056 1.0390303
0.14735761 0.14498468 1.2267567
0.20605607 0.10284621 0.84783256
0.24274965 0.10364688 0.8813802
0.31165054 0.070216469 1.2669753
-0.33498642 0.099263757 0.67822272
-0.22185056 0.17157808 1.2220529
0.18405278 0.070235096 1.6099567
0.16687733 0.10985223 0.94433361
0.16417164 0.12139267 0.99187213
-0.24826603 0.1715409 1.4682626
0.21756014 0.074370056 0.72830677
-0.90446925 -0.023184516 1.6464238
-0.10708471 0.17190488 1.3396257
-0.32893947 0.10378864 0.94427133
0.2668823 0.07243745 1.5618732
-0.35889876 0.18577996 1.2087648
1.4474171 -0.50578249 3.8845706
0.18239701 0.08483398 1.6764228
-0.3047092 0.16625084 1.9653136
0.19205043 0.14092873 0.87632352
0.20303726 0.11247057 0.89214009
-1.1307693 -0.24209395 2.7239697
0.82286191 -0.20079857 1.3278536
0.68668348 -0.043909732 1.0040134
-0.22654691 0.17364943 1.23162
-0.48046103 0.11778422 1.383522
1.2359647 -0.35446289 3.3354177
-0.3505083 0.07982298 0.66703743
0.21862562 0.10210549 0.8669787
0.16240157 0.12750214 0.94034177
-0.4261058 0.087929457 1.9787521
1.4045777 -0.70631844 3.763278
0.94797778 -0.27775571 3.0364687
0.18302572 0.11963339 0.89288861
-0.18985446 0.16573504 1.8273598
0.20492259 0.09723112 0.93842876
0.20673136 0.066388965 1.4371064
-0.098138407 0.16118677 1.5509028
0.60432494 0.13929784 1.9843477
0.66332489 -0.080665588 1.0569934
-0.363994 0.04327919 0.72945386
0.13023849 0.14517336 1.610779
0.69993299 -0.076037735 1.1219953
-0.9885304 -0.22748229 2.5763874
0.13585791 0.14654899 1.0501533
-0.27830234 0.19416133 1.1427934
0.21797346 0.088488512 0.86639172
-0.75473183 -0.19473629 3.3646719
0.11967682 0.10604833 1.0694968
-0.38417846 0.16827817 1.093878
0.1661922 0.12001563 0.95040816
0.11899779 0.082145885 0.93608296
-1.133521 -0.45409873 2.587621
-0.37787881 0.094317608 1.8680557
1.4811631 -0.39540908 3.836431
-0.096859254 0.16235739 1.5556333
0.13629775 0.11616887 1.4746701
-0.24010895 0.17013578 1.3963091
-0.34169221 0.074291848 0.69757271
0.77068985 -0.20614918 2.3246341
0.90175515 -0.18581839 1.6195239
0.98800069 -0.26547518 2.50422
0.69762129 -0.040856767 1.0981793
0.2378269 0.10307702 0.87537986
0.16595754 0.11767408 1.5709741
0.16756877 0.15098116 1.8406405
-0.096954435 0.038753442 1.3404603
-0.33945656 0.093346193 0.88786685
0.74534982 0.025983347 2.3243036
-1.1984468 -0.44425523 2.6909811
0.14437532 0.13598843 1.3055608
-0.75015658 -0.1949386 3.3436661
0.24191947 0.1050546 0.8694126
0.37118918 0.093027145 0.98033041
-1.0751324 -0.28299701 1.778398
0.15231343 0.096914232 0.97824639
0.38780749 0.09217871 1.1150409
0.75021535 0.0041922862 1.6033394
-0.43539178 0.17410809 2.5110133
-0.34145367 0.072962619 1.617632
0.6075623 0.12241115 1.431537
-0.35032946 0.17443661 1.2146454
0.14479172 0.15634616 1.0677897
-0.097584449 0.16160747 2.0425017
-0.36980176 0.07343895 0.98594791
-0.34168044 0.07578665 0.70653385
0.32846022 -0.50474495 2.8479264
-0.41121748 0.13258731 1.3647171
-0.05294152 0.15968497 1.6007837
-0.99499625 -0.5796138 3.4790649
0.50600594 0.12846203 0.8959564
-0.40600058 0.15215001 1.1685293
0.7904402 -0.1144082 2.5799241
1.3284985 -0.68872225 3.4087601
-0.51673299 0.078651361 1.5464358
-0.44166598 0.15646775 2.298948
-0.39262754 0.13256863 1.9246352
0.1763159 0.11030254 1.0760484
0.25414461 0.10421031 0.83157897
0.67421424 -0.080534346 1.068014
0.70533913 -0.042290304 1.1085101
0.68358898 -0.04106487 1.0813441
-1.0062276 -0.40611243 3.309164
0.14054829 0.13874045 1.8872803
0.38162544 0.085844375 1.0429401
0.26778379 0.076458298 1.6338637
-0.35433751 0.075304471 0.78852093
-0.056798343 0.1249336 1.0616412
0.3537319 -0.51282573 2.8743258
-0.39649346 0.11456582 1.3751512
-0.35589254 0.073488235 0.97161275
0.22104487 0.12322491 0.85693479
0.28245324 0.095643654 0.88728267
0.16303344 0.12037664 0.98685616
-0.17807755 0.15636101 1.7472538
-0.22832483 0.1761667 0.9711296
-0.33393887 0.09909036 0.78610986
-1.2410471 -0.50307065 2.9445961
0.15008061 0.14756867 1.9469467
0.1523739 0.13016894 1.6076431
-0.43165836 0.028345661 0.93070096
-0.22941686 0.16806072 1.4485563
0.1171332 0.049018819 1.0859259
0.47452345 0.13282797 1.0210496
0.20999816 0.10109839 0.84938145
-1.1471157 0.094672896 1.7261345
-0.057968214 0.16477849 1.2370373
0.69036913 0.106649 1.5248407
0.26853946 0.069995485 1.4182914
0.69992298 0.0098933661 1.5194016
-0.076810777 0.16590397 1.3393844
0.17439644 0.12248605 1.1191524
-0.0079997741 0.1677224 1.1265169
-0.94619042 -0.52455002 3.2412496
-0.023890255 0.16725284 1.1289454
0.1523097 0.14093871 1.4590871
-0.35435012 0.11372034 1.400767
0.17219909 0.10197534 1.3921199
0.20972092 0.072699048 1.5872976
0.59406078 0.12598932 1.3416811
-0.12050094 0.16682968 1.2285125
0.81303352 -0.37459004 3.2128849
-0.32994089 0.13318858 0.86486924
0.24902114 0.12167785 0.82854015
1.2730662 -0.28855103 3.1436844
0.18010315 0.12230098 0.95640624
-0.96228796 -0.56190211 3.3950856
-0.27925557 0.16473407 1.9910425
-1.0701481 -0.27456045 1.699191
0.70075649 0.10485948 1.5600272
0.75913566 -0.18563636 1.2379946
0.31598368 0.074535117 0.93268359
-0.062940463 0.15760954 1.6094797
-0.22294557 0.17109276 1.0731846
0.6945554 0.065865614 1.2778062
-0.2187679 0.15928674 1.3819575
0.68899935 -0.052144837 1.0605332
0.98254758 -0.28677931 3.1376884
-1.0995791 -0.30114642 1.7692147
1.3865446 -0.69284767 3.711653
0.2137313 0.11644438 0.84428567
1.4977957 -0.65786266 3.7708037
-0.3643443 0.051661953 0.79877567
0.29513824 0.12181246 0.83549386
0.67860395 -0.051738903 1.2680013
-0.24701393 0.17341444 1.4069233
0.31672001 0.066030368 1.3851578
0.53432542 0.15035982 1.1196194
0.4859204 0.13720796 1.0493317
0.27503756 0.090861104 0.9373309
-1.1281034 -0.36850095 2.5729241
0.23241931 0.11659616 0.84580529
0.72646475 -0.067151651 1.06699
-0.43123138 0.029681448 0.92895436
0.49732316 0.14047071 1.0696744
1.3020018 -0.65425879 3.5094945
0.87431908 -0.10015758 2.5231004
-0.41512093 0.18408114 1.2164412
-0.46120185 0.17769861 2.593282
0.8187387 -0.16465986 1.337173
0.18676387 0.11826959 0.85102952
0.17584842 0.1336789 0.96990681
-0.32672867 0.17923358 1.062318
1.0228533 -0.27369985 2.9945471
0.0099131763 0.17497313 1.1326659
-0.85850489 -0.21749878 2.4588356
-0.36021072 0.086839475 1.0088292
0.81691259 -0.19883916 1.3206629
0.5052619 0.1424429 1.0827135
1.1067852 -0.26067823 2.4916894
-0.86528134 -0.0036100582 2.3640261
-0.10607546 0.16902775 1.322161
1.0171276 -0.26040331 3.0273955
1.2409021 -0.28419092 2.6482928
0.71979523 -0.085082896 1.0696687
0.1543422 0.12199726 1.1918501
0.45281878 0.12680575 0.98221076
-1.0019596 -0.29155073 1.6697178
0.19710387 0.088194117 1.1390284
0.1892578 0.14214173 0.86941236
0.29113826 0.062644012 1.2727715
0.31908432 0.09444315 0.92839348
-0.35959917 0.042754743 0.73036063
0.32236665 -0.50499707 2.6132414
1.1147048 -0.33338523 2.091188
0.14054902 0.15895987 1.088037
-0.2257506 0.17517851 1.2518131
-0.071492098 0.19449547 1.3045429
1.1214497 -0.14256363 2.5093729
-0.42389914 0.029844441 0.91599888
-0.43220341 0.035540335 0.76470697
0.73060697 0.011827379 1.4812534
-0.83918273 -0.20222971 2.4313319
0.30638471 -0.48410445 2.5097771
-0.86953038 -0.36101413 2.5018656
-0.39103627 0.028337788 0.75186497
0.29360256 0.080969088 1.1589694
0.24416244 0.10900095 0.85682154
-0.37261987 0.037012145 0.77029175
0.21117575 0.10077243 0.96005309
-0.30224484 0.172406 1.2528666
0.74153036 0.0024066938 1.5065403
-0.35189062 0.078428552 1.5659026
-0.082989231 0.15311384 2.1096597
1.0852824 -0.40552667 2.1656313
0.14634483 0.13741918 0.95782524
-0.10981601 0.14132643 1.8795252
-0.14626965 0.17140613 1.2504994
1.1520451 -0.26849705 2.5545197
0.17821844 0.093156748 1.3475326
-0.29331684 0.17318228 1.5469524
-1.1525187 -0.31348512 2.7151446
0.0048380881 0.17284872 1.1082388
0.16200908 0.091920517 1.789513
-0.41284451 0.16035293 2.7008469
0.64017677 0.12928586 1.5003012
-0.86930257 -0.32175475 3.3523121
-0.75297505 -0.19414595 3.346693
-0.46936801 0.11820311 1.3652959
-0.90178847 -0.36242959 2.5055532
-0.78808326 0.065282866 1.5222807
-0.14754631 0.16650964 1.3200308
-0.29954815 0.17441557 1.5528537
-0.27927729 0.16327778 1.9786904
-0.75511861 -0.19680046 3.3656037
-0.88034016 -0.28521955 3.3560567
0.54262996 0.14377852 1.1160555
0.1612488 -0.52069563 3.0278389
-0.98592263 -0.38472971 3.3139586
0.82310694 -0.10456759 1.656765
-1.1956087 -0.37043712 2.6088645
-0.409464 0.043433808 1.6506263
-1.0272324 -0.29765925 1.803703
-0.34269884 0.073098689 0.79090011
0.19037703 0.11394864 0.9086377
-0.45779505 0.15844876 2.3298628
0.011428985 0.14212789 0.96579087
-0.34615514 0.11364949 0.97924942
-0.47180146 0.11977923 1.3755304
-1.0731795 -0.28430492 1.8404686
-0.38506249 0.093170017 1.8818249
-0.41873497 0.12310212 1.9586127
-0.34657064 0.082956091 0.76317495
-0.95185632 -0.016341105 1.8396283
0.6734314 -0.031646159 1.1001372
0.74144226 -0.49626917 3.7996883
-0.37087047 0.073913537 1.5100628
-0.86405182 -0.32168791 2.4683199
0.15897992 0.10203706 1.7910112
0.15293553 0.1534 0.99231571
-1.1600252 -0.33078688 1.9930458
0.16027051 0.10531006 1.1180775
1.1005633 -0.2643488 2.4801412
-0.34257555 0.080944985 0.90672892
-1.1107951 -0.25795278 2.7023163
0.33578748 0.074040249 0.97194248
-0.44305968 0.060226098 1.9500482
-0.15798651 0.16816297 1.3364066
0.85464263 -0.2246424 2.9072902
0.89861387 -0.18617377 1.6149061
-0.14420548 0.17111984 1.2454917
-0.085091196 0.16302408 1.3201455
1.0190279 0.084156387 2.467762
-1.1194799 -0.30452237 2.6743927
0.21475093 0.10975518 0.87252402
1.4902208 -0.62400192 3.7924902
-0.29884881 0.17505434 1.2773404
-0.41612649 0.16901249 2.4670181
-0.33697823 0.10982358 0.96175241
-0.4848296 0.091138564 2.97773
0.65328699 -0.099762514 1.1771535
-1.1335382 -0.36117262 2.6795616
-1.033192 -0.27879244 1.5729952
-0.36617345 0.064929977 0.98793799
-0.8602289 0.050795257 2.2614512
0.83690041 -0.16870975 1.3618218
-1.0327606 -0.33965647 2.3797498
-0.18817721 0.16653092 1.4994515
0.16033746 0.11114754 0.97665453
-0.86556369 -0.3539305 3.3292458
-0.35039067 0.08491037 0.99238402
-0.10646752 0.16909337 1.3239775
1.2002559 -0.34304994 3.2484598
-0.32566249 0.1095864 0.78618658
-0.85585672 0.0016492018 2.6296954
0.0095472569 0.12891136 0.88009572
0.29295126 0.066322878 1.5362638
-0.1000582 0.16080475 1.2652594
0.611112 0.1276076 1.2846341
-0.84912944 0.0023568003 2.6130564
0.6957466 -0.055773672 1.0974447
-1.1146884 -0.093302764 1.9269172
-0.15934657 0.15654419 2.1372821
-0.03595696 0.14125486 2.5458224
0.31470051 0.077271208 1.3487922
-0.21864891 0.170981 1.0719349
-0.33242425 0.099027045 0.78357196
0.18710014 0.088769913 0.87696469
0.56317776 0.1548719 1.2569653
0.29743508 0.078378633 1.5206485
-1.0129396 -0.59473526 3.5453882
0.69228095 -0.040249709 1.0894376
0.20380242 0.053961806 1.0616562
0.26036507 0.08505509 0.8654322
-0.47729403 0.1809115 1.3663023
-0.49045312 0.18568711 1.3883055
-0.36196339 0.044617865 0.73413599
-0.37216628 0.053154498 0.97730249
-0.33436614 0.1363266 0.92912704
0.43324387 0.10827632 1.557219
1.4990817 -0.62402427 3.479969
-0.8624022 -0.40917769 2.3744621
-0.40485227 0.1350694 1.3609715
0.16586612 0.08783453 1.727332
-0.42300624 0.029403854 0.91571599
0.0017454001 0.18427956 1.1522733
0.15317287 0.15447003 1.0844845
0.30585378 0.078221187 1.4657756
-0.85911787 -0.03895998 3.2907159
-0.33547524 0.10605497 1.5139893
-0.10195172 0.1629674 1.5738713
-0.3626 0.0588581 0.79850703
-0.96842146 -0.3894394 3.3317053
-0.16995783 0.16289757 1.800266
-0.28910232 0.17499737 1.283116
-0.93867052 -0.27389836 3.2402184
-0.63721645 0.12724753 3.2310658
-0.88200778 -0.24010357 2.4629061
-0.33267519 0.13422556 0.9379397
0.14626797 0.12210633 1.0361592
-0.33362472 0.13776229 0.91871321
0.17648377 0.10957333 1.0700794
-0.44176999 0.13012633 1.3632457
-0.34838858 0.080412894 1.5487986
0.17603998 0.10413075 1.4133308
0.25993827 0.097747236 0.88162541
-0.84983736 -0.11305355 2.5280547
-0.90675068 -0.37729043 2.0081494
0.15528186 0.14397539 0.93589413
-0.37570214 0.13961127 1.3922522
0.15070881 0.060807373 1.1535746
-0.34033269 0.15150824 1.0508749
0.76942593 -0.24940042 3.282629
0.23754594 0.11119238 0.84640265
0.53552473 0.14604796 1.2012417
0.7774747 -0.31897119 3.5171607
-0.061117459 0.16879256 1.1406913
-1.1315395 -0.37414506 2.5736191
-0.87732035 -0.10002795 3.2231884
0.16903764 0.15748093 1.5740991
0.17716585 0.11633282 0.8751325
0.69395506 -0.072904028 1.1203811
0.27217036 0.089197807 0.91138268
0.93160754 -0.11987381 1.8427784
0.16030216 0.13311036 1.335073
-0.20180231 0.16953439 1.100678
0.16869235 -0.58812958 2.9991825
-0.86092412 -0.32036152 3.3235211
-1.0965741 -0.30152816 2.6168413
0.16494654 0.095685922 1.11323
-1.0785609 -0.18342884 2.0177112
-0.89086258 -0.15362705 1.7328819
0.8052851 -0.16504946 1.319043
1.1039209 -0.26565301 2.486187
0.30964962 0.066732727 1.2905474
0.18187152 0.097577609 1.0676166
-0.8703019 -0.47052863 2.79073
0.57812124 0.1203647 1.2337793
-0.34027478 0.072369166 0.78964829
0.42046824 0.10111874 1.1944425
0.67778671 0.12701204 1.655754
-0.3919633 0.042237241 1.7060062
0.21916096 0.10442118 0.87339723
-0.9828409 -0.54104692 3.3523371
0.7135253 0.10929827 1.5755687
0.71594411 -0.1107664 1.2181767
0.26768056 0.087730423 0.90326339
0.22162287 0.10301968 0.87285262
-0.84430349 0.020794325 2.4475152
-1.161252 -0.20767687 1.8122798
0.8287943 -0.25138634 1.3236903
0.14726263 0.1438005 1.248059
-1.1637487 -0.33595777 2.0109487
0.65366113 0.15270783 2.0130327
0.23318064 0.073298641 1.566404
-0.18102938 0.16420308 1.8115646
0.20254929 0.096427761 0.92545307
-0.47876763 0.18183085 1.3688695
0.79563481 -0.19245782 2.9605494
0.65353394 0.12386175 1.6055434
-0.43555978 0.18125533 1.3613187
-1.0891647 -0.18123232 1.8374122
-0.86878365 -0.10590582 3.2247109
-0.29993272 0.17704429 1.2836862
0.64093083 0.14202575 1.6302985
0.15869515 -0.46452227 3.1903687
-0.53840894 0.20126 1.3800172
0.14786348 0.17102478 1.4111936
0.18149619 0.11367775 1.0966581
0.23538095 0.09871538 1.0375617
1.095052 -0.15273646 2.4702756
1.1071194 -0.21608122 2.4948807
0.85259515 -0.22453928 2.9033961
-1.066871 -0.18023364 1.7105689
0.16129278 0.10819755 1.1433624
0.20591918 0.082164451 1.1951466
-0.40781471 0.11339901 2.9680419
-0.11075451 0.1766009 1.3587598
-0.35331297 0.085981235 1.7612189
-0.38121197 0.037754823 1.6270415
1.4398767 -0.38628966 3.4767604
-0.40492201 0.11280304 2.9695323
0.18205634 0.090196528 1.5124897
0.75251704 0.023570597 3.2068548
0.73307842 -0.064423904 1.2731907
0.16759066 0.11600243 1.8589332
-0.34131408 0.12674358 1.0036751
-0.3533529 0.085585199 1.0000161
-0.94241899 -0.47904438 5.550642
-0.015002924 0.16865388 1.1613036
-1.1743435 -0.51449132 2.6324492
0.50329542 0.10545553 1.4217086
-0.43102783 0.17147459 2.9021738
0.32084021 0.07589712 1.3680847
0.29328454 0.078461394 1.1454585
-1.0827292 -0.33553818 2.0220065
-0.1204906 0.17104243 1.2521828
0.69491154 0.0090737157 1.4894748
0.24840619 0.092372134 0.85590905
0.16622674 0.098562405 1.2559524
-0.76955098 -0.26014468 3.3210299
0.50733197 0.13817222 1.148198
-0.2861715 0.17394164 1.3669492
0.25999114 0.25062579 1.9550695
0.48078698 0.10303979 1.3916315
0.98298657 -0.21727455 2.0602167
-0.37811169 0.089467928 2.9924457
0.15060319 -0.52982956 3.2528558
0.33159292 0.07616809 1.1422192
0.15918742 0.12238364 1.0819691
-0.18249236 0.168982 1.3116138
0.32051161 0.072613552 1.1118968
-0.15414788 0.15330139 2.086098
0.28428668 0.088253759 0.91890067
0.21050081 0.10058354 0.94833004
0.05752033 0.15711312 2.0720959
0.19865128 0.10284936 1.1049904
-0.38408661 0.11103845 1.3967304
0.1424094 0.13045771 1.3795954
-0.29551512 0.15576224 2.5316823
0.18071102 0.11311682 1.093575
0.10125481 0.15664902 1.9713001
0.14832754 0.12114777 1.9296559
-0.30396217 0.17247604 1.2543229
0.20723735 0.084042251 1.0578488
-1.1567887 -0.41322014 2.6664894
0.093089439 0.17106058 2.2367115
-1.0255785 -0.40618247 3.3541272
0.11839013 -0.60411775 3.1823506
-0.43950903 0.13333674 1.3307328
-0.33701956 0.094461523 0.87035769
-0.50067025 0.021476446 3.7961578
-0.058488164 0.17028229 1.2615483
-0.40806854 0.11789355 1.4018842
-0.22257453 0.16621251 1.8655188
-0.3195135 -0.69072318 3.8108287
-1.1129105 -0.29175931 1.8659166
-0.042988867 0.16673693 1.1970133
-1.2534907 -0.46179947 2.7993217
0.28848204 0.08922416 0.92691398
-0.94511503 0.06319987 2.1515012
0.20051208 0.09567377 0.91948628
-0.9867087 -0.351771 2.5765059
0.15529273 0.11032113 1.1391116
-0.92074853 -0.23305154 2.3882031
0.2789605 0.061265066 0.97390711
-0.21133453 0.16573577 1.20445
0.28230467 0.071431264 1.3791116
0.14377469 0.1161598 1.0434389
-0.30213371 0.17323183 1.5337881
0.17145382 -0.51580429 2.9279881
-1.0364043 -0.27827632 1.8055415
0.19231594 0.089528516 1.1323727
-0.34126535 0.11028226 1.4948803
0.31074032 0.081040345 1.2733324
0.1159692 0.16021284 2.0412657
0.1866754 0.087560616 1.1098953
0.013317492 0.21527308 1.2880466
-0.36695418 0.074948482 0.99256712
0.1624957 0.12468822 1.0970629
0.26708663 0.10900352 0.83866531
0.22317947 0.091646254 1.0041257
0.15419613 0.11610613 1.6223465
-0.78594714 -0.26526424 3.3562863
-1.0965381 -0.28786188 1.7170833
-0.37067863 0.059120692 0.98224694
0.71185434 -0.2954154 3.2898133
1.2213867 -0.84328502 5.2986093
-0.35311034 0.15622322 1.0356878
1.1016297 -0.25897476 2.4839396
-1.1472466 -0.36531398 2.7668192
-0.92773235 -0.25812221 2.5227458
0.68096703 -0.10336281 1.2145393
-0.23702294 0.16742665 1.3788241
-0.40779203 0.18141359 1.2010422
-0.52281141 0.11756776 3.0205631
-0.87632662 -0.0043725916 1.7151365
-1.1533966 -0.41104296 2.6576126
-1.1413277 -0.25905666 2.7581747
-0.32254985 0.17692594 1.0527436
-0.49641919 0.18346278 1.3619474
0.20104532 0.10853003 0.90905583
1.4008595 -0.49793559 3.4458225
-0.11145145 0.1583167 1.8917617
-0.50009465 0.12148592 1.3757637
-0.88610297 -0.024299975 1.6201791
-0.48376709 0.1162441 1.3878714
-0.29385668 0.16157191 1.9153926
-0.34035885 0.11159797 0.96815974
-1.0185095 -0.17098022 1.9190323
0.71515059 0.005471935 1.5010139
-0.41040954 0.18214864 1.161145
-0.80261737 -0.25770357 3.3149827
0.6913597 -0.10515573 1.2271889
-0.98324567 -0.3047336 1.8602259
-0.88565844 -0.48019511 2.8326464
0.26672712 0.10874698 0.83766562
0.31715739 0.076866679 1.1677655
-0.32017359 0.18495993 1.6168576
0.2967388 0.068025164 1.2494506
-0.12429302 0.15882701 1.8972962
-1.127888 -0.25594276 2.7280777
-0.3286939 0.10760107 0.9441272
0.67521012 -0.11230198 1.1713259
-0.91348475 -0.1023446 3.2221081
0.48327616 0.13201815 1.1223007
0.8095476 -0.080750458 2.4584386
-1.0576055 -0.427508 2.5219634
0.069364823 -0.25879025 1.6459879
0.27475634 0.10680667 0.83521754
-0.9798246 -0.57374883 3.4463749
0.39300561 0.090193257 1.2520226
0.038183752 -0.067918353 0.96520627
-0.9324559 -0.24379885 2.604105
0.067737281 -0.23201004 1.7715913
1.0468599 -0.24700922 2.1927638
0.70166641 -0.10918278 1.2014005
-0.36227947 0.065696374 0.75856709
0.25931436 0.097326197 0.88105106
0.28283828 0.07137052 1.3797641
1.1151206 -0.14448003 2.5048223
0.27387515 0.072117038 1.4243376
-0.071348414 0.16301206 1.3201795
-0.32964304 0.095012471 0.76195484
0.16871002 0.099214964 1.2646356
0.15407491 0.070989728 1.6409999
0.28662261 0.071600489 1.4603052
-1.160668 -0.33929512 1.9060495
0.69832528 -0.055951256 1.205242
0.22309314 0.098952711 0.89125347
0.57007903 0.15153632 1.1550333
-1.0345279 -0.17974882 1.9524728
0.17668597 -0.5867635 3.0125508
-0.42156118 0.12982056 1.3556795
0.2492903 0.090300508 0.95332265
-0.1646726 0.18253683 1.4317983
0.38648009 0.090791814 1.3034382
-0.41640469 0.13819547 1.3731683
-0.85000545 0.09355811 1.8003265
-0.4837938 0.14193657 1.4121276
0.17500363 0.092836663 1.1190076
0.77545989 0.06385278 2.2951655
0.72991621 -0.30227223 3.3873062
0.33342019 0.085166499 0.94455385
-0.17341016 0.1671267 1.3133931
-0.92109519 -0.016244309 1.7927719
-0.5041247 0.12197225 1.3825327
-0.88525099 -0.1728991 3.2686455
-0.19218503 0.16981679 1.5199981
0.13480529 0.13653719 2.0274308
-0.84909815 -0.21505664 2.4435329
0.33519265 0.07885652 1.041389
0.74313188 0.025166834 3.1781731
0.62416124 0.12860914 1.5311685
0.17303395 0.068475902 1.7151918
0.68092954 -0.047445919 1.2717512
-0.93990588 -0.0029212295 2.1224353
-0.37385163 0.034633443 1.5939122
-0.50678128 0.18842284 1.3804935
-0.38086426 0.033231694 1.6351953
0.14980094 0.11075899 1.2076725
-1.1705923 -0.32373962 2.7930675
-0.92871833 -0.031845219 2.0787539
0.30274588 0.069360867 1.2109798
-0.22694446 0.16664073 1.4373753
-0.3455278 0.11019161 1.5074272
-0.12348656 0.17268749 1.2627493
0.043612953 0.11403138 2.0871642
-1.0497564 -0.25914177 2.7046115
-0.22734259 0.14040016 2.3542132
0.16835432 0.096062489 1.7762524
0.9970867 -0.19810045 1.763334
0.81253451 -0.20160045 3.001596
-1.123659 -0.22455908 2.7106538
0.15965846 0.14669342 1.2022433
-0.86419129 0.049293052 1.8671656
-0.12731405 0.15966776 1.7483761
-0.44115302 0.11374341 2.948277
0.23859455 0.07794258 1.5497164
-0.38813084 0.036888488 1.6472086
0.85258812 -0.1746102 1.546205
-0.36161467 0.17388709 1.7961749
1.1056619 -0.30936205 2.4934609
-0.45228329 0.13591203 1.3483882
-0.9078818 0.057585508 2.2403715
0.31507441 0.085495114 1.1610024
-0.12195376 0.17360091 1.2637932
1.5469116 -0.41820475 3.7245386
-0.4236123 0.16940179 2.4747753
-0.5427404 0.12010529 3.0648332
0.22377835 0.087443419 1.1162388
0.30965009 0.080225863 1.0518538
-0.52992177 0.11884408 3.0384912
0.7084859 -0.084974639 2.7100179
-0.97515976 0.029542625 2.1929488
0.125319 0.15513462 2.2364197
-0.1895006 0.15342197 1.7547659
-0.23416635 0.16491638 1.3598974
-0.39610201 0.16102773 2.7421415
-0.55772418 0.12020819 3.1069388
0.71998382 0.10574618 1.5240498
-1.0051473 -0.33271646 3.3323886
0.12475619 -0.48447981 3.2586498
-0.25722721 0.15843321 2.6244957
0.12206196 -0.47632441 3.2381728
0.63023496 0.12900288 1.8617995
-1.3014983 -0.21980183 2.3770914
0.18520223 -0.4366419 2.9486616
-0.36186972 0.081277192 1.5385498
-0.027419824 0.17282437 1.1426195
-0.85539752 -0.31722495 2.4492016
0.62789124 0.14042109 1.6067717
0.32424149 0.055156667 1.3861555
-0.26404962 0.16144034 2.6010215
-0.35971573 0.073466413 0.99035555
-0.36025399 0.096713796 1.7981353
0.22511205 0.093278356 1.0085237
-0.84529287 -0.11268736 2.5198491
-0.25572392 -0.6086641 3.6135514
-0.86231512 -0.320903 2.4634349
-0.1462048 0.16795383 1.336485
0.14264166 0.14330111 1.9364761
-0.53851986 0.11804047 2.9969776
0.0097264042 0.15413234 1.0317869
-0.055722501 0.12230778 1.1409047
-0.36563367 0.13652281 1.3763583
0.16273436 0.10447206 1.0420544
-0.24466915 0.15104957 2.799063
0.5765726 0.14516908 1.4007003
0.0051460578 0.12845975 2.0892701
-0.25397447 -0.85564786 4.1747985
1.52727 -0.41196761 3.6542909
-0.085319489 0.14814433 2.0324128
-0.43278289 0.087925285 2.9577811
-0.061972044 0.16109221 1.4585334
-0.88770044 -0.12336522 3.2177935
0.68994617 -0.032832742 1.1204536
-0.3970688 0.053605307 1.785304
-1.1504395 -0.37758565 2.6955495
0.1310671 0.14323047 1.9881595
1.0233161 -0.17493753 2.1756177
-1.4077779 -0.40967774 3.1503642
-0.24759477 0.17166097 1.3942742
0.90586066 -0.18584047 1.6194504
0.20673746 0.046884187 0.94581306
-0.83487648 -0.12649731 3.486001
0.61822212 0.12651998 1.6169047
-0.33361778 0.085375302 0.79380602
-0.3900004 0.16255866 2.5414314
0.7564019 0.080562241 2.3171046
-0.86316884 0.049030069 1.8630927
-0.18063536 0.16814055 1.3098813
0.89469022 -0.18047576 1.5960832
-0.82247978 -0.16900417 1.9262475
0.94275063 -0.19784667 1.6177164
0.13642494 0.13807814 1.2330939
-0.049467959 0.16135235 1.6051772
0.16506097 0.076574661 1.72752
-0.19096623 0.16920367 1.5132952
-0.055585135 0.15508248 1.5675579
1.5567836 -0.4997631 3.887877
0.13731712 0.15574554 1.5163918
0.82752532 -0.13256906 2.4573622
-0.27808642 0.16208623 1.9626936
-0.33315927 0.1786191 2.8986981
-0.34851548 0.10268176 1.708112
-0.12572819 0.15274601 2.1748645
0.21466942 0.094559997 1.1116905
-0.34941965 0.081388608 1.5514874
0.020201446 0.15017851 2.185739
-1.0143526 -0.40727252 3.32763
0.25607046 0.057477832 0.8386091
0.14577204 0.1188939 1.2244445
0.16916865 0.10122582 1.1447473
0.14832473 0.12404162 1.5193275
0.13553186 0.14724274 1.2328886
0.069643058 0.15679663 2.0019586
0.16017158 0.11708255 1.8505837
-0.21726167 0.17190297 1.241645
0.016287798 0.15094283 2.1953924
0.09373036 0.15424359 1.9341247
0.13287361 0.14367606 1.4570214
-0.88330996 0.064548537 2.2388849
-0.48082808 0.091131546 2.9735861
-0.40953594 0.11421963 2.9659882
-0.37997535 0.14120233 1.4027472
-0.8743822 -0.12815504 3.3572114
-0.36747438 0.075007305 0.99789536
-0.8639167 -0.030364327 3.2643938
-0.40174866 0.052251413 3.3567963
-0.51047409 0.025339179 3.8109651
-0.45747018 -0.085626453 3.7904654
0.19319697 0.043280423 0.77957529
0.21311587 0.10044669 0.97837287
-0.08507622 -0.065969534 1.5859815
0.15624663 0.10164294 1.0951701
0.11292794 0.12765336 1.0765201
-0.91643882 -0.73228925 4.160316
-0.25214532 0.16178282 1.8374387
0.1847994 0.10991649 0.97179067
0.15599458 -0.47120854 3.2313931
-0.44640425 0.13641201 1.3490136
0.20276694 0.079708971 1.0554452
-0.78141183 -0.2322413 2.5458062
0.27909002 0.06271676 1.0736461
0.15174164 0.12315395 1.1625744
0.76537597 0.15814021 1.6944401
-0.38359857 0.11070675 1.3452181
-0.91913235 -0.73536021 4.1742029
0.74123597 0.093063764 2.3198402
0.36595228 0.085745558 1.0688692
-0.3927618 0.10998428 1.3781269
0.25718188 0.071067482 1.5759355
-0.95984411 -0.56466359 3.3723979
-0.52987063 0.026868165 4.0948749
-0.35063478 0.070237845 3.2062168
-0.84706348 -0.11156297 2.5162439
-0.50829244 -0.090469964 3.9081421
-0.80483145 0.023053261 2.3106093
0.96722555 -0.14905071 4.5686569
-0.45445657 0.15552782 2.4365664
0.16021857 0.10526656 1.7887219
-0.44931161 -0.87204725 5.5018744
0.73457074 0.023215676 3.1486311
-0.35618749 0.079939194 1.5270343
-0.23732126 0.16352443 1.4209836
-1.0310297 -0.24234688 2.6608596
-0.86037564 -0.2170527 1.8772509
0.88912988 -0.69870836 3.5275128
0.72564542 -0.077598326 8.6814156
-0.58433449 -0.88091791 5.2903428
-0.80239242 -0.25997233 3.3187301
1.1330134 -0.38358346 2.5868945
-0.46290377 0.17167133 1.2457894
-0.84770381 0.088725746 1.8289709
-0.52825826 0.19566959 1.4160227
-0.87527555 -0.32509607 3.3646226
-1.1368365 -0.41233474 2.7126608
1.1644002 -0.39295483 2.6375885
-0.067736968 0.16197634 1.4561602
-0.56035316 0.11018246 1.8313016
-0.3662459 0.035928026 3.178561
-0.34860966 0.0090366118 3.0905461
-0.49562043 0.11994517 1.36805
-0.43601975 0.1282545 1.3571368
-0.35090458 0.17830919 1.4978628
-0.35172656 0.085479945 0.99841195
-0.7711367 -0.930547 5.7317271
-0.30421582 0.16752562 1.9768987
-0.85074121 -0.11332346 2.5293653
-0.24393876 0.16353676 1.8502375
-0.18165657 0.16959482 1.3151037
1.1017323 -0.1492689 2.5115824
-0.97172266 -0.19098559 4.7901707
-0.10572541 0.17028372 1.3280791
0.15382776 0.12256159 1.2867136
0.15891922 -0.58308738 3.0973709
0.63387579 0.1259139 2.7469323
-0.19370651 0.17287149 1.538255
-0.84649938 0.0028040002 2.6087224
1.2881153 -0.27945113 2.6060476
-0.35611719 0.14968522 3.4432132
-0.83501148 -1.0402408 5.3369775
-0.34272674 0.0705055 3.1373634
-1.1883881 -0.39304671 2.6623726
-0.8210907 -0.1786972 3.3932843
-0.96238261 -0.380734 3.3332584
0.099020027 0.15151255 1.8877707
0.34509671 0.080883749 1.032181
-0.061483663 0.15820329 1.8093998
1.0091597 -0.10726045 2.1896656
1.5098733 -0.66127968 3.7999926
-0.065692037 0.15969671 1.8093917
-0.3251482 0.069559775 1.5613464
-1.136355 -0.40719104 2.7365699
-1.1711829 -0.37660587 2.7094243
-0.19838759 0.17741352 1.5633614
0.2324397 0.092832208 1.0212876
0.28567773 0.073435888 1.5701867
-0.15749784 0.15759157 2.1129816
-0.47809097 0.12251782 1.386228
-0.4399721 0.09298984 2.9989042
-0.86079937 -0.11241694 2.5468419
-0.59157825 -0.70214248 6.0378556
-0.88947296 -0.3112486 4.7618685
0.20907803 -0.65799552 4.4632101
-0.86086255 0.027667014 2.4310887
0.67257154 0.13025679 1.3141809
0.18961139 0.082270779 1.0980856
-0.98450577 -0.19458534 4.8430419
0.20823881 0.083991617 1.2677715
-0.95063972 -0.22369975 2.4760382
-1.1297878 -0.44743142 2.7790785
-0.4511537 0.13821042 1.3591356
-0.48059058 0.11554135 1.3795799
-0.34872776 0.17442843 1.3153012
-0.49676237 0.12173595 1.3705425
-0.54352725 0.17082272 1.3248459
-0.9555698 0.057746828 2.1994581
-0.32781309 0.0713211 1.5595731
-0.69426173 0.14666362 1.9099184
0.15505585 -0.49774042 2.9212027
0.23257901 0.083074644 1.0772605
-1.1723766 -0.37199181 2.6501553
0.33986068 0.075416632 1.0720557
-0.74806994 -0.96402806 5.2910752
-0.98088616 -0.28882441 3.3645992
-0.90865773 -0.16006738 1.8377627
0.81965309 -0.13408047 2.4363964
-0.38854787 0.096670792 3.0419607
-0.95686352 -0.3828437 3.2425284
0.77793419 -0.070671603 3.1149178
-0.42967716 0.16919787 2.8686275
-0.51572704 0.14257056 1.3810592
-0.5392319 0.11966277 3.0674012
-1.1327999 -0.35845265 2.6783144
0.17152385 0.10624465 1.4102598
0.16740699 0.099933088 1.1380833
-0.95414811 -0.44668993 3.3675663
0.15369624 -0.4866502 2.9970708
-0.37343258 0.022300022 3.3137882
0.18190382 0.21954025 1.4610132
-0.96720695 -0.1900658 4.7780404
0.25595343 0.058280893 0.89778793
-0.36358374 0.095149085 1.808915
0.28662118 0.095013589 0.96932262
-0.72997975 -0.20431225 2.437609
-0.42311114 -0.7483018 4.0351524
0.24453661 0.089768417 0.98343921
0.96738511 0.23298256 2.0284045
-1.0027205 -0.34958509 2.6094978
-1.129943 -0.23064059 2.7252629
-0.67126095 0.15217122 1.9128044
-1.3794307 -0.25363481 3.2216873
-1.0272784 -0.18472826 2.024066
-0.16996637 0.16321212 1.8032017
1.0458668 -0.051251035 2.3267581
-0.43131298 0.1803181 1.3537169
-0.19856542 0.15585791 2.2876918
0.32246584 0.071494453 1.9972315
1.013979 -0.054552209 2.2649326
0.23949224 0.084589712 1.1668243
-0.37150007 0.068407334 3.3724811
0.3379395 0.30324003 2.5694165
0.29403451 0.073992953 1.0896595
0.19612317 0.084940985 1.1155173
0.34245947 0.081463203 1.0322453
-0.29838541 0.16916107 1.5045512
-0.2020327 0.15743071 2.2989902
-0.52243799 0.14477812 1.390036
-0.72867393 -1.0615185 5.8445454
0.14626899 0.12432229 1.0725186
-0.23385289 0.17106116 1.4635906
-0.32538676 0.071034521 1.5553776
-0.34469256 0.11962586 1.8113561
-0.47189394 0.12000352 1.3737103
0.21006617 0.098284073 1.03967
-0.51059747 -0.082724229 3.9009883
-0.48957682 0.17207645 2.3428915
-0.071924157 0.16375241 1.3336298
-0.75497192 0.1639895 1.68313
1.0596091 0.30299884 2.4110444
-0.53321904 0.14721772 1.407326
-1.0774349 -0.42743203 2.6594467
0.15213411 0.11877004 1.2130656
-0.38481355 0.11442704 1.3861718
1.5561293 -0.36810496 3.0416012
-0.92140746 -0.041485112 2.2146316
1.0619586 -0.058393117 2.3348637
0.28275159 0.084927134 1.1478468
-0.81388044 0.099514574 1.6515105
-0.49514052 0.1194292 1.3672398
0.12533486 0.15210681 2.218014
0.084489577 0.14031784 2.4071417
0.21535222 0.11224142 1.1625375
-0.99999243 -0.35061401 2.6033986
0.25131539 0.066861838 1.3063823
-0.16850089 0.16493312 2.2053423
0.58676714 0.12366322 1.3228323
-0.4864133 0.14345631 1.3667191
0.17301001 0.093953989 1.2521493
-1.0806576 -0.19362672 2.0777001
-0.95542037 0.063608766 2.1858675
-0.82200176 -0.88198966 5.2880082
-0.39955431 0.073270336 3.5812478
0.3554396 0.080086015 1.0963805
0.21683943 0.090827174 1.3927168
-0.080033638 0.15537103 2.0860238
0.13489985 0.14922734 1.7513471
-1.1628439 -0.24298222 2.7454627
1.25652 -0.49424163 2.916353
0.18475294 0.096800998 1.3771464
0.31693128 0.079383425 1.3123105
0.66687834 0.131033 1.3567513
0.094534621 -0.50641561 2.9391668
-0.37681168 0.11326239 1.2262096
-0.34272069 0.1481946 3.2432222
0.23193981 -0.55692971 4.1328454
-0.50851208 -0.076464407 3.868264
-0.30784559 0.17501342 1.5352749
-0.11300066 0.17795554 1.3600391
-0.21677886 0.16208315 1.8321588
0.14866978 0.1626569 1.3289429
0.97725356 -0.032480389 2.266788
0.1907279 0.10823965 1.1193357
0.18893236 0.17653179 1.6164415
0.22100946 0.093653508 0.98504066
0.2890417 0.087271683 1.053344
-0.33863455 0.10685056 1.5193851
-0.87885779 -0.19582862 2.3828938
0.68266255 0.13397615 1.4033723
0.15879606 0.109273 1.1717236
-0.22251944 0.16366793 1.4186025
-0.3211576 0.16664514 1.9182084
-0.83904487 0.099524587 1.6704218
0.68364441 0.13196023 1.3279104
2.4314713 -0.60503054 3.7963526
0.19699588 0.098066993 1.1134663
0.63397223 0.12546843 1.3147475
0.85078388 0.17270462 2.3435447
-0.1270656 0.20251885 1.4764639
-0.93209362 -0.27288795 3.2037272
-0.35381287 0.10465745 1.7187268
0.9665935 -0.24734764 3.3291168
1.5231576 -0.63441187 3.6127558
0.14324759 0.03393355 0.80781966
-0.35188875 0.10634042 1.3982093
-0.94188273 -0.7401278 3.9226339
-0.41672325 0.12855884 1.3775252
0.25960866 0.090259545 1.148351
0.1487495 0.1152973 1.1984169
-0.39346451 0.11496289 1.3586493
0.27045575 0.066542953 1.1983657
-0.81786871 0.17498565 1.7459975
-0.34856191 0.13496938 1.4762976
-0.91143763 -0.31000769 1.9177818
0.24044164 0.096721902 1.145933
0.19436143 0.09588208 1.1063664
0.64679366 0.12700467 1.3298666
-0.2468318 0.076415204 1.1370673
-0.79085129 0.095387459 1.6184523
-0.38374639 0.086834691 1.5933151
0.30408055 0.070438206 0.97813499
0.28963345 0.088018686 1.0538305
-0.8402456 0.11451557 1.666955
-0.18689394 0.16243224 1.7742907
1.1230725 -0.26743397 2.5159285
0.15170786 0.11637571 1.0838209
0.39016694 0.083992995 1.274282
0.16723759 0.12757474 1.3106508
0.65053445 0.13410036 1.3035734
0.29246187 0.088301294 1.0610266
0.26569346 0.087055273 0.97569764
0.17426817 0.095560521 1.1656867
-0.17399156 0.13315967 1.2601562
0.17527515 0.11069508 1.4328285
0.67484683 0.13201611 1.3934385
0.34249073 0.080726862 1.0301059
0.32724231 0.080472507 1.3961029
0.18867785 0.10675181 1.1141394
-0.84071052 0.1133743 1.9736071
-0.41584021 0.10884266 1.3475826
0.21091987 0.073266886 1.5892265
-0.96240562 -0.35731363 2.6848671
0.80840451 -0.36330456 2.4797976
-0.27580994 0.16320787 1.9811808
0.15558641 0.10877552 1.6520863
-0.45248115 0.12957282 1.3560772
0.8553617 -0.13567279 2.5197415
1.4022042 -0.49837214 3.460885
0.66773182 0.14735234 1.7259926
0.14055583 0.12625581 1.5679312
0.16245228 0.15191974 1.5479362
-0.91697758 0.021932442 2.6168146
-1.0945395 -0.25297159 2.6646821
0.16513237 0.094124742 1.7562677
-0.49537647 0.16477181 2.7318556
0.52234036 0.12960428 1.3213778
-0.31285384 0.17237003 2.0243449
1.1062425 -0.21224071 2.4981642
-0.29844961 0.16304477 1.9452375
-0.37975779 0.033253804 1.7053635
1.1684257 -0.3701463 3.8156614
-0.24176095 0.16078559 2.2138946
0.26328638 0.067833371 2.067312
0.77197337 -0.31419143 3.4862449
-0.97997308 -0.4193019 4.0261617
1.5688857 -0.497134 3.9046447
-0.92476815 -0.56960434 4.1628575
-0.37759545 0.13944113 1.3813477
-0.30486983 0.14994428 2.7430375
-0.96302134 -0.65069062 5.8189187
1.4688598 -0.58178771 3.6784799
0.73846424 0.061480496 1.4562647
-0.84150463 -0.1794975 2.4176121
-0.093273528 0.15897542 1.4999256
0.49439424 -0.85386217 7.4737964
0.15341289 -0.44396555 3.0707545
1.0055259 -0.6339258 3.9542208
0.13742334 0.12047305 1.5029852
-0.47208557 -0.10346203 3.7185946
0.14000376 0.15253672 1.7942138
0.63774759 0.13542703 2.7480247
-0.88208193 -0.3078056 4.7386389
0.026755169 0.14908147 2.3821049
-0.71668613 -0.87443674 5.3907156
-1.0558314 -0.93324882 5.3019719
-0.24525592 0.16208291 2.2347052
-0.62004089 -0.99548095 7.2419338
-0.84975445 -0.23524038 3.3148227
0.14222626 0.13834696 2.099144
-0.72363907 -0.53597212 6.7221847
-0.11721069 0.15646781 2.1855469
0.41961575 -0.48066875 3.767621
-0.21703531 0.07988172 2.8194017
-0.80050761 -0.21946099 2.4529622
-0.4038789 0.096555136 3.1477423
0.083984733 -0.5413838 3.0963714
0.66187251 0.13529298 2.2895796
-1.0676075 -0.93704557 6.6552367
-0.32349283 0.13640496 3.1068687
-0.50573766 -0.089971431 3.8940632
-0.28769606 -0.73771876 4.0119419
-0.49022669 -0.16276836 4.4799161
0.16887477 0.15572521 1.2434158
-0.46760434 0.17804846 1.3530351
-0.49334562 0.17306837 2.3598025
-0.79324818 0.17128484 1.7416873
-0.8679468 -0.24634808 1.9854342
0.72771978 0.04813347 1.4414189
-0.93276829 -0.032178998 2.0838721
0.16961454 0.092648566 1.2441845
0.31406969 0.066773742 1.2691044
0.15977691 0.1285226 1.4150139
0.29374707 0.074855953 1.4899882
-0.46139601 0.13918231 1.3650516
0.17219852 0.1076863 1.4186144
0.18486021 0.098012179 1.3763824
-0.93994135 -0.033322662 2.0737071
0.324938 0.085600995 1.2567586
-0.39130199 0.11408944 1.3765011
0.72644466 0.060674082 1.4423075
0.72174609 0.0031001905 1.4785445
0.17521475 0.095591396 1.2655661
0.16394605 0.11089214 1.2140645
-0.73202521 0.15824632 1.6445353
0.23804463 0.07840015 1.5422828
0.15676412 0.11389473 1.086412
0.17027532 0.10315661 1.1525954
-0.23380542 0.16652004 1.3691522
0.18312441 0.11455777 1.1343344
0.20084545 0.078234166 1.6362917
0.31257284 0.067006491 1.2977148
0.14926842 0.11523128 1.1988224
0.27323562 0.062842324 1.0858375
0.16084175 0.12865058 1.4164636
0.28964424 0.077948302 1.2119004
1.0933472 -0.20831579 2.4804513
0.29524732 0.083135597 1.1612763
-0.31391612 0.17025812 1.9878843
-0.8329348 -0.1777418 2.3990643
1.3455775 -0.44991648 2.8231149
-0.17997053 0.10460202 1.6492941
-0.42248484 0.13171551 1.3593086
-0.17436765 0.16420849 1.8139937
0.1554057 0.12745127 1.4486963
1.2037301 -0.40406144 2.7048731
0.16065662 0.13134341 1.4357437
0.1976808 -0.37936622 2.9495249
0.20577714 0.082230471 1.2608799
0.70997864 0.0027159592 2.6790092
-0.93839771 -0.5158639 3.2280855
0.84344465 -0.48541096 3.3111491
-0.97772753 0.028921789 2.1980219
-0.77402443 -0.23016708 2.5305545
-0.48351327 0.085747816 2.9695432
1.4641594 -0.39600384 3.6397417
1.2967689 -0.50974268 2.9855988
1.0450913 -0.059454087 2.354785
0.90469199 -0.42301342 3.4613664
-0.6908918 0.14218967 3.4204426
-0.86966681 -0.06867633 2.8094029
-0.92640239 -0.20715117 2.4703743
0.1593688 0.13376684 1.5836899
0.29998192 0.067932524 1.1756465
0.67878723 0.10254604 1.5273944
0.67018241 0.1330844 1.3623048
-0.3801555 0.16048439 2.91886
-0.19608386 0.16175812 2.343524
1.2474821 -0.59424114 4.6133995
0.72029579 0.10018077 1.5098954
-0.21253085 0.15148184 2.3055494
0.87469327 -0.43088898 3.371119
-0.48060247 0.15540449 2.6715801
-0.37131748 -0.054180805 3.9437184
-0.66420788 -0.92658937 5.9807668
-0.86781073 -0.49160454 5.7414727
-0.90585905 -0.38373181 5.8507304
-0.044003788 0.14974886 2.6465328
-1.0748038 -0.57411921 4.8404393
-0.43080747 0.048645146 1.8445499
-0.67580289 -1.0962896 7.0352621
0.13414094 -0.56533152 3.3689859
0.083127007 -0.53544211 3.0700295
-0.40198931 0.15606388 2.6605513
-0.99583173 -0.50701982 5.7813787
-0.38046253 0.15623055 2.8839796
2.3870645 -0.57832307 3.4706476
-0.84232682 -0.8197403 6.4928794
-0.98036021 -0.54003811 3.9059348
-0.96798092 -0.36233917 5.8485022
-0.54439652 -0.78947955 4.469635
0.3106907 0.075936258 1.1705667
0.67730969 -0.25178564 4.4501982
-0.41888866 0.050150603 1.8138644
-0.045802865 0.15116729 2.6644661
-0.46469674 -0.022546181 3.7548659
-0.49119678 0.189064 3.0335886
-0.38490063 -0.046561312 3.9790788
-0.84382385 -0.32311505 5.7239766
-0.72163761 -0.97711259 6.4251146
0.046368312 0.12462606 3.2289238
-0.10362124 0.062687129 2.1365926
2.4282019 -0.5906449 3.527534
-0.53321373 -0.0071738837 3.9944277
-0.85329062 -0.91688514 5.4856343
-0.17681091 0.15289186 2.9659133
-0.48884296 0.09058024 2.9759145
-0.37351358 0.034326449 1.5914414
0.12080434 0.080257408 1.3836061
-0.8445195 -0.045796424 2.6002178
-0.80791891 0.1678714 1.6543064
1.4017253 -0.25230947 2.8785455
-0.38942456 0.10932193 1.3721843
-0.81244475 0.16930044 1.6606852
-0.095347516 0.16558592 1.5314492
0.73308837 0.0031710817 1.4940856
-1.1511624 -0.28838888 2.5426574
0.20630336 0.091512911 1.547653
-0.059763692 0.16114193 1.4670358
-0.27674457 0.16359542 1.9829773
-0.2681393 0.17008312 1.7000792
0.74839336 0.02341317 2.3281739
0.1874661 0.082839042 1.4869628
-0.42776099 0.11268634 1.3709465
-0.95432156 -0.52468044 3.2771652
-1.1628392 -0.29315197 2.5464969
-0.97826374 -0.38119775 3.2966597
0.29647657 0.083030082 1.2050694
-1.0616657 -0.3517454 3.4729187
0.77994215 -0.24836858 3.3150358
-0.38149127 0.033647433 1.7083005
-1.1304052 -0.3673695 2.9308703
0.1983552 0.086605921 1.517184
-0.82879096 0.10225196 1.6719621
0.82949752 -0.13428506 2.4600725
-0.94743919 -0.24089547 2.4354942
0.82656527 -0.13146596 2.4557359
-1.0036976 -0.3480027 2.5294275
-0.34871304 0.030232416 1.6099074
1.1135807 -0.245011 2.50682
0.16961439 0.12025155 1.5846918
-0.076213233 0.16790016 1.6163464
1.0710801 -0.14656492 2.4419305
-0.99658942 -0.32921544 2.5168769
0.76529783 0.036890663 2.5732913
0.752276 -0.12925988 3.1348379
-0.36133182 0.10647936 1.3776323
-1.1728323 -0.41160637 2.6189549
-1.1444223 -0.28755447 2.5308919
0.2946454 0.073836759 1.258561
-0.96208274 -0.5380522 3.3881304
-0.49515018 0.16522384 2.7304244
-0.77999341 -0.26537746 3.3306665
0.15918429 0.13251592 1.4802619
0.17254151 -0.33075061 2.6277387
0.098376185 0.10301445 1.3949356
0.15362287 -0.29515368 2.4059522
-0.23109765 0.14945334 2.3370087
-0.1021485 0.16195023 1.5681268
0.17989556 0.13720208 1.692524
0.83655852 -0.4825803 3.2880194
0.77766412 -0.31893256 3.513572
-0.46521097 0.16584592 2.7676239
-0.33810455 0.097134225 3.7910328
-0.54002225 -0.78768003 4.4495316
-1.0050981 -0.65588027 4.7526102
-0.96873206 -0.41391522 3.9972417
-0.23019937 0.17711036 1.5095749
-0.6748023 0.13703801 3.367012
0.20380241 0.14678133 1.9680704
-0.43675479 0.059244614 3.2616308
-0.43484461 0.08889202 2.9670846
-0.012095434 0.14590433 2.6008162
-0.88122362 -0.49601582 5.8130012
-0.035345308 0.067756921 2.3277936
-0.80522209 -1.0686942 7.1733828
0.028425409 0.1528496 2.1208699
0.15226513 0.13038729 1.463677
-0.37791744 0.089831658 3.0051734
-1.0871121 -0.58751225 4.8654385
-0.077921733 0.15710804 1.8802961
0.70064932 0.10924023 1.5395349
0.394833 -0.45825851 3.5931418
0.72062796 0.10004528 1.5105207
-0.995664 -0.57627732 4.5677366
-0.4879908 -0.052811716 4.2916765
-0.53875661 -0.016899813 3.9794283
-0.30691037 0.13573316 3.7614157
-0.3364979 0.082071342 3.819191
0.46619132 -0.53760731 4.1389985
-0.058601495 0.15931414 1.6688976
-0.74900705 -0.87289053 5.6461391
-0.36383006 0.15723503 3.2026796
-0.12738565 0.16028325 1.9158044
-0.69410181 -0.75671685 6.4548254
-0.37658197 -0.11993877 4.2067895
0.68898326 -0.5795362 5.0004196
-0.55969524 -0.55282527 6.3599911
-0.87800622 -0.48429817 5.7926517
-0.36856583 0.031511493 1.6369698
0.15959446 0.13066381 1.4660863
-0.42523932 0.127175 1.3570343
-0.38943389 0.10961219 1.3713458
0.19727291 0.074391812 1.657149
-0.09215489 0.16692244 1.6218476
0.23873401 0.088188745 1.2949539
-0.30468178 0.16539322 1.9587052
-0.37709019 0.088193916 1.8633059
0.27961871 0.073538423 1.53596
1.1981778 -0.40067834 2.6903291
1.5222604 -0.32843214 2.9658535
0.189685 0.10311607 1.302518
-0.37990972 0.034166031 1.6668551
