# .PCD v0.7 - Point Cloud Data file format
VERSION 0.7
FIELDS x y z
SIZE 4 4 4
TYPE F F F
COUNT 1 1 1
WIDTH 1438
HEIGHT 1
VIEWPOINT 0 0 0 1 0 0 0
POINTS 1438
DATA ascii
0.014698015 -0.41089618 5.2629566
0.32927436 -0.0046624946 3.705795
1.0360192 -0.15636733 4.3603926
0.99433863 -0.18534704 4.1629896
1.933808 -0.12012175 4.7363067
0.44299749 -0.0083747441 4.0206761
0.13182753 -0.014652466 4.157886
0.12369691 -0.016628619 4.1268115
0.47050312 -0.0024127292 3.7339025
0.81161535 -0.12262528 6.191339
0.758636 -0.0070529087 3.9351389
2.3198407 -0.36622971 5.1716332
0.39224514 -0.0053976909 3.9011235
0.62968981 -0.0041302359 3.7967587
0.89359081 -0.1981982 3.9284148
0.23650883 -0.005943181 4.0205607
0.74566978 -0.0044407048 3.7832022
0.46683922 -0.12212423 5.3512692
0.029433971 -0.094871931 4.9179802
0.86863589 -0.11877115 3.7607
1.7385645 -0.13747503 6.8251152
0.99423212 -0.18562865 4.1642432
0.74475956 -0.035137538 3.9637754
0.74381131 -0.0030091933 3.7256761
0.50552922 -0.004842882 3.8233151
2.3477941 -0.094305627 4.7522926
0.86407989 -0.13985662 3.7930465
0.50527596 -0.0044478555 3.8268912
0.51509655 -0.013899047 4.2892022
0.093830071 -0.29020184 5.2866392
0.81562573 -0.014293904 3.8915181
0.023142949 -0.30249959 5.2474756
0.77336788 -0.20968354 7.4073691
0.79328662 -0.050433181 3.9657731
0.31667784 -0.3468712 6.1759505
0.95649314 -0.49871036 6.4256091
0.029707858 -0.092267439 4.8816972
1.9443396 -0.35439348 7.5567775
0.32970327 -0.0081720222 3.7456272
0.34608325 -0.009291322 3.8219285
0.80491012 0.0047822227 4.04073
1.000457 -0.16519357 4.1574235
1.9304465 -0.30540767 5.1859083
0.66591513 -0.085799262 6.2799306
2.6110156 -0.10209157 4.9463234
-0.22811133 -0.22193314 4.9363351
0.045474727 -0.19937344 6.5921803
0.86478335 -0.021778179 3.7965999
2.4216459 -0.073315322 4.9143929
0.63047683 -0.0034920732 3.7955887
0.74811292 -0.034977496 3.9739282
2.6079655 -0.099032708 5.0045133
0.088604696 -0.53508145 6.5477257
0.41063643 -0.018442769 4.0345902
0.34105647 -0.0031669049 3.7130837
0.74553072 -0.0070646335 3.9784627
0.74070609 -0.035584696 3.9626458
0.86332637 -0.021838488 3.7954285
0.47237709 -0.0025337061 3.738929
0.42265841 -0.47206002 6.3261614
1.9007752 -0.059686251 4.4084396
0.93804419 -0.098213628 4.0960646
2.441401 -0.31478313 4.9690342
0.52194107 -0.00593872 4.1259704
0.74854487 -0.0062029283 3.7101986
0.78803355 -0.011747424 3.9538705
0.8837716 -0.29566959 7.8122621
-0.0078290021 -0.090526976 4.8996692
0.56774509 -0.14542499 5.5984521
0.35617244 0.0059915497 3.9207299
0.87130749 -0.021550698 3.7894547
0.030623512 -0.049618475 4.922287
0.14429714 -0.21286999 6.3165102
0.86061805 -0.025158299 3.8023961
0.36002621 -0.0027538599 3.792459
0.97949868 -0.18829578 4.1450524
0.78398329 -0.21658605 4.4372864
1.8591141 -0.35463205 6.5834222
0.75006843 -0.040084179 3.9638793
1.0093861 -0.029151866 4.1763601
0.59864128 -0.0022852835 3.68747
2.2393129 -0.063862815 4.6998062
0.50805598 -0.0041791978 3.8326416
0.53555804 -0.0019599327 3.7303715
0.41915539 -0.01578345 4.047051
0.86387354 -0.088665403 3.7898929
1.4770272 -0.60805088 7.2508759
-0.16284482 -0.226964 4.8784585
0.50035113 -0.0048425212 3.8308766
0.77521425 -0.24278618 4.4268951
0.53581494 -0.0016400636 3.7334516
0.99850309 -0.12051091 4.1553621
0.70767772 -0.0057702363 3.6006753
0.38147563 -0.01372059 3.7951171
0.48614728 -0.0070997477 3.9500246
0.47658196 -0.4144088 6.3485126
10.559167 -1.3317201 13.282717
0.16681296 -0.0028652682 4.2071533
0.48911983 -0.001001827 3.7111642
0.87801826 -0.20859672 4.3936443
0.50824076 -0.0038480461 3.8343527
0.76881438 -0.033216 3.9593036
0.33789107 -0.0017519456 3.7247193
0.47776949 -0.001649672 3.734163
0.019972045 -0.35965979 5.2084565
0.46430677 -0.0039239959 3.774617
0.75283027 -0.0062765186 3.9431763
-0.052012734 -0.36973679 5.1831737
0.32823876 -0.012981147 3.7632201
0.74926227 -0.0042589498 3.7327602
-0.10011928 -0.30969614 5.2023473
0.27594781 -0.03100585 4.5968223
-0.031855073 -0.40252125 5.2592502
0.5517534 -0.024569247 3.9099662
0.36872938 -0.0040029469 3.8230269
0.98922718 -0.44185957 6.3697147
0.86384058 -0.023459334 3.8033593
0.66762072 -0.0066615324 3.9077394
0.65423775 -0.00056404423 3.6563463
0.035769947 -0.22175175 5.262435
0.75346929 -0.0073041129 3.973042
0.7833972 -0.26389369 6.1981225
8.8402328 -1.1254027 11.393991
0.72663593 -0.004759422 3.6368592
0.73317552 -0.0044499822 3.6512527
-0.14074285 -0.25363302 4.8968911
0.010496593 -0.32896638 5.1549864
0.81555957 -0.023115238 3.8636913
0.96481442 -0.12487497 4.1840987
1.6834347 -0.35909864 5.8556771
0.86620164 -0.038774781 3.7952442
0.48810023 -0.47074851 6.2700644
0.7373879 -0.01824267 3.9868405
0.77920854 -0.037710954 3.9649582
0.86619794 -0.053677853 3.7934742
0.5400818 -0.0073886579 3.9342136
2.0910192 -0.38281071 5.1079016
2.1101937 -0.34740415 5.0633173
0.50250942 -0.0094112232 4.071383
0.38216877 -0.0064121191 3.9164789
1.0403128 -0.040418092 4.3226681
1.006021 -0.029184047 4.172267
0.40801391 -0.31502539 6.3106041
0.97753775 -0.26668361 7.7623878
0.86146247 -0.22537531 6.0308738
0.5156616 -0.048670828 6.1887283
1.4112605 -0.022007568 4.1261449
2.0116668 -0.38063601 5.2400818
0.016719399 -0.090408944 4.9264922
0.057411492 -0.53247148 6.5383778
2.6271338 -0.074490353 5.0798669
0.46459529 -0.0030600489 3.7797313
0.66852921 -0.0020989752 3.6886585
2.0914342 -0.38300705 5.1102605
0.35663068 -0.0096775386 3.9005256
1.8934196 -0.40973586 5.0887642
0.40413219 -0.00086929626 3.7064085
-0.10614174 -0.31201667 5.21837
1.1363485 -0.024438526 4.2633829
0.85145277 -0.0103518 3.9403799
0.65735406 -0.0022168858 3.67821
2.1019797 -0.34748814 5.0527911
-0.055477835 -0.378912 5.2325349
0.73505598 -0.018146336 3.9822702
0.40422747 -0.00098745653 3.705627
0.73785484 -0.014214034 3.6545496
0.9120751 -0.015845226 4.0251908
1.70007 -0.47733715 5.65625
0.33818933 -0.0067942189 3.7564805
0.82618982 -0.013222222 3.9045465
0.48640704 -0.006870735 3.9518404
0.040788617 -0.14155529 6.618845
0.26700804 -0.0085951192 4.1239357
4.5825543 -0.52167577 6.4653111
0.76523393 -0.20719874 7.3195753
0.5232321 -0.0094834762 4.0810766
0.87316853 -0.02139267 3.7908437
0.85720265 -0.04259992 3.7718887
5.803226 -0.16716991 7.2167764
1.0663537 -0.2153976 4.4296088
-0.058736421 -0.068516687 4.8508492
-0.0022506504 -0.10952264 4.9275827
0.74760354 -0.0087336525 4.0332904
0.043948069 -0.15099888 4.9445801
0.86679381 -0.024518302 3.8078399
3.4412203 -0.38763258 5.7162156
0.24778843 -0.0086101666 3.9920304
0.94877338 -0.068949439 4.1792145
0.82699943 -0.019650647 3.8530695
1.9814774 -0.3814553 5.1982794
0.7769224 -0.24404433 4.4322953
0.65844613 -0.011386713 4.346981
0.91671485 -0.015111567 4.0270009
0.50910085 -0.003319022 3.8382006
1.8093883 -0.1307952 4.733542
0.43716916 -0.0054871575 3.9583533
0.53431672 -0.0015406277 3.7311411
1.0018337 -0.14119567 4.1573234
0.7324146 -0.033305686 3.9694364
1.0020673 -0.10191274 4.2394977
0.77967787 -0.019685706 4.1420283
0.76291382 -0.0068727215 3.9401278
-0.10429562 -0.24067068 4.8421116
0.86628067 -0.021580528 3.798301
0.78767794 -0.015422408 3.9746757
0.048811916 -0.29955319 5.3189087
0.74577707 -0.033278465 3.9708662
0.86431915 -0.031203113 3.799258
0.37438998 -0.0042326651 3.8398218
0.51037693 -0.015569276 4.2498813
0.60731423 -0.002663933 3.7283573
-0.061226938 -0.37914857 5.2501087
0.96757901 -0.16528916 4.1780519
0.99098068 -0.18579923 4.1704512
2.1146483 -0.3138966 5.0347643
0.82487434 -0.011008356 3.9696958
2.4748197 -0.34756899 4.9500523
0.42914832 -0.42239532 6.3085475
0.36037046 -0.002442 3.7915623
3.1271 -0.095890813 5.3468847
0.47928789 -0.0070703407 3.9543638
-0.020246632 -0.10132401 4.9246197
0.78865772 -0.055942748 3.9905725
0.98639995 -0.11323059 4.1637025
0.53444421 -0.0070762713 3.9405804
0.33378768 -0.026142064 3.8571994
-0.097420298 -0.26274732 5.2282157
0.72817314 -0.038387854 3.9757981
0.8666988 -0.030654972 3.8009069
0.75744969 -0.034715127 3.9614809
1.7962611 -0.13056061 4.722393
1.7983088 -0.52789479 5.594635
3.0544641 -0.06583102 5.3446817
0.95142967 -0.3143371 6.3159957
1.5381856 -0.55713511 7.2951908
0.86219579 -0.039069962 3.7927458
3.10251 -0.35089853 5.4155884
2.6447067 -0.073189996 5.0939007
0.51794499 -0.19408661 6.3034096
0.50205046 -0.079383835 6.2065248
0.59999257 -0.0037297076 3.7847495
0.99676222 -0.17361663 4.1573019
0.53407943 -0.0064352844 3.9429386
0.59764743 -0.0071792449 3.9250901
0.74264634 -0.0050124135 3.6871178
0.64815986 -0.0086630369 4.0575027
1.293166 -0.025117779 4.2876472
0.4429501 -0.0079261791 4.022903
0.3681021 -0.0037059998 3.8248172
2.9505067 -0.077056237 5.330163
0.60088509 -0.0018335079 3.6924505
0.0063039488 -0.53121638 6.5997672
0.86068118 -0.021675183 3.7929697
0.074417055 -0.069951974 4.8236566
3.1106381 -0.45461857 5.8868394
0.82755888 -0.012746979 3.9056578
2.036309 -0.37965521 5.166142
-0.056614175 -0.042915754 4.976933
2.8099675 -0.10861081 5.1319003
0.44586805 -0.01972406 4.1727414
0.81398743 -0.023514459 3.8560863
-0.10062917 -0.26445249 5.2414422
0.60821444 -0.0023397519 3.7302749
0.63226175 -0.0049456968 3.7938185
2.5411117 -0.37526813 8.5523996
3.1085954 -0.18011862 5.3987703
0.27604699 -0.031163236 4.5927272
0.85608184 -0.024597537 3.7975082
2.4300039 -0.33819166 4.9158325
1.8160013 -0.34459263 6.4713774
0.85120952 -0.014946152 4.0263062
0.87100756 -0.044003796 3.8087263
0.8859176 -0.058130063 4.1507311
0.41209549 -0.0027323749 3.9435101
-0.10868503 -0.31388053 5.2222152
0.96561038 -0.10508635 4.1788526
0.89479822 -0.24518384 6.2374864
0.82650661 -0.012771786 3.9059203
0.8827439 -0.126072 3.8265862
1.0022385 -0.11385733 4.1849117
0.92789739 -0.011314753 3.985702
0.86475706 -0.080340303 3.7920396
0.84405714 -0.055290218 4.0862365
4.0778356 -0.46964732 6.0473723
2.8545966 -0.091360517 5.1504698
0.74731803 -0.0034066436 3.79492
0.26449302 -0.0074117435 4.1387177
0.55811578 -0.0031728763 3.7864761
0.055462711 -0.32304263 5.1801705
0.35957336 -0.0023637337 3.7942295
0.49467194 0.0058826208 4.1122689
0.80094975 -0.0097449822 3.7643499
0.34412172 -0.0082332874 3.8294342
0.800569 -0.0098385047 3.7639952
2.7461627 -0.092131034 5.0693369
0.87704319 -0.044321444 3.7892432
0.2218145 -0.0012370885 4.1158743
-0.1028745 -0.31235841 5.2137418
0.043518949 -0.1018647 4.9254141
0.76704782 -0.034064271 3.957814
2.2568715 -0.36851835 5.1111126
0.86584014 -0.038986456 3.7948804
2.1467509 -0.36112127 5.1235237
0.32781801 -0.0073800515 3.7546611
0.22502892 0.0011585602 4.2370777
0.87240118 -0.22282778 4.3756928
-0.076842338 -0.040706243 5.0516734
0.78926605 -0.22117391 4.4568005
2.3254128 -0.4541927 5.1044064
0.14575291 -0.49781203 6.4326859
0.10453658 -0.51927841 6.5410609
-0.14858623 -0.25785968 5.2301264
0.37198952 -0.0069145104 3.8634377
0.44271591 -0.0017145769 3.9973757
0.85517132 -0.02078435 3.8908362
0.47126853 -0.011352635 4.5307193
0.74906152 -0.034441948 3.9715793
2.2824078 -0.3381339 5.13239
0.27526087 -0.029821971 4.5986362
0.86697394 -0.018550944 3.8701088
0.49381819 -0.0015201303 3.8216324
1.814296 -0.090652697 4.8017497
1.939806 -0.39289004 5.0999541
0.6832276 -0.017295275 4.3647656
0.4204638 -0.016109237 4.0392323
0.60621673 -0.0068919579 3.9271278
0.53501981 -0.0075104092 3.9405458
0.66998708 -0.14114894 6.9622006
0.46412462 -0.0096091088 4.1088915
2.0918155 -0.02137222 5.3056135
0.12125842 0.02239342 4.3739934
0.75254321 -0.0075195157 3.9730136
0.51605612 -0.025081681 5.3466287
0.50138682 -0.0093527725 4.0468612
1.9359385 -0.074920051 4.722538
2.0275147 -0.27354127 5.0364099
0.58166891 -0.071020402 6.2883582
2.4188628 -0.30102578 5.2854929
2.0229568 -0.28483456 5.2492628
0.57050145 -0.0046844529 3.8585842
1.9362184 -0.36317584 5.1814485
0.86803615 -0.018555298 3.8713379
0.43357575 -0.017113894 4.1625495
0.62840408 -0.0043054037 3.7959094
0.045084894 -0.25402507 6.4748149
0.38471237 -0.008381201 3.8958306
1.9948137 -0.29914027 4.9784312
0.36138123 -0.0019067037 3.8928578
0.021177225 -0.10996845 4.9087753
0.3768523 -0.0097909607 3.8854604
0.0059532812 -0.31238782 5.3142505
0.50149053 -0.0091624083 4.0509377
0.81670439 -0.23223849 4.4537821
0.60464782 -0.0072284164 3.9225082
0.71619087 -0.018578213 4.0669818
1.1724563 -0.02219284 4.3170161
0.40671048 -0.011055331 3.9740665
0.70502347 -0.0043707304 3.7994175
0.98043203 -0.092841513 4.1942492
0.40268502 -0.026264353 4.2102723
1.6036175 -0.067381129 4.4377503
1.0281665 -0.12726386 4.1635799
0.40630516 -0.0042981473 3.9543195
1.1743854 -0.022464337 4.3190222
0.59948689 -0.0066749849 3.9307866
2.097908 -0.27089712 5.0413547
-0.047111355 -0.28722212 5.2918649
-0.030929357 -0.35215431 5.2686081
0.95466977 -0.2706264 8.0713882
-0.12824461 -0.23610382 4.8844471
-0.05359346 -0.28933534 5.3147712
0.37747905 -0.55871844 6.2815971
0.3890135 -0.013254275 3.9269643
0.2026795 0.0033730958 4.1803217
1.9274853 -0.31288666 5.0832725
0.51402706 -0.0077302163 4.0778184
2.2832127 -0.34922126 5.1401486
0.98936307 -0.11985726 4.1694283
0.38074848 -0.007718055 3.8806844
0.70493269 -0.0045294021 3.8001564
1.1175984 -0.024698747 4.2514143
0.72848719 -0.025585102 4.0001345
0.75513238 -0.0054130531 3.9962971
1.7495267 -0.12893449 4.7515006
0.8651408 -0.027605182 3.7852733
1.4275298 -0.03564322 4.5698543
0.018711682 -0.11098682 4.9182301
0.77919388 -0.010207894 3.8262544
0.87406194 -0.02138591 3.7910767
0.99210411 -0.18521374 4.1619334
1.0181431 -0.12786582 4.1531463
0.40723276 -0.0057314159 3.9414444
0.40108562 -0.016977241 4.0555334
0.25704139 -0.043421023 4.6381865
0.72772503 -0.039034273 3.9742818
0.77063888 -0.037661947 3.9533815
0.45255259 -0.014591121 4.0101628
2.1004796 -0.43894985 5.1296535
0.040926944 -0.057427928 6.7421641
1.6114225 -0.23536666 5.6369033
1.9013778 -0.23447914 5.0180626
1.9570887 -0.095746949 4.7117052
0.82233506 -0.013741473 3.9011524
0.0129352 -0.1484884 4.9187374
0.86549133 -0.02015149 3.8687229
0.75793707 -0.004628385 3.8417637
0.6307497 -0.0090777129 4.0367098
0.745915 -0.034431297 3.9696765
-0.10954144 -0.30308077 5.2195311
1.6347799 -0.37367517 5.5813336
2.2870994 -0.34954602 5.1444807
2.0893269 -0.43869805 5.1137152
0.29599887 -0.016124764 4.0101385
0.98020613 -0.1245186 4.1713395
0.39693761 -0.41641331 6.2503414
0.064620115 -0.30474308 5.1803083
-0.1231208 -0.3555795 5.347609
0.010522248 -0.16079156 5.1048079
0.80525959 -0.011422339 3.7711713
0.84890985 -0.015072904 4.0228114
0.53415149 -0.0055081332 3.9485893
2.4061506 -0.34760794 4.9104819
0.66501158 -0.0072635631 3.9017568
1.992286 -0.10179958 5.0643101
0.38503689 -0.028813997 4.0501089
0.78410411 -0.014835922 3.9711974
0.47871965 -0.00637567 3.9563887
0.74252397 -0.0041440595 3.8071947
0.82783151 -0.01405296 3.9711363
2.1113966 -0.33527312 5.0701056
1.0081118 -0.031860113 4.1729975
0.52496058 -0.0089711472 4.0835724
0.63151902 -0.0047230055 3.7934949
0.69794595 -0.0051091677 3.8312578
2.1886289 -0.41534379 5.2224512
2.1085734 -0.39922997 5.0804791
0.47943968 -0.0067259027 3.9569902
0.052741662 -0.32528234 5.1933436
0.75038946 -0.039953116 3.9640396
2.0672843 -0.2555854 5.0120611
2.0245819 -0.46437106 5.2085624
0.66826904 -0.021244399 4.74016
0.31356922 -0.5259707 6.2801461
2.2649219 -0.39185143 5.0757027
0.37767449 -0.015359563 4.4513664
0.73986608 -0.0044928472 3.7864318
0.72852957 -0.037132654 3.9765978
0.49145037 -0.012990486 4.2276306
0.015331266 -0.11013469 4.9225059
1.88524 -0.11974595 4.741581
0.60491222 -0.007224129 3.9205432
0.99957973 -0.12340128 4.1584826
0.0011484921 -0.14853197 4.9735942
2.3639069 -0.34026268 4.8828459
1.6346694 -0.20590644 5.5756888
0.78209317 -0.013535746 4.2539358
0.85966259 -0.20105694 4.352366
0.71992344 -0.0070313769 3.8838573
0.50279838 -0.01054336 4.0630932
-0.0924557 -0.24511072 5.1794143
0.43237665 -0.014860143 4.0769682
1.0255979 -0.12852776 4.1561923
2.3989058 -0.41779059 4.9544997
0.071183942 -0.37201944 5.2327919
0.75046992 -0.045138303 3.9648781
0.79563373 -0.0084079504 3.9744227
1.2506843 -0.019145679 4.2664528
1.0082967 -0.16531476 4.1543422
1.7899225 -0.13271861 4.7908382
0.5969305 -0.0070172874 3.9235425
-0.11311024 -0.31817073 5.2422714
0.81291687 -0.012071793 3.9121017
1.5925767 -0.23623872 5.6074166
0.72065657 -0.0067021055 3.884762
0.77763158 -0.017367207 3.9594421
0.99545205 -0.18726465 4.1751766
0.54159766 -0.006198945 3.9413331
0.44756427 -0.0054527945 3.9544952
2.0201707 -0.45145607 5.094563
0.3912344 -0.0043709935 3.9075887
0.4063291 -0.010859886 3.976548
0.54106176 -0.0063243131 3.9394612
0.76319259 -0.011176531 4.0981221
0.69921088 -0.018988591 3.7998459
0.41839379 -0.0095605636 4.0137572
2.2687085 -0.34078074 5.106833
0.87237805 -0.22265339 4.380044
1.5947669 -0.080378041 4.3988304
0.72980821 -0.037873324 3.9788532
0.73817426 -0.043174889 4.0120749
0.19719477 -0.37644014 6.2050505
0.65461797 -0.0090750158 4.0901279
-0.084240682 -0.35640031 5.2609558
0.56909072 -0.0066694738 4.0198541
0.38808358 -0.01256201 3.9326394
0.35434011 -0.23136361 6.1933231
2.0979607 -0.26117972 5.0380936
0.63062006 -0.0096361246 4.0336676
0.021869263 -0.51516169 6.5761218
2.1543384 -0.40692452 5.1029077
2.1289318 -0.39731261 5.087728
0.73042512 -0.0093960473 4.0009027
2.1240582 -0.310357 5.0485392
1.7188275 -0.49914819 5.6417389
2.1815145 -0.35618633 5.0349641
1.5494519 -0.26050621 5.5471392
0.043112341 -0.30141053 5.3369584
0.068928964 -0.37416348 5.2428231
0.48616695 -0.0069280374 3.9545009
1.6850964 -0.30106238 5.9805512
1.2120694 -0.020256164 4.3547106
2.8725159 -0.10941624 5.181006
1.9861268 -0.39317462 5.1022305
1.0488878 -0.012687381 4.0951109
0.72466433 -0.067945577 4.9249334
1.0026228 -0.65474463 8.1149702
1.1185505 -0.44718286 6.7355061
0.65603209 -0.0097918119 4.0923405
0.99214107 -0.18622486 4.1725063
0.60510975 -0.0066834269 3.9210205
0.63959318 -0.010456994 4.0198336
0.4504503 -0.0090203844 4.0817876
0.75808549 -0.03251325 4.1034875
0.47013384 -0.010538775 4.1113834
0.75290775 -0.0076930462 3.973639
0.54123664 -0.0060804235 3.940346
2.104526 -0.39630666 5.0760307
0.53312564 -0.0073581147 3.936938
0.56945634 -0.0086495709 4.0142684
0.80493379 -0.015946908 3.8412709
0.96634096 -0.16547953 4.1766768
0.82447881 -0.011342867 3.9685047
2.3465455 -0.3406868 5.1246095
0.73394525 -0.018187204 3.9810007
0.91249985 -0.015668295 4.0269737
1.9019544 -0.07201945 4.6899757
1.768782 -0.50317675 5.3123407
2.0532987 -0.41804528 5.0369525
0.34897822 -0.12715237 4.875134
2.1846654 -0.37158579 5.0159383
0.98886937 -0.12476743 4.1658397
0.99056727 -0.030985488 4.1778579
0.72818857 -0.039673541 3.9749212
1.0267969 -0.12073714 4.2729416
0.82113218 -0.011786024 3.965189
0.32588577 -0.011367352 4.3317509
0.62906975 -0.0086180409 4.0350113
0.67169803 -0.0081535019 3.9379828
0.9646244 -0.15242535 4.1755886
0.68727976 -0.0074326927 3.987721
2.3259325 -0.46396881 5.0519748
0.23525143 -0.038004793 4.6050129
0.62720299 -0.009994884 4.0270538
0.72758454 -0.0067211469 3.882374
0.83915532 -0.01113248 3.9181707
1.9777352 -0.075924419 4.7084274
1.1618453 -0.021925513 4.267024
0.99878538 -0.054426 4.1609168
0.82908189 -0.012470159 3.90692
0.72353208 -0.026224097 3.9918401
0.51428121 -0.0082146898 4.0721679
0.76553172 -0.029283009 4.1102595
0.68546128 -0.0077543515 3.9776244
0.75670391 -0.0053269109 3.8425932
1.9085275 -0.11870702 4.7214541
0.92841959 -0.043444443 4.1101036
0.97545344 -0.14114812 4.1698179
2.0513074 -0.38847008 5.0261326
0.73790729 -0.043106381 4.010931
2.3520691 -0.45475185 5.0855837
0.75718361 -0.056211863 3.958581
0.98719525 -0.098293595 4.1658816
0.90639567 -0.016493989 4.02109
0.32664862 -0.011530641 4.3290095
1.0037649 -0.11025302 4.1545672
0.75071448 -0.033798642 4.0034041
0.37832457 -0.014816422 4.4693184
0.75096041 -0.0064701941 3.9419277
0.51390713 -0.0060906741 3.945215
0.91772503 -0.032468326 4.0933118
0.30329874 -0.011276739 4.2318845
0.98889798 -0.046253175 4.1495614
0.81361473 -0.017324965 3.8539422
-0.045271788 -0.37478256 5.2527561
2.3362124 -0.45077068 5.0734048
-0.047112275 -0.23760955 5.1232691
0.068262346 -0.37538642 5.3628597
0.56757522 -0.016316168 4.3999062
0.78496397 -0.22141853 4.4256535
0.99949032 -0.17369601 4.1588526
1.6725553 -0.038877569 4.5870867
2.0859146 -0.073695756 4.8277841
0.56115705 -0.0055967206 3.9167438
2.0488856 -0.16047916 5.1500864
0.73248774 -0.033092316 3.9693704
1.0145533 -0.12443167 4.1532674
0.78627652 -0.011320345 4.250566
0.64222854 -0.0094545828 4.0325789
1.7649128 -0.033920165 4.7023826
0.040881723 -0.4088265 5.366992
2.3094773 -0.39103583 4.884634
0.73131883 -0.029162448 3.9786031
0.001634049 -0.53301126 6.6164069
0.99843937 -0.10426965 4.2361565
0.35165974 -0.23098369 6.184413
2.2455835 -0.3660326 5.0994759
1.9883214 -0.096304893 4.7216358
0.4864634 -0.0070067961 3.9497492
0.017390667 -0.5190357 6.5973825
0.81385726 -0.018934542 4.3980498
2.1471395 -0.32085949 5.0571489
4.0225983 -0.11143277 6.020154
0.23869602 -0.3640596 6.2772002
1.6186482 -0.27269268 5.5574164
0.74303979 -0.034299705 3.9671967
0.64880002 -0.047809131 4.7159438
0.49756613 -0.023527538 4.0856328
0.078731686 -0.25896499 5.2296228
0.22050226 -0.35168153 6.1672378
0.67609507 -0.018666748 4.3379083
2.9925406 -0.10113132 5.3107123
0.017168688 -0.5178147 6.599709
2.9270594 -0.097102195 5.2892027
1.615037 -0.43015581 5.7057104
1.7561797 -0.28377709 6.0592265
1.0069919 -0.044216651 4.1716452
0.74438065 -0.0067318017 3.972084
1.0373954 -0.36617142 6.4821124
1.0144576 -0.23490833 6.4609151
0.83058554 -0.057795268 6.1527219
0.81744033 -0.3346307 6.3991137
0.047560003 -0.091751985 4.9222922
0.43581793 -0.016270261 4.0779905
0.69091988 -0.010138124 3.9831715
0.27598417 -0.030843891 4.5984063
0.31460893 -0.028188242 4.7587867
0.061462369 -0.28638789 5.2053471
1.0022593 -0.093400717 4.1662807
0.02824264 -0.092399195 4.9243193
0.75906694 -0.033486508 3.9614887
0.11360367 -0.29135138 5.2128572
0.73152906 -0.013433697 4.003644
0.91398102 -0.018309195 4.0953465
0.026845604 -0.11988882 4.9205704
0.030628815 -0.047879025 4.9241858
0.59243464 -0.0098407352 3.9091275
2.3438694 -0.46061552 5.0392952
1.7649275 -0.57183748 5.6231203
0.46658671 -0.12329917 5.3396626
0.46440306 -0.0096585872 4.1105318
0.44094145 -0.18520826 4.8233542
0.29040933 -0.006114651 4.318563
0.75478792 -0.007161024 3.9768653
0.84826607 -0.63779509 8.0942144
0.23495682 -0.037503555 4.6072469
1.9926043 -0.12298782 4.783762
0.66692615 -0.0075753592 4.0007772
0.50125253 -0.0085766846 4.0497451
0.49774292 -0.012065645 4.2388387
0.029424299 -0.11340237 4.9159985
1.0918841 -0.02608972 4.1744852
0.81816429 -0.018590285 3.9191358
0.31605774 -0.011767232 4.2678175
-0.056497268 -0.28207186 5.2660379
0.43782842 -0.0059441845 4.0023861
0.77865618 -0.020340223 4.1382318
0.73367554 -0.040722445 3.9782805
0.77092797 -0.0058635478 3.8949234
2.3348548 -0.39460602 5.1364417
1.0017236 -0.16488807 4.1584544
0.72968388 -0.013986405 4.0010076
0.7398296 -0.01753578 3.9725709
1.7167063 -0.39040664 6.0026593
0.7785517 -0.028555648 3.958854
0.90156782 -0.43938345 6.0879521
1.1291702 -0.023825139 4.1726828
0.50234151 -0.0070597637 4.0764513
0.96699864 -0.10516265 4.1813817
1.1873962 -0.18089506 4.5891013
1.7601914 -0.4839128 5.6169949
0.60468549 0.00041147956 4.1789389
0.75604641 -0.0059258346 3.931242
0.77931076 -0.011786751 4.2310734
0.47011694 -0.010246384 4.1127396
-0.043326236 -0.33572325 5.2517123
0.47949174 -0.0076675047 3.950182
1.7165986 -0.41969058 5.8793988
0.2820864 -0.012292892 4.2815433
0.41378701 -0.0059307422 3.9707999
1.8129983 -0.13242577 4.8129497
0.7343623 -0.0086770998 4.0064306
1.0044841 -0.075338155 4.1491771
1.8989996 -0.073034018 4.7315097
2.3458283 -0.46856448 5.0665174
0.9716652 -0.15468058 4.1837988
0.77009761 -0.032177728 3.9527545
0.39541289 -0.016630739 4.4857163
0.80669498 -0.0073138927 3.9902284
0.12732917 -0.29162127 5.1756868
1.9260286 -0.070809178 4.7109652
0.19100593 -0.29767737 6.273808
1.725095 -0.45062476 5.5418301
-0.047210012 -0.33792329 5.2660437
0.045194667 -0.10216998 4.9209909
1.7958865 -0.12882186 4.7941341
0.11603942 -0.29750881 5.3030415
0.68299168 -0.0061509702 3.9430788
0.73066741 -0.0093969544 4.0011024
0.7867009 -0.24610001 4.4395804
0.38593256 -0.016816013 4.0244784
0.64343822 -0.012870434 4.2982626
0.73099864 -0.01459008 4.0032101
1.4987965 -0.52204692 7.3249636
2.3000975 -0.4007687 8.3208523
0.98890805 -0.098341897 4.1687446
0.75579172 -0.0063626678 3.9309945
0.67252088 -0.029279031 4.631619
1.0415411 -0.36892283 6.5174599
0.50271255 -0.016072663 4.2095404
1.9356606 -0.11515436 4.694684
2.2457969 -0.38024902 5.0873876
0.4560717 -0.17735064 5.3575907
0.46365884 -0.014237312 4.4436393
0.74752051 -0.045021836 4.0654416
0.99802518 -0.12042247 4.1557407
-0.10963415 -0.26858959 5.2653637
-0.082260594 -0.36333382 5.2763534
0.27736136 -0.52847731 6.379591
0.4904556 -0.017582642 4.2274241
0.77785695 -0.24033958 4.4135561
0.38119158 -0.016001124 4.44101
0.46489683 -0.015588215 4.1600494
-0.013316524 -0.38771617 5.2679853
1.8304405 -0.068542235 4.7768779
0.44333187 -0.010143044 4.0020957
0.8146016 -0.42431712 7.7149787
2.7626832 -0.34578443 5.5081005
0.95093417 -0.082621649 4.1901131
0.3101176 -0.10613427 5.0321999
1.0364553 -0.015736399 4.1030054
0.67930198 -0.0069065695 3.9387918
0.67263603 -0.0076628472 3.9385891
2.3758128 -0.44811934 5.1518998
0.6442014 -0.0086028511 4.0294533
0.73361075 -0.025541613 4.0083866
0.72952366 -0.039757609 3.9761395
1.0001186 -0.17368002 4.1593084
0.98731238 -0.12059499 4.165823
0.6572119 -0.0096651679 4.0962625
1.1569548 -0.021616226 4.2618356
0.33455062 -0.012433302 4.34199
2.1159928 -0.36256173 5.0762172
0.9106285 -0.015997417 4.0293312
0.40239623 -0.026493493 6.2066503
0.5166477 -0.40604368 6.2723689
0.77660906 -0.021238212 4.1310983
-0.081620984 -0.28851354 5.2846045
0.8144905 -0.011600612 3.9127734
1.6730382 -0.39662564 5.5291891
0.1237538 -0.28740978 5.1838369
1.6810107 -0.32189369 5.535759
0.49924383 -0.013281005 4.2318602
2.3731608 -0.38220432 4.9180427
0.3147321 -0.026104013 4.7625666
0.29719919 -0.0865153 5.036715
0.48752227 -0.015308742 4.20579
0.64904135 0.03784664 4.4397206
0.96628374 -0.022143636 4.0484552
0.78530157 -0.011828723 4.2510142
0.75796616 -0.034202855 3.9610963
0.030797413 -0.29919183 5.2706423
0.67962575 -0.0067299013 3.9390583
0.67390001 -0.0069796448 3.940531
0.7839433 -0.24006112 4.4398093
0.42797032 -0.013258022 4.0415254
1.6822418 -0.4491857 5.6677451
0.36989251 -0.010713716 4.5323029
-0.054957189 -0.24865143 6.5617089
1.3691252 -0.14319426 5.0203724
1.5023719 -0.15569524 5.3164377
1.2911341 -0.025699323 4.2781363
0.82363963 -0.011116957 3.9677649
1.1149364 -0.025984421 4.1703548
0.73183036 -0.025733432 4.0059819
1.0016326 -0.17431176 4.1612787
0.4990252 -0.013342131 4.232687
0.090975061 -0.30779901 5.4710956
0.45065367 -0.0090651587 4.0814853
0.57718104 -0.010612744 4.0188971
0.35522792 -0.12432779 4.8334889
0.99032611 -0.26579431 6.0034018
-0.035668127 -0.28595874 5.2660508
1.9648455 -0.093531065 4.7009907
0.84408402 -0.014005747 3.9595072
0.76423395 -0.0076061562 3.9658675
0.33777511 -0.45245516 6.3677344
0.55263889 -0.010517951 4.1351285
0.98981684 -0.17178671 4.150506
0.56434816 -0.005201844 4.0216079
0.65332884 -0.028925722 4.7359457
0.79263371 -0.0049871267 3.8783355
0.71976209 -0.034722362 3.9658363
0.095549032 -0.32350197 5.2679596
0.56878871 -0.017300606 4.3893223
-0.09231963 -0.34807363 5.2758069
0.31748351 -0.037147302 6.024014
0.41433898 -0.014875455 4.0482702
1.1840026 -0.29213244 5.000082
1.0007285 -0.24412464 4.5807595
0.31236181 -0.0080098771 4.3659453
0.41418427 -0.014511945 4.0490551
0.41295102 -0.01746973 4.5495825
0.050356351 -0.292101 5.2075963
0.10887451 -0.23054327 5.2086544
1.6050994 -0.3095932 5.6244907
0.16997758 -0.46397346 6.2602272
4.0102663 -0.50814247 6.4912071
0.42166507 -0.015310732 4.0560584
0.44250408 -0.0056658364 4.0775743
-0.1044284 -0.54920787 6.8383837
1.0809151 -0.12384136 4.3346667
0.099398486 -0.3265838 5.259819
0.071549349 -0.24589397 5.1812282
1.2703836 -0.019007856 4.286149
0.7488395 -0.01008608 3.9482245
0.079705052 -0.25771409 5.2246556
0.41422895 -0.015059608 4.0477266
1.8848001 -0.28986275 7.1091881
4.1317773 -0.51663506 6.6140909
-2.785157 -1.1214546 12.969616
0.70189464 -0.034810252 3.9439247
0.3315919 -0.020057322 4.7494111
0.98304451 -0.092966415 4.1971059
1.4312803 -0.5868597 7.240478
0.41424969 -0.017315349 4.5512853
0.73290563 -0.036091052 3.9709184
1.6219829 -0.25024188 5.599009
0.58239746 -0.013068511 4.5043292
0.43584761 -0.012890801 4.0603323
0.56799173 -0.015601489 4.4114289
0.038019579 -0.29706514 5.2580686
1.6809618 -0.36693764 5.5339265
-0.056808367 -0.092911549 5.3745108
0.67563921 -0.025853291 3.9136851
0.64203018 -0.0058172238 4.0367703
1.260222 -0.026261691 4.3113756
1.6294645 -0.30128586 5.6921945
0.62773019 -0.0085265143 4.0326161
1.3007768 -0.02735634 4.2756753
0.77022827 -0.030159764 4.1171651
0.76997066 -0.005536308 3.94626
0.38691247 -0.016866753 4.437304
0.74397111 -0.0076454026 3.9784243
0.68253475 -0.0089238081 3.9722567
0.50045753 -0.0076836138 4.0516534
1.9356023 -0.1203026 4.7365761
0.0056289732 -0.25000149 5.1854877
0.76000297 -0.033207271 3.9621994
0.78341526 -0.011750707 4.2424159
2.2458618 -0.38963866 4.9825344
0.74916178 -0.0080435425 3.9532137
0.86505324 -0.21944544 4.3664064
1.7147129 -0.36291543 5.8799653
0.51775044 -0.3949841 6.3593311
0.73516709 -0.032596618 3.9700336
2.2549529 -0.38596004 4.8544354
0.79163188 -0.041536257 4.1378331
0.72629327 -0.010265779 4.0867834
-0.018748892 -0.36163586 5.6767993
0.76352328 -0.013872409 4.100503
2.2428708 -0.38569939 4.9785218
0.9690882 -0.10482576 4.1771626
1.1477553 -0.02068964 4.248805
0.45069632 -0.011022343 4.1091881
0.9615919 -0.022076137 4.0449948
0.43169147 -0.014449746 4.0785413
0.46630827 -0.016184231 4.1556563
-0.024015578 -0.38977894 6.0578012
0.58698905 -0.01059307 4.067318
0.73194957 -0.02847228 3.978966
0.90241063 -0.026299426 4.6394653
0.51567626 -0.0090480251 4.0685625
0.88430804 -0.01607074 4.3924646
0.43907878 -0.013599106 4.0542474
0.73136324 -0.013339142 4.003274
0.50084198 -0.0082285823 4.0495491
1.3870575 -0.041001845 4.4271975
0.3166801 -0.011685622 4.2654686
1.0121524 -0.140709 4.150054
0.88518184 -0.014837592 4.0112262
6.0532641 -0.1268149 7.366261
0.75869256 -0.012008363 4.0917597
0.73124707 -0.0089230286 4.0958695
-0.041214712 -0.30482394 5.1346345
0.62677646 -0.0075924066 4.0188708
2.2463074 -0.47999245 8.2236643
0.76892245 -0.033197511 3.9594293
0.50455225 -0.019736279 4.2837968
0.3494783 -0.22481322 6.1028395
0.99022758 -0.10686486 4.1621375
0.73521268 -0.03285576 3.9701407
0.59165931 -0.012310638 4.2502398
0.75088698 -0.039976403 3.9641709
0.74303973 -0.035857268 3.96698
0.42182833 -0.014867059 4.0690956
0.5793758 -0.0081432564 4.0328469
0.7523483 0.015008196 4.0987477
0.561728 -0.009501623 4.086638
0.4286001 -0.012831092 4.053082
0.73244733 -0.018146832 3.9786937
0.74146044 -0.033746392 3.9650769
1.6532184 -0.30903193 5.7374125
0.52550071 -0.009097835 4.0842533
0.38971278 -0.017894659 4.4242902
0.41469359 -0.01475232 4.0474639
0.76318979 -0.016675182 4.0994115
0.77265596 -0.02380936 4.1243062
-0.086127438 -0.25153545 5.274713
0.97417271 -0.12473326 4.2644439
-0.051583894 -0.24491493 6.5396838
0.73156172 -0.018287089 3.9775765
-0.15882935 -0.57126802 6.9667425
1.0252057 -0.15510355 4.1973648
0.51328874 -0.019697614 4.311543
0.7701444 -0.0091539565 4.1115031
0.51516193 -0.0093639018 4.0661263
0.97508144 -0.14927571 4.172235
0.34018892 -0.024011746 4.5130453
0.80776435 -0.040787723 4.1576128
0.76268345 -0.016588572 4.0983491
0.92182422 -0.01620323 4.0452123
0.037362743 -0.14392716 4.8982921
1.2977788 -0.024860939 4.279458
0.68579632 -0.35104769 7.2088757
0.82101601 -0.011931572 3.9648852
0.67148942 -0.013220047 4.3302789
0.019529549 -0.35076061 6.4826922
0.74344361 -0.027721021 3.9961021
0.73322684 -0.02456337 4.0079885
0.78804702 -0.0046053459 4.1349096
0.62759972 -0.0096347472 4.0293427
0.046937507 -0.24885097 5.1740909
0.52000117 -0.0097337104 4.0952897
2.3842404 -0.35239032 4.9556823
1.6626513 -0.30352175 5.4324751
0.78956008 -0.0092068082 3.970196
1.0068436 -0.16504231 4.1526074
4.9011731 -0.27508354 7.0379324
0.4621599 -0.0080635361 4.1185989
-0.0021900872 -0.36079794 6.5082054
0.75249594 -0.011238573 4.1600456
0.49334946 -0.012258763 4.2323318
0.72863942 -0.016351491 4.0079737
0.52177167 -0.0036225652 4.1642675
0.72925133 -0.024900991 4.0016346
0.50430411 -0.016434273 4.2100806
0.98066127 -0.0180679 4.0962291
0.7811383 -0.014901225 3.9697604
0.51547641 -0.0084642703 4.0724015
0.55284846 -0.016883193 4.3832617
0.62627214 -0.0092891203 4.0365953
0.76483351 -0.025801562 4.1041822
0.7337392 -0.033192039 3.9715085
0.05120112 -0.36914402 5.2456508
0.59229666 -0.012212934 4.1212277
0.23955545 -0.027411912 4.7099142
0.8296116 -0.013290336 4.2497902
0.76945883 -0.033061493 3.9596922
0.99869305 -0.12317215 4.157094
0.99082446 -0.096758291 4.1723876
0.42042646 -0.39708307 6.2047977
0.98860168 -0.10102466 4.1672502
0.96717042 -0.15167873 4.177846
1.7143776 -0.48947066 5.940587
1.6457974 -0.25959188 5.565639
0.52592182 -0.013338598 4.0978127
2.2566741 -0.41856655 5.0595961
0.47989404 -0.46968684 6.2650766
0.45438033 -0.018944196 4.2270508
1.1343673 -0.024502086 4.188096
0.43303767 -0.015232594 4.075881
0.9050476 -0.016650209 4.0263667
0.72279698 -0.0069874101 4.0217528
0.62526023 -0.022917926 4.6549921
-0.018843478 -0.3493059 5.2121468
0.96712875 -0.16353458 4.2432618
0.82384914 -0.011089727 3.9677751
0.74806339 -0.0086748395 3.9690897
0.64248568 -0.0092434557 4.0227137
0.46403924 -0.030820392 5.3328776
0.78148323 -0.014998998 3.9700356
-0.093085721 -0.25252047 5.2933197
0.3839927 -0.013359558 4.5195575
0.072482646 -0.28876948 5.2457275
0.65683222 -0.010187653 4.3461938
0.73304826 -0.040469866 3.977478
0.57099497 0.016223533 4.174252
2.3164768 -0.34374687 4.9124851
1.0000833 -0.12359145 4.1590347
0.38006023 -0.35404086 6.2484698
0.50857896 -0.015203776 4.2339625
0.75013632 -0.039543852 3.9640779
0.77672058 -0.037106514 3.9614642
0.47707912 -0.044905439 4.4200587
0.81118959 -0.019241169 4.3955989
0.73324692 -0.04357513 4.0045514
0.72502041 -0.034701604 3.9748604
0.37028319 -0.007651214 4.6273804
0.46689078 -0.12412344 5.3386188
0.98724401 -0.098399363 4.1653576
1.3985008 -0.19449572 5.04105
1.0143824 -0.14106295 4.1513906
2.2528164 -0.36700556 5.0299883
0.4029665 -0.53320348 6.2442317
0.027833633 -0.21037304 5.1437368
0.72940141 -0.037333734 3.9793825
0.56629854 -0.015411967 4.4090714
0.52692485 -0.0095203249 4.1312914
0.33010927 -0.011295658 4.3519893
0.73238438 -0.036434591 3.9707878
0.53544009 -0.02143641 4.3439813
0.51751518 -0.013517892 4.2820525
0.72655743 -0.016225636 3.9970775
-0.00044920028 -0.35551074 5.8373837
1.6721674 -0.33960497 5.6050296
0.53492284 -0.014383515 4.3331447
0.75853944 -0.0355069 3.9613748
0.74239683 -0.03452947 3.9651067
0.77417052 -0.038471427 3.9591064
0.7312296 -0.017633382 4.0033798
0.77442235 -0.037425812 3.9594617
0.24994272 -0.45785606 6.2720137
0.51544458 -0.027515793 5.2108169
0.09414351 -0.32388625 5.2717915
1.6762494 -0.36974615 5.5300183
1.7048713 -0.40886125 5.5042048
0.93473399 -0.022273652 4.5279608
0.98725879 -0.098126315 4.166554
0.78450191 -0.011125107 4.2446589
2.0789442 -0.11306882 4.9241118
1.70347 -0.41933024 6.0526943
2.9483993 -0.43564302 5.541635
0.97053885 -0.49339339 6.3720441
0.51096874 -0.031142486 5.0734935
0.84605503 -0.40567735 6.274581
2.0025573 -0.54031324 6.777225
2.6069636 -0.38679591 8.221118
0.98107862 -0.26196411 5.9514556
0.36419928 -0.3368358 6.1202083
0.98838037 -0.10529088 4.1651926
1.393151 -0.53979611 7.3074722
0.49896461 -0.15768313 6.1063876
0.73486388 -0.04328071 4.0060763
0.76054776 -0.033024102 3.9626215
0.7579937 -0.018763905 4.091042
0.59409022 -0.010728277 4.1353388
0.79558361 -0.0078717144 3.9738114
0.750314 -0.039569229 3.9640801
2.0952101 -0.12043591 4.9340262
0.99093378 -0.16854474 4.2663417
0.58009136 -0.011008972 4.1079116
0.51320183 -0.019634258 4.3090267
-0.051902145 -0.24366418 5.2654781
0.76647651 -0.025097672 4.1064353
0.77685142 -0.037497398 3.9610589
0.60377896 -0.009229403 4.1261621
0.52632284 -0.0074065602 4.1434875
0.56654495 -0.015916625 4.4034753
1.9167023 -0.072654575 4.7436242
0.75847083 -0.036556449 4.0867443
0.45635679 -0.018314505 4.187243
0.75193983 -0.036001582 3.963196
0.87982714 -0.016914051 4.3658309
0.74611819 -0.033955615 3.965625
0.50999647 -0.01482666 4.2600298
0.75070846 -0.03961866 3.9644241
0.11406823 -0.2973929 5.2208791
0.85788524 -0.017601591 4.3766356
0.74291486 -0.036030974 3.9663992
1.8293287 -0.33721617 5.5416584
0.10464606 -0.33450365 5.2446918
0.77010328 -0.033154 3.9604144
0.78835577 -0.043522272 4.099484
0.60325027 -0.010302607 4.1219158
1.7872374 -0.1305612 4.7569046
0.97810805 -0.1841144 4.2735186
0.99876821 -0.14097401 4.1551723
0.73593426 -0.043191876 4.0073967
0.86979705 -0.027107473 4.1825461
1.3825207 -0.12685508 5.0392156
0.73854941 -0.044428665 3.9705675
0.50008196 -0.011779625 4.2597575
0.72864807 -0.040229782 3.9748156
0.31659776 -0.027452067 4.7616315
0.46890345 -0.0087934816 4.1203594
0.028481526 -0.21677367 5.192348
0.027779019 -0.3138231 5.2139702
1.8364621 -0.093132779 4.7797241
0.52682668 -0.0087591168 4.1345587
0.74741322 -0.054105412 4.0362482
0.5653972 -0.008696584 4.0729361
0.98436701 -0.18603729 4.280952
0.73690671 -0.045614619 4.0334172
0.76190114 -0.018651994 4.0970678
1.7964 -0.068894424 4.7837005
1.7916656 -0.05886976 4.7786241
0.75991213 -0.02611921 4.0971479
0.60321015 -0.010109872 4.1219244
0.97825235 -0.13980433 4.2723594
0.29848391 -0.032111932 4.6205745
0.75585467 -0.0089994874 4.162189
0.82449812 -0.0079174666 3.9785211
0.75259483 -0.046872947 4.066071
0.73186564 -0.025957435 4.0062695
0.98908818 -0.10918102 4.1630802
0.73480457 -0.043336984 4.0061526
1.78153 -0.1303443 4.7550745
0.75350195 -0.035796177 3.9646492
0.75002688 -0.044995032 3.9645779
0.65901715 -0.014083056 4.3303008
0.044300463 -0.29367405 5.2602172
0.096228197 -0.29982972 5.2147603
0.048618857 -0.2115538 5.133636
1.7780619 -0.13150044 4.7493987
0.084753148 -0.35966989 5.2939582
0.96077877 -0.13444011 4.1845903
0.46086645 -0.40456063 6.3230853
0.95525163 -0.13499235 4.1777182
1.4999524 -0.15191506 5.314754
0.7291472 -0.029152494 3.9763091
1.2709234 -0.026662838 4.2616229
0.84145194 -0.016971597 4.3963132
0.7007423 -0.012114212 4.0360422
0.79005325 -0.0099330805 4.2569304
0.65771484 -0.013688181 4.3309517
1.8772115 -0.13036396 4.6672306
0.89643711 -0.023498707 4.5361357
1.7765607 -0.094570763 4.7369647
1.3905129 -0.19116746 5.0289855
0.0093769915 -0.35655934 6.5404649
0.65027136 0.029751571 4.4100437
0.83920151 -0.016937915 4.393157
0.27547672 -0.43349913 6.3009343
0.044976886 -0.29413408 5.256752
1.6389482 -0.4402281 5.6004772
0.39674449 -0.032899063 6.0865612
0.96122062 -0.12208405 4.1809754
0.39800766 -0.41564715 6.2276831
1.6076238 -0.32847607 5.6515608
1.0289125 -0.072702982 4.361733
1.7093638 -0.27835035 5.5169015
0.76732087 -0.032894064 3.9601135
-0.15963255 -0.55359048 6.9144306
0.49440214 -0.14571491 6.0028987
1.8946373 -0.50557232 6.5603375
1.048943 -0.45561138 6.5624638
0.94636881 -0.24957581 6.1295366
1.0216072 -0.12512226 4.1562076
1.8373271 -0.093568079 4.7807422
0.67172647 -0.012368584 4.3301587
0.50532907 -0.020176278 4.2815261
0.59216893 -0.010951078 4.1263819
1.5997078 -0.29804674 5.3107867
0.4810355 -0.017099259 4.1952548
0.5036568 -0.026027599 4.3644891
0.91423589 -0.023230998 4.5142722
1.0035572 -0.14150263 4.1545763
0.7129885 -0.016207706 4.0845213
0.72998011 -0.045719333 3.9824414
0.74747723 -0.012079923 4.1492496
1.5017806 -0.14608683 5.3338504
0.7436648 -0.035894528 3.9672811
1.0000753 -0.12035942 4.1589766
0.76152474 -0.014166048 4.0974741
0.98144585 -0.10138042 4.1675544
0.77410823 -0.013962572 4.2468238
0.31304792 -0.027271289 4.7659607
0.54494715 -0.018376594 4.3704658
0.47827178 -0.02093203 4.337882
0.34790337 -0.023015501 4.8743258
1.9091759 -0.11934757 4.758553
0.60768694 -0.010849115 4.1374531
1.7178183 -0.43604642 5.7924109
0.59482598 -0.01231524 4.2410936
1.2880245 -0.50880903 7.534565
0.97291082 -0.22573957 5.9667444
0.4707059 -0.01439826 4.1573691
1.1819379 -0.022164397 4.2221322
0.7490598 -0.035022844 3.9644094
1.7970748 -0.47284332 5.5852618
0.27083132 -0.031228391 4.6110277
0.070085183 -0.25399354 5.4614463
0.34698117 -0.021922065 4.8783426
0.4901419 -0.017563835 4.2292442
0.5330404 -0.02141316 4.2446837
0.50670671 -0.01412363 4.2404566
0.59042209 -0.014235549 4.2333932
1.82894 -0.48651385 5.636868
0.72679067 -0.034451906 3.9769883
1.0053629 -0.11015435 4.1572905
0.50577414 -0.01321623 4.25103
0.96828282 -0.15195987 4.1792068
1.7963203 -0.45214278 5.5535412
1.0067767 -0.14167993 4.1612177
0.23601168 -0.19937487 6.152997
0.93201929 -0.25892332 6.3654623
0.51329899 -0.019646363 4.3087749
0.50367087 -0.026058439 4.3635421
0.47395524 -0.015216795 4.1597652
1.5509129 -0.15340421 5.3985085
0.62197447 -0.017969001 4.162365
1.5011548 -0.14843802 5.5198421
0.43900746 -0.45232642 6.2733884
1.035278 -0.12272204 5.2163715
1.6068962 -0.46378943 7.3024068
0.72697794 -0.034343079 3.9773138
0.73409617 -0.050478373 4.0397429
0.73367417 -0.033217367 3.9715219
1.6098917 -0.27362949 5.5384808
0.73610258 -0.022601793 4.0131955
0.99121475 -0.1070295 4.1637812
0.98287988 -0.14209512 4.1682429
0.83314723 -0.012502987 4.2592139
0.6106742 -0.27807757 6.7757792
1.0938725 -0.10316173 4.3399234
0.73041177 -0.045721482 3.9829535
1.0174977 -0.12977274 4.1455369
0.30501321 -0.50942725 6.1812592
1.6731843 -0.27473035 5.5860953
1.0007535 -0.14130671 4.1529593
0.24153203 -0.020210922 5.1232944
0.98958141 -0.28505039 6.3396645
0.7492556 -0.054953519 4.0369215
0.53525215 -0.014695114 4.3305292
0.99814063 -0.11992329 4.1558528
1.0865147 -0.10233134 4.3341737
0.95894843 -0.10813431 4.1766353
1.8788012 -0.24050243 5.1837254
0.57527131 -0.013310974 4.2680669
1.0156925 -0.13665672 4.1415467
2.5931592 -0.10124671 5.4961543
1.9644371 -0.4273636 5.1725645
0.30903018 -0.018427158 4.6004291
0.145964 -0.11606985 5.1571608
0.72652632 -0.0099143758 4.0868011
1.0181217 -0.13704635 4.1434069
0.96690601 -0.15248594 4.1773667
0.33748472 -0.016481837 4.7878265
0.62546724 -0.012704141 4.1902776
1.3892963 -0.16351156 5.0088902
0.75262201 -0.036120404 3.9641094
0.75098008 -0.044558726 4.0720568
0.33331817 -0.041254543 4.8827882
0.87488323 -0.016805038 4.3706832
0.97647536 -0.14011936 4.1707182
0.22544234 -0.51418024 6.3106055
-0.2239054 -0.46345285 6.9728479
0.29659703 -0.52581495 6.2555175
0.96953148 -0.10507155 4.1780958
0.74162704 -0.033467039 3.9650209
1.000232 -0.11787388 4.1371598
0.77561462 -0.013141225 4.2497149
0.5358718 -0.014968739 4.3246269
0.6487202 -0.017426578 4.2475743
0.59042346 -0.013428462 4.2386599
1.8337765 -0.092343815 4.7762895
0.51351714 -0.019668732 4.3078127
0.72739655 -0.043850966 3.9818511
0.13990888 -0.15236384 5.151825
1.0078812 -0.119734 4.1533117
0.49965364 -0.01334401 4.2292104
0.89673728 -0.023466747 4.5337625
1.9548798 -0.33401176 5.1927953
0.60253686 -0.52892613 7.3912506
0.30314198 -0.032149605 4.5994267
0.73926157 -0.013933686 4.2778549
0.80589974 0.02161783 4.2329173
0.67493623 -0.018067598 4.5164294
0.49636522 -0.079105482 6.136632
0.94861478 -0.022631133 4.5024295
1.0058452 -0.11052565 4.1575246
0.73435551 -0.010898707 4.1553807
0.96978742 -0.10502461 4.1774383
0.53050506 -0.014811792 4.3165145
0.483046 -0.018465327 4.2511644
0.62297124 -0.014734245 4.3111792
0.74789476 -0.012039603 4.1500683
-0.2147194 -0.50394571 6.948595
0.53501618 -0.020042164 4.3564916
1.1131796 -0.12200896 4.3583107
0.48344764 -0.018104566 4.2403083
0.53642285 -0.025428381 4.2072635
0.020451076 -0.2193335 5.2109327
1.5703453 -0.082715124 5.6141911
0.85279602 -0.01670533 4.3851604
0.21284063 -0.037431024 5.1558061
0.98930573 -0.12572257 4.1666183
0.05104696 -0.29205951 5.2410264
0.92689502 -0.023514362 4.5110388
0.7653175 -0.0099005811 4.0924234
-0.091735199 -0.38926011 6.5904675
0.98471773 -0.099468939 4.1656976
-0.0098223276 -0.3419627 5.2719555
1.0247875 -0.026545342 4.5199056
0.95705903 -0.13208164 4.1803889
2.0336478 -0.44517952 6.9698024
0.50259054 -0.45700544 6.2912869
0.31479159 -0.026723919 4.7642131
0.96224046 -0.12007419 4.1821485
0.83959943 -0.01704726 4.3962111
0.31821388 -0.023660567 4.7536922
2.0775173 -0.14637844 5.5792246
0.51328766 -0.0195524 4.3084831
0.2500501 -0.354693 6.1912785
0.9879114 -0.16403575 4.2749143
0.546709 -0.011408069 4.2452102
1.5242927 -0.16021603 5.3501506
0.66049576 -0.01398718 4.3342586
0.51818371 -0.020333786 4.3522401
0.74758309 -0.034074418 3.9704225
0.72790563 -0.03692485 3.9793241
0.76591581 -0.027971063 4.1117291
1.7724428 -0.50732166 5.9410529
0.98481315 -0.11063468 4.168632
0.98605937 -0.099812053 4.1665993
1.7193336 -0.21454227 5.3799973
1.0113994 -0.12952629 4.1512609
0.99108315 -0.11201598 4.1711998
0.48275542 -0.014572634 4.2016726
1.6410776 -0.20603454 5.5843992
0.50630885 -0.435359 6.4223919
0.49860933 -0.011944419 4.2063441
1.1125185 -0.21420181 7.0341783
0.74678767 -0.044372473 4.0440831
0.093741275 -0.28664955 5.2535982
0.98957139 -0.11776353 4.1694551
0.64429873 -0.014437949 4.2916842
0.76510966 -0.028183781 4.1109104
1.6964287 -0.41126218 5.7060475
1.6923462 -0.34216148 5.4854941
0.12596314 -0.22221069 5.253706
1.0152656 -0.12469584 4.1536026
0.89059287 -0.017297907 4.3528891
0.77688974 -0.018431062 4.4389558
1.7122563 -0.34170812 5.5157204
0.40737814 -0.52828968 6.2805247
1.6827323 -0.32421067 5.511003
-0.20008288 -0.47572178 6.9629173
1.625457 -0.33933145 5.6176543
0.97667331 -0.10690245 4.1709905
0.46088439 -0.40527669 6.3349667
1.0032246 -0.11023767 4.1549625
1.015833 -0.11786791 4.1481466
0.73257536 -0.033202477 3.9700577
0.72497338 -0.034971513 3.9750042
0.25236118 -0.35395482 6.1845703
0.075645447 -0.32581878 5.1882696
0.52145976 -0.18838468 6.0830464
1.6870111 -0.35194114 5.5847783
0.96629149 -0.10522538 4.1811628
1.2597184 -0.51874715 7.337759
0.2009453 -0.4995254 6.2989573
0.49152458 -0.13921285 6.1121092
0.312154 -0.11315625 5.0442142
0.60293049 -0.010860879 4.1790895
0.72622621 -0.046098232 3.9792359
0.90057617 -0.016667264 4.3501372
0.38921201 -0.56790107 6.4194155
2.4504526 -0.45280981 6.1711564
2.033716 -0.24671465 5.5082674
0.4899911 -0.016355641 4.1985059
1.5137112 -0.14100055 5.3345938
1.389722 -0.56637704 7.1925778
0.96025389 -0.1305874 4.1806822
0.98976058 -0.12408314 4.1579218
0.99224681 -0.1268353 4.1697803
0.76365125 -0.026262965 4.1031923
0.45725811 -0.17566837 5.3406496
0.90680605 -0.022839738 4.5305686
0.74338251 -0.039002355 4.0424008
0.74422222 -0.042622332 4.0388913
0.50713664 -0.01403194 4.245707
0.7412132 -0.33471233 7.5217338
1.5140743 -0.41071719 5.6734428
1.862232 -0.35414836 6.7290411
0.76545656 -0.025743928 4.1050653
0.9667564 -0.10212747 4.1678376
0.83569533 -0.30789101 6.4604244
0.38000336 -0.040241204 5.0870438
1.1185956 -0.23407899 6.5272913
0.4467859 -0.14110573 5.3521924
0.059226934 -0.03749634 5.8660641
0.58462805 -0.012231823 4.2139258
0.32696378 -0.0175488 4.7657328
0.63745117 -0.005764029 4.3511443
1.6812105 -0.36526099 5.5387425
0.93743569 -0.042187631 4.4547334
0.33518839 -0.43822861 6.1896982
0.46673742 -0.12838139 5.3381963
0.27449408 -0.21422189 6.1413817
1.7457256 -0.42665726 5.7764368
0.28863713 -0.031014813 4.7931123
1.6302949 -0.30213505 5.8722477
0.70070058 -0.487782 7.774241
1.8287979 -0.35311338 5.6077828
0.91224921 -0.01665468 4.3378563
0.83106685 -0.01771331 4.3993402
0.97369134 -0.13743314 7.5842991
1.070742 -0.31309023 6.033597
0.88230175 -0.083854631 6.5161028
0.75835073 -0.036521982 4.0865974
0.71830434 -0.021221071 4.4423637
0.75686252 -0.036907613 4.0850844
0.87823844 -0.017086599 4.3629303
0.97751683 -0.10972846 4.1758037
0.89335489 -0.016925352 4.3546519
1.0123715 -0.1282203 4.180758
0.085837238 -0.31836733 5.4231658
0.44996119 -0.39905649 6.1138654
0.26965049 -0.21775933 6.1786709
0.97472811 -0.10942791 4.1735001
1.5809108 -0.20213871 5.485889
0.97973651 -0.14171165 4.1733646
0.49887934 -0.012883278 4.2332587
1.1013267 -0.031050092 4.7260971
-0.24255787 -0.4865717 6.8813558
0.62815595 -0.01062506 4.2057528
0.650787 -0.045104388 4.7443581
0.72824323 -0.31885627 7.1725864
1.6834005 -0.32055259 5.9524951
1.7437646 -0.30313483 5.6509829
0.14257812 -0.28586712 5.1721725
0.14560102 -0.11634567 5.159286
1.6405444 -0.2516447 5.5664229
1.8562064 -0.32757774 5.5745521
0.33137131 -0.024148311 4.9504938
1.093677 -0.12025791 4.3411965
1.4820173 -0.10533332 5.1549926
