# .PCD v0.7 - Point Cloud Data file format
VERSION 0.7
FIELDS x y z intensity
SIZE 4 4 4 4
TYPE F F F F
COUNT 1 1 1 1
WIDTH 1190
HEIGHT 1
VIEWPOINT 0 0 0 1 0 0 0
POINTS 1190
DATA ascii
101.48322 -19.50419 -2.7412419 0.22202261
102.49697 -19.494625 -2.7294719 0.17638475
103.4993 -19.49341 -2.7228642 0.18850623
104.49184 -19.488699 -2.7244451 0.12952064
105.5359 -19.513115 -2.7202418 0.060242433
106.45554 -19.499487 -2.6877446 0.018531248
107.48294 -19.507473 -2.6917276 0
108.49629 -19.491095 -2.7048578 0
109.50666 -19.489763 -2.7162361 0
110.49037 -19.505199 -2.7228289 0.0012280702
111.46552 -19.503798 -2.735148 0.045478255
112.74773 -19.367672 -2.6690664 0.20031849
113.34869 -19.570303 -2.543803 0.11954907
114.43296 -19.496109 -2.5560155 0.076708861
115.50549 -19.489874 -2.7408309 0.096301362
116.40364 -19.552105 -2.6133094 0.07751444
117.55553 -19.493004 -2.4624598 0.012743363
118.4549 -19.640003 -2.5624044 0
119.17348 -19.579433 -2.4251008 0
120.81213 -19.38413 -2.8510261 0.025454547
121.20844 -19.526718 -2.8605101 0.063333333
122.62667 -19.343628 -2.6421416 0
123.49341 -19.270584 -2.4749513 0
124.05543 -19.516872 -2.531184 0
125.94188 -19.947861 -2.7105637 0
126.31622 -19.718939 -2.7632663 0
145.60875 -19.158602 -2.513624 0
146.03387 -19.880371 -2.9734092 0
148.7074 -19.554987 -2.5675597 0.023947367
149.38795 -19.589825 -2.4182744 0.0020895523
150.41821 -19.426826 -2.5164647 0.0025714287
152.86174 -19.214325 -2.4893885 0.0012195121
153.10591 -19.054113 -2.474905 0
155.74982 -19.219753 -2.3280277 0
156.26146 -19.546608 -2.4830291 0
-71.774796 -18.608257 -2.0212419 0
-68.539062 -18.855404 -2.0699792 0
-67.804802 -18.787184 -2.0682449 0
-66.767998 -18.735001 -2.0150001 0
-65.249954 -18.413015 -2.0271978 0
-64.391937 -18.38308 -2.0179543 0
-63.457027 -18.227016 -2.0050662 0
73.733971 -18.956114 -2.3082471 0.2325
74.47625 -18.91905 -2.4348533 0.32831895
75.666023 -18.834141 -2.4519377 0.31314906
76.455833 -18.761038 -2.4722447 0.34285265
77.593918 -18.547766 -2.2961438 0.34818631
78.578674 -18.377277 -2.2963293 0.34105128
79.486122 -18.506235 -2.2315116 0.34051144
80.510757 -18.471996 -2.1844499 0.36601502
81.507515 -18.438763 -2.1951933 0.35640854
82.50753 -18.411591 -2.20907 0.35594565
83.499443 -18.407978 -2.2176192 0.36114702
84.47773 -18.410603 -2.2334042 0.34214687
85.46965 -18.433559 -2.2582405 0.32471702
86.434265 -18.55027 -2.2700958 0.29388589
87.452621 -18.618715 -2.3767607 0.21596085
88.684662 -18.397583 -2.5720508 0.11846154
89.572479 -18.476578 -2.8327365 0.1686148
90.481911 -18.462622 -2.8451834 0.28293154
91.471329 -18.460423 -2.8374941 0.23303062
92.479019 -18.465017 -2.827687 0.19036356
93.470131 -18.464464 -2.7952499 0.18302377
94.490906 -18.492182 -2.7672992 0.1376323
95.479874 -18.502151 -2.7709544 0.18313721
96.493721 -18.507185 -2.7585003 0.21052025
97.494141 -18.494806 -2.7799098 0.2092835
98.488121 -18.493233 -2.7759111 0.22890687
99.470558 -18.505398 -2.7513072 0.21439017
100.47902 -18.499292 -2.737416 0.18572371
101.47495 -18.49246 -2.7225225 0.17207061
102.4729 -18.490168 -2.7360628 0.10162527
103.4927 -18.507416 -2.7414348 0.11145644
104.48089 -18.481274 -2.7361369 0.12343135
105.47752 -18.502932 -2.7368138 0.076114319
106.47612 -18.497311 -2.7058604 0.026975308
107.43164 -18.491352 -2.6894245 0.016822027
108.5116 -18.504337 -2.6612525 0.015720718
109.43253 -18.49828 -2.7055595 0.027177913
110.50746 -18.502794 -2.7378798 0.048174601
111.53591 -18.484104 -2.7149215 0.034778763
112.46693 -18.489355 -2.6209366 0.16178218
113.55708 -18.452381 -2.5277905 0.084124632
114.46424 -18.496778 -2.6566319 0.073118806
115.47554 -18.544548 -2.6098654 0.015228425
116.35601 -18.522707 -2.6184292 0.049255319
117.40183 -18.564125 -2.424865 0
118.42606 -18.44698 -2.7305796 0
119.56926 -18.334518 -2.4416263 0
120.72258 -18.506586 -2.8131304 0.029787231
121.47738 -18.442831 -2.8117845 0.13571428
122.70367 -18.865993 -2.3217971 0
131.72243 -18.200294 -2.6392431 0
141.8952 -18.056664 -2.7824039 0.045000002
142.05934 -18.106314 -2.8463178 0
145.64319 -18.649441 -2.5256443 0
146.46878 -18.499218 -2.5370231 0
147.44577 -18.354225 -2.6086209 0
148.35191 -18.880157 -2.6070921 0
149.75421 -18.999252 -2.0037136 0
150.58325 -18.855387 -2.3314204 0
151.14665 -18.081007 -2.9374292 0.015999999
152.89407 -18.998684 -2.2189777 0
153.38678 -18.710405 -2.516104 0
154.36862 -18.377199 -2.4886484 0.00078431371
155.33727 -18.615673 -2.6215563 0
-67.201584 -17.813646 -2.0568969 0
-65.734962 -17.731049 -2.0134065 0
-63.220947 -17.892086 -2.0751536 0
-62.100475 -17.804909 -2.0384946 0
-58.698643 -17.074633 -2.1501756 0
-57.642956 -17.030268 -2.0734582 0
-56.6684 -17.0334 -2.0532806 0
-55.711777 -17.087336 -2.0472839 0
66.822151 -17.193035 -2.0161064 0
70.767166 -17.474247 -2.0395436 0
73.943306 -17.25095 -2.0041227 0.44
74.572678 -17.584871 -2.0051587 0.38230771
76.81382 -17.716795 -2.0085728 0.35166666
77.631142 -17.560038 -2.0252833 0.33760723
78.587257 -17.633879 -2.216145 0.342004
79.520714 -17.475946 -2.2014685 0.33010873
80.537857 -17.484533 -2.2021375 0.34869796
81.529945 -17.428219 -2.271368 0.33332637
82.487991 -17.456463 -2.3230398 0.30129012
83.450737 -17.542278 -2.3601162 0.25801232
84.439995 -17.562845 -2.3373542 0.20525828
85.450211 -17.484818 -2.3553967 0.19131662
86.428665 -17.470106 -2.3064387 0.18565021
87.439522 -17.490931 -2.25369 0.20665634
88.567924 -17.590036 -2.3758516 0.20000011
89.616104 -17.546894 -2.7191916 0.11922351
90.525398 -17.495722 -2.7671409 0.14227086
91.476341 -17.470236 -2.798249 0.22090013
92.464951 -17.482653 -2.7982745 0.14179555
93.468956 -17.486036 -2.7897716 0.13972445
94.469116 -17.481142 -2.7642772 0.15080306
95.489372 -17.488375 -2.7686813 0.15426742
96.486237 -17.48811 -2.7553213 0.22387755
97.501869 -17.504538 -2.772748 0.21726193
98.472519 -17.500004 -2.7850907 0.18004866
99.485863 -17.50075 -2.7607381 0.19034474
100.46957 -17.491465 -2.7513771 0.17419031
101.49169 -17.502998 -2.7283673 0.16968139
102.49279 -17.496382 -2.7377732 0.1253953
103.479 -17.500727 -2.7441535 0.093693674
104.47089 -17.500462 -2.72788 0.12229653
105.43292 -17.494131 -2.7325926 0.1208313
106.47618 -17.488409 -2.7516844 0.13210379
107.45563 -17.497206 -2.6950541 0.061949473
108.47939 -17.519739 -2.6719401 0.0083769644
109.41051 -17.486526 -2.7027752 0.00046875002
110.4628 -17.484045 -2.7256012 0
111.67616 -17.440567 -2.6326313 0.18771908
112.46275 -17.503548 -2.5757654 0.08321999
113.38837 -17.558426 -2.5572774 0.082195148
114.47469 -17.488325 -2.6781027 0.05689076
115.49599 -17.486286 -2.6370239 0.01693989
116.50198 -17.524714 -2.573797 0.0153
117.29854 -17.621565 -2.4404507 0
118.347 -17.439346 -2.5358324 0
120.56858 -17.561356 -2.7599716 0.054047618
121.55357 -17.488199 -2.8683503 0.087499999
132.121 -17.379747 -2.6758113 0
141.81337 -17.69442 -2.5111797 0.0043684212
142.35138 -17.350315 -2.4132586 0.0043283585
143.67085 -17.131672 -2.4502196 0
144.37268 -17.514694 -2.3527315 0
150.88972 -17.679089 -2.1764841 0
151.08179 -17.653833 -2.7498896 0
-72.652367 -16.269022 -2.2403173 0
-59.413177 -16.687296 -2.1525443 0
-58.032494 -16.948729 -2.0479622 0
-57.544876 -16.747417 -2.0486908 0
-56.522324 -16.954597 -2.0396442 0
-55.540112 -16.999846 -2.0064342 0
-54.540833 -16.245068 -2.1258168 0
65.745033 -16.455444 -2.0077646 0.205
66.630722 -16.581408 -2.0130467 0.25653845
67.561897 -16.294184 -2.0191 0.31267604
68.538681 -16.237352 -2.0161495 0.29268295
69.440414 -16.186232 -2.0211272 0.29255816
70.158012 -16.070631 -2.0225353 0.20714283
74.419411 -16.509323 -2.0035644 0.39000002
75.731651 -16.07399 -2.0294926 0.3018676
76.583733 -16.155163 -2.0754335 0.28209993
77.54438 -16.368202 -2.0987787 0.2789329
78.516487 -16.547749 -2.1272125 0.277165
79.492325 -16.592606 -2.1814034 0.26396915
80.514404 -16.62063 -2.2496915 0.22994834
81.622559 -16.440025 -2.4572513 0.16153605
82.385117 -16.397289 -2.5078645 0.17857198
83.485565 -16.512825 -2.3089411 0.14248925
84.464844 -16.480299 -2.3122704 0.14967185
85.508797 -16.501556 -2.3096747 0.20129658
86.426445 -16.439629 -2.2923019 0.16455992
87.540779 -16.325508 -2.3012745 0.083002321
88.562241 -16.277887 -2.3463736 0.051365238
89.524757 -16.492113 -2.5041656 0.065284349
90.529625 -16.542727 -2.6523371 0.088899843
91.516052 -16.509813 -2.7538865 0.22178742
92.464584 -16.47419 -2.7978554 0.2732141
93.464172 -16.483624 -2.7914591 0.19392978
94.460564 -16.484205 -2.7758636 0.1732365
95.483795 -16.4972 -2.7674916 0.11859733
96.471855 -16.493299 -2.7670598 0.16359411
97.492256 -16.500462 -2.7544596 0.22126196
98.478249 -16.500473 -2.7951367 0.17858355
99.492371 -16.504597 -2.7741263 0.18401323
100.47962 -16.489498 -2.7559576 0.16671066
101.50507 -16.508562 -2.7373571 0.16482769
102.46688 -16.48963 -2.7494237 0.17397164
103.50357 -16.511803 -2.741998 0.14160492
104.50611 -16.516958 -2.7456434 0.18734407
105.46718 -16.481638 -2.7200065 0.14872243
106.50065 -16.480585 -2.7595599 0.10339079
107.52349 -16.51306 -2.7271338 0.0093793105
108.50373 -16.485367 -2.6402957 0
109.49662 -16.489452 -2.7352791 0
110.724 -16.339094 -2.6525624 0.15968339
111.41946 -16.528137 -2.6068375 0.12920357
112.43401 -16.564322 -2.5688069 0.093106799
113.54209 -16.464033 -2.6684868 0.056944441
114.52417 -16.524937 -2.5671656 0.023300495
115.47024 -16.535942 -2.7095563 0.001
116.47095 -16.505192 -2.4685593 0.0042307689
117.51155 -16.650503 -2.5794268 0
118.3811 -16.609701 -2.5162795 0.0083333338
119.45421 -16.248585 -2.7029569 0
120.38968 -16.598146 -2.7209454 0.076086953
121.34061 -16.66781 -2.7888191 0.124
123.56476 -16.522558 -2.9834247 0
132.40727 -16.733456 -2.7080925 0
141.20375 -16.647663 -2.6719773 0
142.91197 -16.916466 -2.5963435 0
143.3795 -16.705477 -2.5311782 0
144.43382 -16.40379 -2.2852657 0.034615383
152.5105 -16.038919 -2.5083797 0.050000001
168.40515 -16.416779 -2.4681468 0
-73.483124 -15.851913 -2.2882547 0
-72.1735 -15.436501 -2.158 0
-71.095314 -15.154295 -2.1826696 0.035
-45.103657 -15.421643 -2.0266511 0
-42.886608 -15.237117 -2.0106771 0
-39.065598 -15.24082 -2.0250885 0
-38.48225 -15.311361 -2.0272431 0.031999998
60.860916 -15.026251 -2.0065279 0.16
61.228634 -15.017266 -2.0152278 0.20571432
63.48695 -15.079689 -2.0093915 0.20799999
64.639397 -15.085949 -2.0671458 0.15849712
65.339073 -15.269394 -2.0517733 0.18682927
66.481781 -15.305245 -2.0431302 0.26152441
67.553444 -15.427967 -2.023783 0.31271678
68.532364 -15.457388 -2.0363476 0.28406641
69.537346 -15.40997 -2.0480354 0.3356666
70.5037 -15.379498 -2.0529065 0.3335762
71.550598 -15.232762 -2.0633242 0.30494896
72.5476 -15.152578 -2.0669541 0.25348368
73.5261 -15.291204 -2.0750344 0.23571369
74.521713 -15.491183 -2.0756819 0.24776575
75.493538 -15.626243 -2.0929759 0.23489666
76.475006 -15.584247 -2.1177528 0.20083214
77.497719 -15.52935 -2.1277258 0.1824965
78.504807 -15.520094 -2.1376679 0.17583293
79.509384 -15.518435 -2.1474872 0.16869296
80.492744 -15.455638 -2.2473471 0.16705199
81.727371 -15.449017 -2.4785423 0.13591799
82.380791 -15.528961 -2.564028 0.15034348
83.358322 -15.481077 -2.6762505 0.057978973
84.500893 -15.516021 -2.2675824 0.092095658
85.515823 -15.533805 -2.3002901 0.073649541
86.517693 -15.545104 -2.3039382 0.080944672
87.501976 -15.546211 -2.3650672 0.11398351
88.514404 -15.50104 -2.4314258 0.16439891
89.513107 -15.503253 -2.4856215 0.19097753
90.521942 -15.514187 -2.5638933 0.18187669
91.533226 -15.517904 -2.6870337 0.12599631
92.489922 -15.497747 -2.7882128 0.23527725
93.461067 -15.48419 -2.7954044 0.21551545
94.467354 -15.491977 -2.7866106 0.17348377
95.475502 -15.494513 -2.769443 0.13272578
96.465691 -15.49272 -2.7670224 0.1287975
97.484009 -15.500409 -2.7461648 0.16914384
98.495171 -15.500248 -2.7869182 0.20853569
99.489807 -15.506956 -2.7766287 0.22351763
100.46997 -15.500091 -2.7629986 0.21262994
101.48692 -15.508165 -2.7538569 0.21450868
102.4648 -15.49813 -2.739677 0.18547396
103.47591 -15.497806 -2.7609668 0.15749122
104.49137 -15.505288 -2.7629342 0.15874186
105.53229 -15.496588 -2.7318268 0.12376936
106.53452 -15.504688 -2.7399464 0.1173949
107.48049 -15.488629 -2.7411659 0.080810823
108.45316 -15.504529 -2.6087294 0.042226713
109.63965 -15.367948 -2.6946201 0.13617647
110.48277 -15.486354 -2.597136 0.13376112
111.40972 -15.553848 -2.5418947 0.090989701
112.5406 -15.488182 -2.6358314 0.038406774
113.41035 -15.524788 -2.694397 0.020661157
114.4856 -15.520946 -2.5225358 0.0033333334
115.50067 -15.578532 -2.6340265 0.0084507046
116.31924 -15.525293 -2.550863 0.0070454548
117.36411 -15.362262 -2.6624172 0
118.0051 -15.008373 -2.8905559 0
119.23593 -15.799606 -2.6652918 0
120.37536 -15.650269 -2.6624143 0.070625
121.65685 -15.918253 -2.825305 0
122.44514 -15.630224 -2.8704498 0.029999999
139.86401 -15.200274 -2.6673293 0
140.05333 -15.144545 -2.4033604 0
142.59547 -15.048895 -2.0238247 0.465
143.57643 -15.62703 -2.2176478 0.17272726
151.76801 -15.296974 -2.6037953 0.03125
152.33755 -15.556796 -2.5118752 0.0089285718
167.92102 -15.026596 -2.7288554 0
168.2271 -15.251254 -2.4975629 0
-74.216568 -14.74296 -2.3011923 0
-73.359001 -14.01 -2.1860001 0
-72.703667 -14.319 -2.1673334 0
-71.649368 -14.25702 -2.1934764 0
-67.99955 -14.251454 -2.0727429 0
-65.030861 -14.409913 -2.017633 0
-64.556915 -14.292418 -2.0547161 0
-60.609001 -14.134 -2.1949999 0
-45.701683 -14.820996 -2.0416324 0
-39.187424 -14.585938 -2.0608573 0
-38.861797 -14.811846 -2.0510695 0
-29.168766 -14.042993 -2.0015936 0
59.497467 -14.005304 -2.4703 0
60.711838 -14.850346 -2.0155423 0.2568889
61.237541 -14.953356 -2.0183322 0.2690323
62.604637 -14.643551 -2.0062497 0.26499999
63.77388 -14.706059 -2.0323763 0.32863021
64.466042 -14.493849 -2.0550995 0.30613306
65.627144 -14.414933 -2.1026843 0.26400226
66.413635 -14.521678 -2.128047 0.28382024
67.600349 -14.309334 -2.1560276 0.31058463
68.530571 -14.349266 -2.1829288 0.28983834
69.505386 -14.368329 -2.2169189 0.2789093
70.506256 -14.461738 -2.2451401 0.25941122
71.48761 -14.52174 -2.2286646 0.23611541
72.479645 -14.48384 -2.2613459 0.20516437
73.493355 -14.417974 -2.3062351 0.17067735
74.486588 -14.387848 -2.2952063 0.15896071
75.522209 -14.376604 -2.2677333 0.14025792
76.493767 -14.362164 -2.3240976 0.15227269
77.504929 -14.333862 -2.3782303 0.13068184
78.605751 -14.325674 -2.3935413 0.092934065
79.483719 -14.385263 -2.5306847 0.09394253
80.497208 -14.497521 -2.4785469 0.058100466
81.542198 -14.619514 -2.4345248 0.056788415
82.48999 -14.597558 -2.6393216 0.068783119
83.323334 -14.597687 -2.6002724 0.10238743
84.503777 -14.510408 -2.2360179 0.15990199
85.510384 -14.504855 -2.2732105 0.18829064
86.503052 -14.509459 -2.3116782 0.19163531
87.503952 -14.50526 -2.3502669 0.17232527
88.514786 -14.509788 -2.4036896 0.14010631
89.51371 -14.508173 -2.4681988 0.13135698
90.51548 -14.505898 -2.5320606 0.11710615
91.545616 -14.519762 -2.6364822 0.11434424
92.519447 -14.502266 -2.7630796 0.13313536
93.455055 -14.488249 -2.8053098 0.23320398
94.463211 -14.490288 -2.7903516 0.18862864
95.460922 -14.486159 -2.7725048 0.18110582
96.474152 -14.49147 -2.7698174 0.18742704
97.486099 -14.500256 -2.747623 0.23152089
98.507843 -14.510446 -2.7693856 0.25981581
99.468781 -14.494875 -2.7746484 0.25253978
100.47535 -14.515869 -2.7696295 0.24091876
101.47644 -14.502127 -2.7620232 0.23038802
102.48939 -14.493712 -2.749819 0.21241976
103.48755 -14.508291 -2.7576056 0.15828952
104.49438 -14.511192 -2.7601666 0.16091485
105.52893 -14.499401 -2.7740619 0.19069211
106.46157 -14.491864 -2.6996396 0.19285703
107.44386 -14.502572 -2.7382307 0.18735784
108.59363 -14.392625 -2.6042542 0.19318305
109.52336 -14.466318 -2.5906065 0.14510104
110.39749 -14.599248 -2.5322645 0.11658204
111.51431 -14.462415 -2.615622 0.052411567
112.49652 -14.593214 -2.6164658 0.040474303
113.48071 -14.480113 -2.5524254 0.017170731
114.43804 -14.555309 -2.5006304 0.0026119403
115.4064 -14.636019 -2.4574294 0
116.51989 -14.542161 -2.6973293 0.0010344827
117.58311 -14.54839 -2.817385 0.0033333332
118.29538 -14.470637 -2.9066725 0.0066666664
120.37939 -14.520666 -2.7144659 0.0061538462
121.60566 -14.156601 -2.9562988 0.0037499999
122.62643 -14.28293 -2.8889151 0.17470588
123.42641 -14.383478 -2.8256931 0.0099999998
124.50464 -14.330167 -2.6735318 0
125.85242 -14.09055 -2.6789827 0
126.37 -14.05955 -2.4587166 0
129.93967 -14.251469 -2.8995931 0
130.19406 -14.196382 -2.885596 0
139.86795 -14.852344 -2.4767115 0
140.35046 -14.692811 -2.4202113 0.016352201
141.44618 -14.402293 -2.6082299 0.15059701
142.32742 -14.610784 -2.4318979 0.14899999
150.91786 -14.149359 -2.4941859 0
151.37042 -14.650786 -2.7033961 0.011764706
152.48932 -14.626769 -2.7443449 0.011875
153.13406 -14.689446 -2.6193922 0.050000001
165.91214 -14.239244 -2.5843706 0
166.58871 -14.102555 -2.566108 0
167.61412 -14.566904 -2.4444473 0
168.10962 -14.717073 -2.4182987 0
-75.130348 -13.773903 -2.3214607 0
-73.547119 -13.610641 -2.2211986 0
-72.527039 -13.587296 -2.2170181 0
-69.266724 -13.109087 -2.1215587 0
-68.890472 -13.123965 -2.0849297 0
-66.16333 -13.469742 -2.0399756 0
-65.475327 -13.45067 -2.0856862 0.024285715
-64.63092 -13.984351 -2.0544348 0
-62.576221 -13.579278 -2.2480335 0
-59.8605 -13.662 -2.1630001 0
-30.164211 -13.017081 -2.0322514 0
-29.79834 -13.107327 -2.0179713 0
59.976921 -13.041182 -2.0066707 0.48500001
60.550823 -13.40186 -2.0078297 0.28141099
61.108536 -13.639369 -2.0011072 0.30374998
62.821228 -13.070741 -2.0549643 0.34226808
63.598171 -13.305943 -2.0660424 0.29810676
64.55619 -13.367948 -2.1179664 0.26616687
65.501328 -13.42328 -2.1296394 0.26720458
66.539146 -13.516497 -2.1732562 0.26293361
67.528206 -13.600831 -2.1918864 0.24806495
68.463066 -13.565627 -2.2406747 0.23215175
69.473351 -13.487848 -2.3084354 0.22202732
70.519096 -13.505417 -2.3191118 0.20298484
71.496689 -13.510115 -2.3130476 0.20108406
72.507233 -13.507628 -2.3299654 0.19258101
73.510979 -13.484598 -2.3668935 0.18470095
74.491165 -13.469126 -2.3557081 0.16891742
75.534973 -13.459423 -2.3305802 0.095835783
76.510834 -13.483133 -2.3998168 0.072115786
77.506889 -13.515944 -2.4593492 0.06186733
78.514557 -13.528453 -2.4578986 0.081931032
79.483284 -13.536619 -2.5329735 0.13394694
80.509628 -13.493411 -2.5730634 0.11799715
81.534691 -13.45524 -2.6217885 0.15748332
82.482269 -13.413786 -2.6201153 0.12666908
83.51162 -13.317909 -2.5375035 0.16706787
84.486572 -13.481007 -2.2664664 0.18988302
85.511818 -13.505172 -2.2665291 0.14987883
86.499001 -13.507426 -2.3001194 0.18160444
87.501167 -13.506834 -2.3403721 0.21014813
88.510719 -13.503276 -2.3827496 0.18108255
89.518814 -13.506343 -2.4433119 0.12597491
90.519012 -13.49812 -2.515219 0.105742
91.543625 -13.505549 -2.6141646 0.11015048
92.530243 -13.495845 -2.7468796 0.17059889
93.459061 -13.493483 -2.8058081 0.26227275
94.463806 -13.492206 -2.7910337 0.29085103
95.456947 -13.497334 -2.7671893 0.23306967
96.469231 -13.502615 -2.7626033 0.19112286
97.470406 -13.496702 -2.7574141 0.23261517
98.491234 -13.5014 -2.7592185 0.25590095
99.460236 -13.502384 -2.7679935 0.26805755
100.49315 -13.505715 -2.7741117 0.24984993
101.48593 -13.491604 -2.7624435 0.23039228
102.50156 -13.505994 -2.7562888 0.22041386
103.49685 -13.480879 -2.749799 0.22716072
104.66316 -13.252869 -2.7065427 0.31425017
105.42796 -13.391013 -2.7649813 0.27250907
106.44616 -13.477165 -2.6589532 0.21397793
107.5276 -13.462206 -2.5800257 0.23657024
108.49944 -13.471687 -2.6025913 0.16487388
109.38123 -13.609676 -2.5146894 0.1331197
110.51575 -13.489889 -2.6447949 0.098199449
111.43243 -13.512696 -2.7098556 0.045888495
112.49344 -13.471986 -2.5144446 0.015041666
113.46201 -13.50597 -2.578963 0.0054545449
114.39612 -13.563433 -2.4661236 0.00029702971
115.63784 -13.441695 -2.5950902 0
116.481 -13.375257 -2.6968436 0
117.51351 -13.232229 -2.6642697 0
118.50823 -13.421145 -2.8873978 0.0060000001
119.11725 -13.549081 -2.8782206 0
120.69777 -13.271274 -2.7338831 0.0093220342
121.3265 -13.583007 -2.7844219 0.0038181818
122.46297 -13.597818 -2.8370492 0.072941177
123.57999 -13.560213 -2.9344347 0.14500001
127.62089 -13.344585 -2.6965754 0
128.41806 -13.444955 -2.6769006 0
129.63457 -13.482167 -2.8962975 0
130.26999 -13.577924 -2.6061659 0
131.69518 -13.128189 -2.3111899 0.19777778
149.96252 -13.505174 -2.8588595 0
150.24242 -13.863486 -2.9088128 0
151.95792 -13.878603 -2.931066 0
152.29117 -13.984068 -2.9031773 0
165.88719 -13.801166 -2.4144948 0
166.52327 -13.471976 -2.5610483 0
167.27867 -13.204835 -2.4774392 0
168.17131 -13.32086 -2.3107622 0
-69.500381 -12.694383 -2.2031722 0
-68.82505 -12.173635 -2.0516224 0
-67.477791 -12.407009 -2.1093087 0
-66.3806 -12.261281 -2.2024782 0
-65.60463 -12.185781 -2.1959164 0
-64.411354 -12.173848 -2.184931 0
-63.503181 -12.317613 -2.228986 0
-62.698448 -12.354473 -2.359225 0
-61.928024 -12.016101 -2.1610749 0
-60.669605 -12.4098 -2.1831999 0
-59.683075 -12.485446 -2.2114413 0
-55.314682 -12.084071 -2.0262067 0
-54.637848 -12.183697 -2.0382662 0
-53.930969 -12.326509 -2.0309608 0
-52.113686 -12.082245 -2.015506 0.13
-44.252926 -12.231777 -2.0147762 0
-31.551453 -12.119415 -2.0569489 0
-30.518456 -12.733387 -2.0442076 0
-28.878323 -12.734662 -2.0233283 0
58.8055 -12.029652 -2.0094216 0.31875002
59.628323 -12.178157 -2.0176852 0.25206748
60.602459 -12.249681 -2.0670915 0.25929558
61.525646 -12.343201 -2.0763538 0.23656379
62.558674 -12.496938 -2.1207476 0.20009789
63.47588 -12.542976 -2.1188533 0.21390294
64.568123 -12.513328 -2.169708 0.20285922
65.444023 -12.483822 -2.1809063 0.19356541
66.53582 -12.49012 -2.2268472 0.20359311
67.52874 -12.496081 -2.213994 0.19468251
68.481667 -12.481412 -2.2494597 0.19468494
69.515579 -12.484098 -2.2785428 0.18682243
70.523369 -12.460546 -2.285954 0.17570804
71.500687 -12.474146 -2.2898331 0.14795424
72.508774 -12.511817 -2.2915845 0.10226528
73.499146 -12.538229 -2.3174863 0.090317547
74.484138 -12.557404 -2.3076239 0.096507579
75.51696 -12.540583 -2.3076744 0.077077419
76.500854 -12.532331 -2.3407161 0.11526957
77.483475 -12.509622 -2.376693 0.1546886
78.522217 -12.491484 -2.3983364 0.18881336
79.525421 -12.487946 -2.4587641 0.18098652
80.534508 -12.498167 -2.4840806 0.13770163
81.516968 -12.509131 -2.5339794 0.15575184
82.514603 -12.49369 -2.5903566 0.17748977
83.519615 -12.541665 -2.5131898 0.16141914
84.298233 -12.560139 -2.4804549 0.22687997
85.503677 -12.500913 -2.2555196 0.16352673
86.514229 -12.499912 -2.2932386 0.15116109
87.492058 -12.497323 -2.3389885 0.13952009
88.517586 -12.497787 -2.3791337 0.16116732
89.528442 -12.500235 -2.4367216 0.18114632
90.518585 -12.497283 -2.5031374 0.23155034
91.549599 -12.495592 -2.5979214 0.24210237
92.532631 -12.493869 -2.7359343 0.20647882
93.46183 -12.501736 -2.7976484 0.16870348
94.465019 -12.501507 -2.7889166 0.22164737
95.46019 -12.496715 -2.7750041 0.26053417
96.469955 -12.499988 -2.7566259 0.19909842
97.468956 -12.507082 -2.7595105 0.23960805
98.485443 -12.503405 -2.7558308 0.24855575
99.461159 -12.49359 -2.7687843 0.25397554
100.49912 -12.481996 -2.7477057 0.27199396
101.48493 -12.487933 -2.7160063 0.27181903
102.4898 -12.379569 -2.58026 0.37376663
103.42471 -12.451652 -2.5342617 0.36324537
104.685 -12.700605 -2.5708096 0.28230071
105.38508 -12.663363 -2.4427817 0.26044223
106.51214 -12.521794 -2.5267372 0.26800242
107.42545 -12.440777 -2.6092606 0.16236675
108.48444 -12.513791 -2.6438131 0.12979168
109.55855 -12.519625 -2.6611817 0.051390979
110.46386 -12.551756 -2.7164445 0.072692327
111.45638 -12.494787 -2.576256 0.047809202
112.46981 -12.525321 -2.6023753 0.0097285062
113.42981 -12.599772 -2.5485415 0.00030303031
114.5082 -12.50184 -2.637182 0
115.44903 -12.435946 -2.7322605 0
116.49635 -12.499501 -2.7880332 0
117.35056 -12.443434 -2.8064153 0
118.47997 -12.722662 -2.9016147 0
119.56664 -12.309497 -2.8260622 0
120.49857 -12.519148 -2.54652 0.024230769
121.32521 -12.49519 -2.6282609 0.0015789473
122.23093 -12.886048 -2.8847678 0
123.63531 -12.833241 -2.9193263 0
124.72713 -12.001472 -2.980942 0
125.82608 -12.425114 -2.420198 0
126.17151 -12.567644 -2.6985998 0
127.84762 -12.189542 -2.9912581 0
128.64069 -12.641706 -2.8262973 0
129.53104 -12.377754 -2.8000467 0
130.55322 -12.487002 -2.583648 0.20207788
131.29849 -12.818187 -2.2993486 0.3026087
152.79628 -12.149717 -2.6891572 0.0099999998
153.46971 -12.298612 -2.6051738 0
166.74762 -12.544057 -2.4848366 0
167.25085 -12.453382 -2.4479461 0
-66.545143 -11.692807 -2.2089224 0
-64.645996 -11.948851 -2.2812612 0
-63.73634 -11.89062 -2.2521262 0
-62.352875 -11.787818 -2.2894275 0
-61.137413 -11.766852 -2.2501025 0
-60.425758 -11.855203 -2.2135355 0
-58.655792 -11.735085 -2.1904697 0
-57.447536 -11.42582 -2.0672305 0.01111111
-56.533478 -11.331117 -2.0642259 0
-55.163658 -11.046489 -2.0701668 0
-54.42485 -11.445931 -2.041225 0.036666665
-53.429447 -11.27793 -2.0421631 0
-52.578674 -11.826476 -2.0313561 0
-49.47588 -11.191011 -2.0619252 0.0062500001
-48.294895 -11.385973 -2.0384119 0.0060000001
-47.672661 -11.683262 -2.0132022 0
-45.832432 -11.177271 -2.0797055 0
-44.95628 -11.317749 -2.0538988 0
-43.190384 -11.161354 -2.0230615 0
-42.449543 -11.24622 -2.0138683 0
-41.738094 -11.235267 -2.084285 0.0042857141
-34.379356 -11.104159 -2.034235 0
-32.282951 -11.512453 -2.0385156 0
-31.833136 -11.741738 -2.0457747 0
-24.003437 -11.317538 -2.0207946 0
-23.632053 -11.606403 -2.0058722 0
55.89159 -11.271718 -2.0026889 0.23199999
56.708038 -11.259326 -2.0125442 0.23301582
57.65781 -11.325826 -2.0321009 0.16842645
58.46743 -11.486981 -2.0260725 0.18114638
59.493889 -11.500509 -2.0521533 0.19745262
60.517815 -11.502608 -2.0931733 0.1606784
61.467964 -11.507894 -2.0796692 0.14339875
62.548088 -11.511941 -2.132565 0.11277933
63.462833 -11.480453 -2.1084812 0.15274704
64.567802 -11.493312 -2.1303442 0.16426533
65.458328 -11.462532 -2.1487529 0.15857628
66.551285 -11.473963 -2.1678627 0.15703037
67.501808 -11.485409 -2.166719 0.12869994
68.471794 -11.523077 -2.2006998 0.097965412
69.487495 -11.538336 -2.2333801 0.074363835
70.487892 -11.550714 -2.2502704 0.085463941
71.478203 -11.545774 -2.2663071 0.096172728
72.482681 -11.522086 -2.2649055 0.13874914
73.488388 -11.507748 -2.269201 0.16405956
74.489517 -11.482545 -2.2332275 0.16500673
75.507675 -11.483153 -2.2550185 0.13745761
76.510643 -11.500031 -2.2844772 0.13587418
77.50869 -11.501123 -2.3250079 0.14091226
78.5252 -11.510455 -2.3709435 0.15504481
79.509979 -11.498526 -2.4354391 0.18896462
80.515709 -11.506804 -2.4890385 0.14607619
81.506607 -11.522982 -2.5809379 0.14302696
82.480766 -11.546774 -2.6580529 0.12870356
83.324379 -11.438568 -2.6182039 0.12201509
84.510765 -11.497864 -2.2224374 0.17753296
85.516724 -11.498937 -2.2543941 0.19986524
86.509056 -11.497691 -2.289283 0.23810743
87.487869 -11.499032 -2.3287327 0.25229916
88.512497 -11.497991 -2.3731031 0.24891676
89.516975 -11.492854 -2.4323373 0.22930232
90.514847 -11.490442 -2.4996955 0.19482817
91.555641 -11.479677 -2.6183934 0.16793522
92.51989 -11.490301 -2.7559502 0.15690529
93.458435 -11.510143 -2.7873077 0.16082516
94.468094 -11.506483 -2.7857063 0.17004924
95.468285 -11.505206 -2.7758114 0.23548499
96.470917 -11.495677 -2.7532883 0.22368942
97.488197 -11.470232 -2.748497 0.27513254
98.520943 -11.392155 -2.752054 0.31538618
99.471092 -11.445656 -2.7444971 0.33642155
100.46552 -11.511941 -2.7492936 0.35140121
101.41882 -11.553899 -2.6216435 0.31977737
102.56934 -11.781683 -2.5342669 0.26908767
103.46942 -11.748659 -2.6084335 0.23874544
104.61739 -11.31036 -2.7112114 0.26092851
105.51847 -11.371748 -2.6108727 0.22644947
106.40716 -11.418333 -2.595336 0.12920426
107.53468 -11.327771 -2.6328862 0.10249997
108.44508 -11.512937 -2.6456509 0.059713814
109.50587 -11.48518 -2.6653419 0.047551028
110.43752 -11.448754 -2.5920827 0.022783887
111.48031 -11.4651 -2.6278238 0.0044565215
112.43049 -11.490727 -2.5329952 0.00070796459
113.48692 -11.500146 -2.7307103 0
114.51363 -11.478867 -2.6200776 0
115.44021 -11.46913 -2.7686825 0
116.50607 -11.451 -2.820709 0
117.40036 -11.473077 -2.7751334 0
118.5197 -11.496899 -2.8988943 0
119.40283 -11.169779 -2.6753809 0.0032432431
120.5982 -11.579814 -2.5336707 0.064626865
121.37051 -11.4336 -2.4658699 0
122.54638 -11.399397 -2.8478673 0
123.36062 -11.466605 -2.8993986 0
124.71376 -11.470753 -2.5282929 0
126.85056 -11.063434 -2.8076663 0
127.49924 -11.278083 -2.8753769 0.82514745
128.58197 -11.154918 -2.6086345 0.63757163
129.44342 -11.505873 -2.3751457 0.60396564
130.38516 -11.680262 -2.653048 0.21266668
131.26752 -11.694507 -2.8059089 0
132.56483 -11.441663 -2.3938477 0
133.07114 -11.710053 -2.4142592 0
147.99179 -11.112856 -2.8987949 0
148.75807 -11.017915 -2.8539464 0
149.17546 -11.018626 -2.8187869 0
150.5697 -11.206347 -2.7226775 0
151.40283 -11.438777 -2.746588 0.0045454544
152.51466 -11.873815 -2.6152723 0
159.92499 -11.682419 -2.9244118 0
160.52592 -11.298407 -2.7723455 0.40291131
161.21802 -11.090082 -2.524904 0.51588231
162.14247 -11.073491 -2.1791704 0.71333337
164.14064 -11.04442 -2.0737541 0
165.63263 -11.340397 -2.3886352 0
166.7354 -11.614378 -2.4235001 0
167.26945 -11.552975 -2.4755232 0
-77.272308 -10.412897 -2.3489213 0
-60.551811 -10.521508 -2.2171683 0
-59.596661 -10.712687 -2.0933132 0
-57.278816 -10.652894 -2.069304 0
-56.407925 -10.273331 -2.2935941 0
-55.740887 -10.590185 -2.1192713 0
-54.5005 -10.680073 -2.1331983 0
-53.738297 -10.412766 -2.2037532 0
-52.55835 -10.188344 -2.2231228 0
-51.311611 -10.34407 -2.1491663 0
-50.476166 -10.479875 -2.1031785 0
-49.549198 -10.459605 -2.0885394 0
-48.613407 -10.562018 -2.0727873 0
-47.363628 -10.468222 -2.0486047 0.0083333338
-46.265965 -10.334548 -2.0240622 0
-45.686089 -10.387461 -2.0311534 0.014
-44.634186 -10.389462 -2.0184593 0
-41.696533 -10.512223 -2.04651 0
-40.993877 -10.172297 -2.0968533 0
-39.511024 -10.584924 -2.0465126 0
-38.726105 -10.911735 -2.0225987 0.02
-35.299377 -10.753159 -2.0686171 0
-34.687195 -10.979595 -2.0456908 0
-32.290024 -10.392317 -2.0203285 0.07
-31.389685 -10.564562 -2.0632832 0.02
-29.016047 -10.381467 -2.0117028 0
-28.908863 -10.640386 -2.0090573 0
55.816002 -10.537217 -2.0032957 0.22818184
56.645336 -10.526731 -2.0151281 0.13936172
57.607349 -10.544617 -2.0334508 0.085769735
58.392864 -10.505096 -2.0248992 0.089651741
59.484653 -10.499286 -2.0491841 0.13040353
60.560043 -10.511107 -2.0838826 0.14312162
61.456261 -10.489981 -2.0745649 0.11565344
62.576942 -10.485407 -2.1088617 0.084471725
63.465862 -10.521875 -2.1023433 0.085343055
64.548843 -10.520575 -2.1089292 0.078997768
65.477249 -10.553182 -2.1148798 0.070568897
66.520638 -10.541853 -2.1464081 0.074897841
67.528885 -10.509381 -2.1351647 0.08941666
68.480286 -10.502002 -2.1585944 0.13456559
69.485291 -10.497192 -2.1672487 0.1577407
70.507774 -10.501353 -2.1796176 0.1795112
71.508896 -10.505337 -2.1957247 0.18274477
72.503357 -10.497345 -2.2067208 0.1577308
73.5168 -10.502843 -2.2094772 0.1501196
74.508308 -10.503317 -2.2091644 0.14784743
75.520004 -10.501934 -2.2473593 0.14796577
76.504532 -10.503218 -2.273212 0.14802276
77.52076 -10.497916 -2.3379283 0.13380873
78.508133 -10.476968 -2.4018352 0.12881932
79.530045 -10.49101 -2.5064421 0.16236994
80.50515 -10.493693 -2.5876994 0.17500217
81.509842 -10.501866 -2.620301 0.17721243
82.47644 -10.548393 -2.6655619 0.2103634
83.488838 -10.50554 -2.6437819 0.19690514
84.430283 -10.326188 -2.666564 0.15065072
85.50914 -10.482921 -2.2776444 0.20150454
86.508408 -10.491746 -2.2960038 0.18748142
87.502121 -10.495833 -2.331243 0.20040484
88.51387 -10.489197 -2.3860614 0.21763803
89.508606 -10.485522 -2.4439058 0.20684876
90.527435 -10.483187 -2.5204227 0.19116227
91.548508 -10.463367 -2.6677494 0.15651995
92.468826 -10.502627 -2.7830098 0.16146186
93.46714 -10.494843 -2.7870572 0.18604259
94.495827 -10.423707 -2.7987428 0.24515903
95.482758 -10.394731 -2.7786517 0.29508716
96.478638 -10.454388 -2.7586091 0.34383944
97.468803 -10.542375 -2.7243865 0.37180921
98.464119 -10.550157 -2.7052863 0.37200099
99.455658 -10.573045 -2.7125487 0.36324534
100.42874 -10.661402 -2.7426517 0.36161765
101.35156 -10.701226 -2.6587391 0.3144539
102.70728 -10.195423 -2.6242306 0.26410127
103.53052 -10.387862 -2.5914907 0.26301697
104.49442 -10.514505 -2.6175668 0.17709374
105.4931 -10.512266 -2.6281526 0.11733019
106.50777 -10.496287 -2.6254611 0.10062167
107.4641 -10.569936 -2.6684051 0.084640004
108.50343 -10.497015 -2.6851459 0.059016801
109.46514 -10.548426 -2.6249175 0.025352944
110.45941 -10.519905 -2.6901052 0.00517094
111.4804 -10.571616 -2.5223949 0
112.45782 -10.539337 -2.6068866 0
113.60805 -10.509696 -2.7919197 0.0019753086
114.46449 -10.47111 -2.700213 0
115.5066 -10.506637 -2.7753766 0
116.51301 -10.472739 -2.8481679 0
117.58432 -10.508963 -2.7546034 0
118.65737 -10.341918 -2.7913613 0.017837837
119.25182 -10.482759 -2.6808522 0.0096680494
120.5552 -10.440084 -2.5797629 0.042749997
121.35197 -10.531325 -2.572917 0.023076924
122.43803 -10.426495 -2.8176298 0
123.58429 -10.520435 -2.9080198 0
124.73278 -10.427944 -2.4408417 0.15290321
125.19414 -10.253316 -2.2446337 0.14307693
126.77564 -10.903666 -2.7016408 0
127.55652 -10.90954 -2.8020494 0.048749998
128.59315 -10.541649 -2.498214 0.13622451
129.05482 -10.547955 -2.8098764 0.16727272
130.77206 -10.126505 -2.5585191 0.07642857
131.21733 -10.416018 -2.4836824 0
144.19629 -10.223254 -2.9486845 0
145.27203 -10.753448 -2.9927366 0
147.75429 -10.938193 -2.8984988 0
148.54021 -10.930005 -2.8649609 0
149.59596 -10.966088 -2.6981726 0
160.69786 -10.923927 -2.7506027 0.051428575
161.48875 -10.76099 -2.435617 0.35090902
162.17537 -10.685767 -2.2158251 0.1375
163.765 -10.337084 -2.4757783 0
164.26736 -10.64119 -2.3938682 0
165.66946 -10.557944 -2.5565176 0
166.43365 -10.487363 -2.5885873 0
167.22908 -10.771544 -2.3790085 0
-74.306358 -9.8268137 -2.3649333 0
-73.764862 -9.6671791 -2.3004205 0
-61.625492 -9.5499277 -2.2882159 0
-55.291306 -9.5640087 -2.3504758 0
-53.39959 -9.5971098 -2.212008 0
-52.350101 -9.7449684 -2.1589489 0
-51.306042 -9.8420839 -2.147687 0
-50.488953 -9.5534163 -2.1888714 0
-49.562019 -9.4931622 -2.1860812 0
-48.477814 -9.5449829 -2.1508431 0
-47.343346 -9.3571453 -2.1262884 0.0070000002
-46.517063 -9.4225235 -2.1097279 0
-45.602425 -9.401186 -2.120424 0.0030769231
-44.587521 -9.3773403 -2.0891984 0.0049999999
-43.506065 -9.4320841 -2.0575397 0.012
-42.556751 -9.4023237 -2.0523083 0.028181819
-41.559521 -9.3581152 -2.0411422 0.029200001
-40.563374 -9.482214 -2.0534732 0.02882353
-39.345558 -9.2433157 -2.0938649 0
-38.436035 -9.1185627 -2.1716669 0
-37.571606 -9.3670931 -2.1552854 0.0068571432
-36.791393 -9.5489349 -2.0163252 0.065000005
-34.106789 -9.068244 -2.0232253 0.14
-33.481773 -9.3807163 -2.0246811 0.2114286
-32.69223 -9.5180607 -2.0288796 0.15125
-31.486252 -9.3364658 -2.0360098 0.015
56.774574 -9.5894175 -2.0148377 0.0066071427
57.593533 -9.4717112 -2.0320959 0.029607261
58.4095 -9.4886923 -2.0186954 0.031860188
59.502964 -9.4952965 -2.0356698 0.067816682
60.532955 -9.5338984 -2.0724719 0.036828604
61.503197 -9.5472984 -2.0643089 0.04321501
62.538647 -9.5588341 -2.0996327 0.060684644
63.525967 -9.5234022 -2.0722833 0.11723501
64.498146 -9.5150852 -2.0889368 0.1377231
65.524323 -9.5136547 -2.0801456 0.16091098
66.522011 -9.506752 -2.0819602 0.18071263
67.497292 -9.5091019 -2.0987408 0.17101812
68.491066 -9.4935169 -2.1185606 0.16537166
69.511688 -9.5043373 -2.1382771 0.15215239
70.513306 -9.507823 -2.162297 0.14824322
71.510826 -9.4946079 -2.1813576 0.15647997
72.517754 -9.5041161 -2.2029068 0.16001138
73.523064 -9.4989395 -2.2139356 0.16090176
74.515427 -9.4831133 -2.2279148 0.14051096
75.512634 -9.490324 -2.2532609 0.12027014
76.529984 -9.4895477 -2.347724 0.1236438
77.52153 -9.4957533 -2.4127455 0.17086212
78.506844 -9.5041618 -2.4780843 0.19253853
79.511917 -9.5136118 -2.4970896 0.23107104
80.500687 -9.5268831 -2.5830159 0.24393421
81.447151 -9.5176334 -2.5875247 0.17153786
82.54052 -9.4355783 -2.4520547 0.1512876
83.547714 -9.4559479 -2.6490943 0.19044733
84.493217 -9.4954252 -2.7261069 0.21422447
85.429169 -9.3911247 -2.7135441 0.1888884
86.460876 -9.4175358 -2.4354308 0.19661327
87.510468 -9.4906635 -2.3432221 0.228278
88.519051 -9.4827881 -2.4039185 0.23802143
89.515831 -9.4703159 -2.4731822 0.188278
90.577644 -9.3454399 -2.6941595 0.22029592
91.511314 -9.4036045 -2.7737641 0.27584133
92.479439 -9.4616365 -2.7649093 0.31521645
93.463165 -9.5232449 -2.7385907 0.33502442
94.452766 -9.5781603 -2.7267377 0.36017039
95.450455 -9.5752087 -2.6804595 0.3469075
96.443665 -9.6103363 -2.6833708 0.35814983
97.447044 -9.6772728 -2.6455929 0.35446721
98.426834 -9.6968384 -2.6709292 0.32598075
99.546127 -9.2932749 -2.6942005 0.20527853
100.56374 -9.232317 -2.6120334 0.26307634
101.50831 -9.4573116 -2.5944319 0.26574808
102.49984 -9.5403318 -2.6237068 0.21436131
103.5082 -9.4452009 -2.6472099 0.13414355
104.47001 -9.4916201 -2.6369989 0.1288211
105.43976 -9.5805511 -2.6386878 0.13059892
106.4463 -9.5262175 -2.6551406 0.090653211
107.39559 -9.5437136 -2.6181083 0.043873686
108.42372 -9.6001949 -2.6423934 0.016253967
109.41794 -9.5089741 -2.6458471 0.0025980393
110.51134 -9.5643158 -2.6745105 0
111.55499 -9.5103493 -2.696892 0.0011702128
112.42497 -9.5205183 -2.6733446 0.0033870968
113.51965 -9.5267429 -2.8253214 0
114.35564 -9.496376 -2.8191433 0
115.56889 -9.5003481 -2.7669728 0
116.42659 -9.4982166 -2.7848177 0
117.65186 -9.5804787 -2.7119441 0
118.70938 -9.4269285 -2.7272735 0.0056060608
119.23322 -9.5263662 -2.6381536 0.031405404
120.56242 -9.4771862 -2.7050884 0.14470589
121.44901 -9.4803057 -2.6221299 0.02585366
122.34779 -9.4667654 -2.7204535 0
123.56254 -9.3310423 -2.5732288 0.28095233
124.59764 -9.8693018 -2.0964351 0.30900002
128.67278 -9.8356543 -2.5059526 0.084958665
129.4666 -9.7219896 -2.427644 0.21095236
130.38927 -9.7661495 -2.3875134 0.1595238
143.73961 -9.5153093 -2.9267368 0
144.1286 -9.9751215 -2.9440205 0
146.71761 -9.2168865 -2.4194901 0.0047058822
147.27863 -9.4828205 -2.3817799 0.0054545454
162.66541 -9.1986742 -2.4594979 0
163.62679 -9.5515623 -2.4538801 0
164.50871 -9.4126339 -2.5074019 0.0014388489
165.46933 -9.4474812 -2.7835751 0
167.24274 -9.7592049 -2.8874357 0
-67.499863 -8.5283833 -2.3720291 0
-66.186996 -8.665 -2.369 0
-64.54908 -8.3840799 -2.3675702 0
-62.165432 -8.2686405 -2.2343287 0
-61.688446 -8.6405039 -2.2848072 0
-55.356174 -8.6291084 -2.3566058 0
-50.006245 -8.9560909 -2.1503818 0
-49.738861 -8.4801426 -2.3295715 0
-48.534985 -8.6424398 -2.2801549 0
-47.468483 -8.5076828 -2.2526853 0
-46.320145 -8.6188593 -2.2445064 0
-45.425713 -8.4818058 -2.199075 0
-44.444054 -8.6520157 -2.1519527 0.0033333334
-43.482815 -8.5949049 -2.1200638 0.011935484
-42.618313 -8.5237341 -2.1385293 0.0082352944
-41.399742 -8.4663076 -2.1244292 0.045833334
-40.405849 -8.3333664 -2.1567895 0.025357144
-39.505974 -8.3654442 -2.1399877 0.0048888889
-38.468746 -8.4327965 -2.1603436 0.0067142858
-37.565735 -8.3882952 -2.0702989 0.020512823
-36.388405 -8.2720671 -2.0464354 0.053636361
-35.556763 -8.2489996 -2.0392194 0.035384614
-34.490192 -8.4475565 -2.0613804 0.154375
-33.530537 -8.4163799 -2.0648644 0.16904764
-32.505692 -8.3962069 -2.0383327 0.12038462
-31.841225 -8.5161037 -2.0245056 0.1825
-30.417465 -8.2471895 -2.1338744 0.097037047
-29.646976 -8.4452343 -2.0927927 0
-28.638453 -8.418376 -2.0341213 0
-27.514723 -8.3719683 -2.0421047 0
-26.403372 -8.0785217 -2.0858939 0
-25.582474 -8.2860041 -2.0433807 0
-24.237768 -8.4055853 -2.0170016 0
-23.467371 -8.1113596 -2.0134525 0
-22.140541 -8.1177788 -2.0252645 0
-21.861698 -8.2864313 -2.0136063 0
-19.146061 -8.4815207 -2.0193725 0
-18.866291 -8.3128557 -2.0028062 0
-16.350433 -8.3243742 -2.0086639 0
-15.332816 -8.2935762 -2.0054083 0.16142857
14.97922 -8.2009935 -2.2005641 0
15.009562 -8.0334835 -2.0846398 0
16.10593 -8.3592014 -2.2617004 0
55.894791 -8.7180929 -2.0006344 0
56.7836 -8.6715126 -2.0046089 0
57.574181 -8.6115236 -2.0264113 0.0046715327
58.411041 -8.6545744 -2.0195217 0.02243842
59.574039 -8.5716972 -2.0226369 0.088826925
60.517704 -8.5536423 -2.0408537 0.13057634
61.56498 -8.5167875 -2.0389159 0.15689555
62.502033 -8.5121164 -2.0560675 0.13979831
63.527752 -8.4985638 -2.0488501 0.14543799
64.513031 -8.5233517 -2.0633137 0.15226807
65.539703 -8.5152102 -2.0674369 0.15324825
66.510727 -8.5173597 -2.0704305 0.1525474
67.494087 -8.4945955 -2.0869148 0.15034454
68.514168 -8.5023317 -2.1095707 0.14876173
69.508583 -8.4984913 -2.1296306 0.1450846
70.511269 -8.4935503 -2.1619756 0.14988789
71.517998 -8.4568472 -2.2186387 0.14726366
72.508331 -8.4630699 -2.2541008 0.16013138
73.527054 -8.4856052 -2.2948992 0.18199071
74.517853 -8.4915209 -2.3286245 0.20642018
75.498055 -8.5053482 -2.343303 0.21914601
76.530937 -8.5115318 -2.3184249 0.18286541
77.511307 -8.5049591 -2.3960149 0.17195152
78.517036 -8.5052099 -2.4610488 0.15802905
79.494408 -8.4858198 -2.4971931 0.1269498
80.523933 -8.4934149 -2.5248277 0.19250533
81.510162 -8.4705448 -2.5612302 0.18396765
82.51973 -8.4783831 -2.5615952 0.16436666
83.503349 -8.5066566 -2.6143386 0.19903956
84.495323 -8.4957123 -2.6579986 0.17053263
85.495071 -8.4810705 -2.6982398 0.16337767
86.503899 -8.4301519 -2.7375937 0.19322737
87.524872 -8.3108978 -2.729301 0.28039953
88.533623 -8.3107748 -2.692127 0.31011117
89.508698 -8.4410696 -2.6853299 0.32789415
90.467468 -8.565609 -2.6777978 0.34202525
91.445686 -8.5976524 -2.6438107 0.35716489
92.450241 -8.5723705 -2.6361935 0.35317948
93.440826 -8.6225796 -2.6393321 0.35449597
94.419579 -8.7051182 -2.6359451 0.32220191
95.477631 -8.6311693 -2.6779299 0.23656766
96.511223 -8.3308811 -2.7383666 0.16660914
97.614937 -8.2295218 -2.6152894 0.20953366
98.50621 -8.3958902 -2.625906 0.24625848
99.483757 -8.5922279 -2.6108446 0.26482162
100.52254 -8.4244919 -2.6608574 0.21841064
101.48798 -8.3996553 -2.6551676 0.17267248
102.47735 -8.5618448 -2.6347399 0.15401527
103.45454 -8.5813866 -2.630301 0.13985834
104.43848 -8.5645657 -2.6224868 0.11270379
105.43652 -8.5545311 -2.6480143 0.088603929
106.44082 -8.5732498 -2.6286292 0.034055416
107.42222 -8.4609661 -2.6100729 0.026006604
108.43156 -8.6177177 -2.6335425 0.0041618501
109.44637 -8.4852524 -2.7095306 0.0042519681
110.51709 -8.519042 -2.6598661 0
111.49309 -8.5130281 -2.7446847 0
112.51212 -8.4781551 -2.7079718 0
113.61445 -8.489625 -2.7724199 0
114.44329 -8.4814072 -2.8600044 0
115.50623 -8.5806913 -2.8065078 0.0012195122
116.44749 -8.4911222 -2.7926872 0.0040425532
117.36237 -8.4669342 -2.756098 0
118.86559 -8.5297327 -2.7236645 0
119.22533 -8.4614296 -2.5910077 0.031489361
120.63335 -8.5656662 -2.7990732 0.60223752
121.5015 -8.4257555 -2.647156 0.42849046
122.48107 -8.5299578 -2.421514 0.45980415
123.32768 -8.6841383 -2.6336076 0.20785713
124.84271 -8.1244917 -2.5563715 0
125.90575 -8.7000952 -2.3402009 0
126.07002 -8.7916117 -2.4132907 0
135.0567 -8.2570724 -2.7564805 0
142.66679 -8.231843 -2.5452724 0.056088559
143.43144 -8.1805897 -2.5383081 0.0077966102
144.4281 -8.1837721 -2.4797781 0.0014285714
145.49438 -8.3010778 -2.3823533 0.0058536585
146.49869 -8.7488928 -2.176861 0
147.43584 -8.6926937 -2.3833685 0
162.49127 -8.9413309 -2.0145142 0
163.7657 -8.6745892 -2.6249928 0.0019871795
164.3262 -8.3790693 -2.5388892 0.0023188405
165.70889 -8.5120592 -2.4188783 0
-49.546001 -7.4811673 -2.3123333 0
-47.66785 -7.5467343 -2.2931321 0
-46.335995 -7.9779868 -2.2431037 0
-45.486309 -7.8392558 -2.1986268 0
-43.263668 -7.7627721 -2.2539709 0
-42.665798 -7.7877765 -2.2194099 0
-41.248642 -7.7223825 -2.2545955 0
-40.374119 -7.5756016 -2.2115948 0
-39.383644 -7.6282949 -2.2076066 0
-38.44825 -7.545732 -2.2099814 0.00095238094
-37.888657 -7.4274077 -2.1976721 0
-36.477329 -7.3608804 -2.1801231 0.0019565218
-35.484314 -7.4793811 -2.1553252 0.018888889
-34.471703 -7.5358715 -2.1195865 0.070222229
-33.584969 -7.5586443 -2.1029503 0.074339621
-32.430393 -7.4805441 -2.1187789 0.08853659
-31.328489 -7.3935494 -2.1671686 0.10226416
-30.671947 -7.5222335 -2.1368003 0.047799997
-29.604816 -7.3436227 -2.1096032 0.03085714
-28.521427 -7.3184333 -2.1147316 0.018571429
-27.525568 -7.2929659 -2.1252751 0
-26.66728 -7.529634 -2.1037409 0.0017948718
-25.367958 -7.0929842 -2.0779977 0.0079999994
-24.565762 -7.4501815 -2.0356431 0.0079999994
-22.504091 -7.2364278 -2.0363631 0
-21.868042 -7.6556864 -2.0103402 0
-19.419432 -7.41328 -2.0254858 0
-16.497643 -7.5712967 -2.0172799 0
-15.516115 -7.5827188 -2.009172 0.18777779
15.085505 -7.7657037 -2.0441525 0
18.263744 -7.4051013 -2.2553067 0.375
57.824619 -7.8211484 -2.0095124 0
58.621208 -7.5839114 -2.0090382 0.12205131
59.649586 -7.5258698 -2.00895 0.12568842
60.517513 -7.5296245 -2.0174658 0.1371485
61.513126 -7.5084133 -2.0252302 0.13991201
62.519821 -7.5153337 -2.0382638 0.13404179
63.517467 -7.5044594 -2.047148 0.13926081
64.52169 -7.4967389 -2.0547566 0.15274905
65.519104 -7.5016465 -2.0628104 0.13883013
66.507645 -7.4891667 -2.0706484 0.13712741
67.532257 -7.4766622 -2.0971744 0.14767818
68.518448 -7.4768448 -2.1253231 0.16434515
69.492958 -7.4731474 -2.1873634 0.18820158
70.520653 -7.5107322 -2.2363572 0.21358767
71.517395 -7.5097055 -2.2653358 0.24320887
72.50029 -7.5022759 -2.295469 0.25722688
73.525208 -7.4842257 -2.2891314 0.23625055
74.530479 -7.4995852 -2.3111842 0.20638849
75.503059 -7.48879 -2.3427036 0.20322807
76.493599 -7.4806705 -2.3035364 0.17862485
77.518669 -7.4947162 -2.349293 0.16223371
78.515427 -7.4886122 -2.3977895 0.16189748
79.511551 -7.4930797 -2.4558666 0.15195771
80.504143 -7.4953561 -2.4645004 0.15593889
81.519096 -7.5069227 -2.5112202 0.20413055
82.504913 -7.494853 -2.5417945 0.19096577
83.522476 -7.4528041 -2.5746689 0.21024966
84.532303 -7.4149494 -2.5974088 0.26539683
85.517647 -7.4371476 -2.5822766 0.30055165
86.496925 -7.5144143 -2.5762205 0.32782015
87.481277 -7.5872393 -2.5568304 0.34325966
88.459297 -7.6140776 -2.5313683 0.36119801
89.443726 -7.6488142 -2.5324857 0.3569051
90.432175 -7.6525946 -2.5317953 0.32695386
91.445633 -7.6528244 -2.6000247 0.25827205
92.494438 -7.4603891 -2.7019942 0.1820353
93.511177 -7.321485 -2.7806122 0.17256679
94.561249 -7.297895 -2.6583509 0.14393041
95.490623 -7.3981004 -2.616456 0.18142909
96.492172 -7.5535917 -2.592876 0.208666
97.495964 -7.5317764 -2.6373334 0.22048646
98.508987 -7.3251495 -2.6541035 0.2014191
99.484871 -7.4806023 -2.652003 0.19144978
100.43989 -7.6313815 -2.6285031 0.17052869
101.46798 -7.5575571 -2.6036956 0.14218628
102.44429 -7.5815353 -2.5970507 0.13974328
103.44012 -7.5662327 -2.6250007 0.085652724
104.50034 -7.521122 -2.6404729 0.079100534
105.49356 -7.5195632 -2.6574419 0.07041873
106.44014 -7.5829811 -2.6451294 0.040459365
107.45548 -7.4774604 -2.6657417 0.025873013
108.48892 -7.5138221 -2.667954 0.0037606838
109.48963 -7.523222 -2.6968925 0.0058333334
110.42924 -7.4980812 -2.6947613 0
111.39967 -7.5266623 -2.7648199 0
112.40293 -7.4873052 -2.7217913 0
113.49061 -7.5680876 -2.7597392 0.0072222222
114.43011 -7.5323887 -2.8225129 0
115.43561 -7.454844 -2.8203104 0
116.49451 -7.5438433 -2.8856647 0
117.53682 -7.5974884 -2.6828394 0
118.59509 -7.5431972 -2.8253496 0
119.21751 -7.526619 -2.6414652 0.00069306931
120.36729 -7.4334025 -2.6307533 0
121.47455 -7.4745502 -2.4813101 0.073090501
122.19485 -7.566772 -2.5432515 0.13794445
123.54796 -7.2625551 -2.6110647 0.0264
124.41198 -7.6218944 -2.6870315 0.0065789474
125.20193 -7.2300978 -2.9924533 0
139.89885 -7.2501945 -2.7269256 0.49356303
140.18408 -7.2286434 -2.6437919 0.58491945
141.02132 -7.0263333 -2.2358596 0.55000001
142.69243 -7.6850605 -2.5026591 0.025436895
143.46811 -7.5110912 -2.4551167 0.032305479
144.4471 -7.567389 -2.4771554 0.028774194
145.34953 -7.6051807 -2.3602529 0
146.34448 -7.7952099 -2.5042682 0
147.31813 -7.0159845 -2.5683064 0
163.58992 -7.7452087 -2.6382949 0.019743592
164.50156 -7.7564454 -2.5197864 0.010941177
165.24149 -7.8811765 -2.0513692 0
167.44795 -7.5982108 -2.5515184 0.0017647059
-61.430027 -6.9945393 -2.2115173 0
-58.262779 -6.4663763 -2.3020806 0
-56.259048 -6.6739492 -2.3294463 0
-55.441097 -6.0962033 -2.2458923 0
-54.760521 -6.6867437 -2.3168764 0
-52.453499 -6.2132897 -2.2990823 0
-49.390823 -6.5738339 -2.2981665 0
-47.400745 -6.4907808 -2.2713418 0
-40.30822 -6.3959045 -2.1524594 0
-39.116192 -6.910522 -2.1548791 0
-38.49485 -6.5574784 -2.2240455 0
-37.110188 -6.6978731 -2.1980631 0
-36.441662 -6.5470066 -2.1886039 0
