# .PCD v0.7 - Point Cloud Data file format
VERSION 0.7
FIELDS x y z intensity
SIZE 4 4 4 4
TYPE F F F F
COUNT 1 1 1 1
WIDTH 1180
HEIGHT 1
VIEWPOINT 0 0 0 1 0 0 0
POINTS 1180
DATA ascii
54.266262 -1.1065958 -2.3350534 0.011111111
60.814629 -1.1104598 -2.2787228 0
61.105785 -1.1323428 -2.2634573 0
86.80545 -1.6887913 -2.5542147 0
87.297852 -1.5869222 -2.5666354 0
89.625023 -1.7164443 -2.9705019 0
-27.164986 -0.2310936 -2.012464 0.24468748
-26.968151 -0.29174501 -2.0023959 0.24000001
-7.9151225 -0.59452194 -2.0029788 0
-6.2017107 -0.51296711 -2.0131357 0.19269845
-5.4368868 -0.49998331 -2.0581591 0.23984194
-4.5010743 -0.49602273 -2.1242495 0.24518275
-3.4417872 -0.52607143 -2.1507196 0.21862502
-2.4744127 -0.51194841 -2.170085 0.2463617
-1.5051812 -0.5150094 -2.2074523 0.24818349
-0.49199462 -0.50881642 -2.2237339 0.24054113
0.53522587 -0.51310098 -2.2446208 0.23146632
1.5092186 -0.5096724 -2.2475441 0.23220366
2.5143192 -0.50199556 -2.2150617 0.21853624
3.5376148 -0.50214785 -2.2483342 0.22052479
4.5275836 -0.49849641 -2.2528691 0.23567875
5.5053668 -0.50401258 -2.2911417 0.24976264
6.5133448 -0.50330561 -2.3812737 0.28054792
7.4833007 -0.48844668 -2.4552712 0.27160233
8.5393629 -0.46159512 -2.4697819 0.25939912
9.5288219 -0.52005661 -2.4324927 0.28888702
10.403459 -0.52681816 -2.4840248 0.27030939
11.291279 -0.60015285 -2.3853707 0.25784853
12.013409 -0.81734574 -2.267117 0.25
14.722636 -0.39221567 -2.0235741 0.24703524
15.563459 -0.38116184 -2.0588055 0.27306354
16.558741 -0.45597315 -2.1057847 0.28921169
17.538034 -0.43940726 -2.163888 0.2990813
18.521721 -0.43298736 -2.2252109 0.3035613
19.513559 -0.40702701 -2.3185964 0.30665827
20.503201 -0.48326066 -2.4420569 0.3319279
21.391651 -0.42139283 -2.5404797 0.335482
22.478922 -0.43605554 -2.5982721 0.32259089
23.591002 -0.55131406 -2.5855458 0.3359952
24.618279 -0.5544945 -2.5412085 0.33976972
25.48138 -0.5142256 -2.5596943 0.34997162
26.382177 -0.41908133 -2.5807784 0.33392769
27.441093 -0.50278914 -2.5918176 0.33742028
28.5075 -0.44516897 -2.5492344 0.35276714
29.309763 -0.38781363 -2.5093911 0.34062907
30.613455 -0.50358135 -2.5331795 0.3472819
31.343296 -0.36167625 -2.4868889 0.33247495
32.601616 -0.32632393 -2.4494987 0.31987959
33.426941 -0.49450031 -2.477993 0.29039794
34.372478 -0.38703275 -2.4399168 0.2906425
35.541012 -0.42225602 -2.4975197 0.30308738
36.404846 -0.36054769 -2.4228656 0.29005784
37.420483 -0.53029114 -2.4713218 0.2735644
38.429043 -0.3003957 -2.4221575 0.27270994
39.564186 -0.48927885 -2.4919369 0.24398272
40.351997 -0.41470197 -2.4331853 0.22557473
41.596458 -0.3911826 -2.3314257 0.19045456
42.446545 -0.44533759 -2.4997919 0.17096047
43.396969 -0.18599541 -2.2690427 0.030666666
44.782394 -0.23453923 -2.2421136 0.061999999
45.415752 -0.32855067 -2.1296685 0.044615388
46.678234 -0.37016103 -2.4395015 0.18619354
47.38522 -0.43237659 -2.5003824 0.12231709
48.495361 -0.3519285 -2.4852796 0.05977273
49.496456 -0.42385024 -2.3007932 0.035074625
50.655407 -0.16534312 -2.2487612 0
51.108879 -0.097400561 -2.3954413 0
52.55862 -0.12702118 -2.2680891 0
53.807308 -0.25306132 -2.2744324 0.029666666
54.323414 -0.46807811 -2.5533476 0.065000013
55.751328 -0.16274036 -2.013999 0
56.66711 -0.21613306 -2.1748326 0
57.272167 -0.18516938 -2.2003329 0
58.775723 -0.21341421 -2.4149652 0.026888886
59.176872 -0.11273807 -2.2904902 0.01375
60.668747 -0.56524134 -2.3820496 0
61.387077 -0.48362929 -2.5920923 0
62.609348 -0.11098493 -2.4487224 0
63.733349 -0.240898 -2.2719343 0
64.760994 -0.043852389 -2.154017 0
65.521255 -0.054419652 -2.1893163 0
78.671738 -0.32743326 -2.4310894 0.1595238
79.1866 -0.48357898 -2.7396502 0
80.87384 -0.1383938 -2.5805776 0
81.330719 -0.48667261 -2.4306352 0
82.411568 -0.2298753 -2.1901937 0
87.328583 -0.95682204 -2.7018838 0
-39.226147 0.92643809 -2.0126307 0
-28.233854 0.79037362 -2.0688889 0
-27.474367 0.51214677 -2.0317142 0.28663996
-26.490421 0.85753959 -2.0710602 0.26705879
-25.639624 0.62262237 -2.0244243 0.26857141
-24.815853 0.94040167 -2.005239 0.19999999
-6.1436381 0.42148405 -2.0108767 0.1985185
-5.4445534 0.4887436 -2.053571 0.23533067
-4.5163379 0.48574406 -2.1220007 0.23219605
-3.4644072 0.50415885 -2.1467688 0.22830817
-2.4891078 0.49875927 -2.1792004 0.23987994
-1.5015821 0.50815231 -2.2183044 0.24874754
-0.50059193 0.49196497 -2.2374341 0.22936119
0.51642621 0.49661419 -2.2547767 0.19723329
1.5030041 0.4985438 -2.2512939 0.18415914
2.52213 0.50150967 -2.2182343 0.17256813
3.5282426 0.5002777 -2.2531364 0.16187954
4.5312557 0.49446243 -2.2650349 0.17613068
5.5117373 0.50344235 -2.2958491 0.1912493
6.5178866 0.49764368 -2.398937 0.22279085
7.4994311 0.50735241 -2.4840333 0.19480778
8.5069437 0.50469816 -2.575891 0.1969751
9.4633331 0.50110489 -2.7042766 0.21597663
10.333769 0.48171383 -2.8702476 0.17295159
14.725145 0.52342427 -2.0203207 0.17381138
15.56696 0.50137562 -2.0652826 0.20607871
16.549084 0.5001145 -2.1287866 0.20530856
17.535751 0.50092375 -2.2162662 0.20528825
18.528801 0.49858886 -2.3282363 0.20626263
19.523918 0.50424379 -2.4746084 0.21683262
20.487307 0.49834979 -2.6536989 0.2273014
21.457182 0.48230606 -2.6727953 0.24128774
22.466145 0.49413484 -2.6492887 0.23226467
23.469353 0.49353626 -2.6295633 0.2359903
24.478558 0.47882989 -2.6074011 0.22867887
25.493776 0.47324741 -2.5868819 0.26812422
26.511467 0.47472492 -2.6199183 0.28119069
27.47213 0.48461005 -2.6319771 0.28029582
28.505266 0.47332951 -2.6316009 0.27912509
29.482227 0.4474411 -2.6502287 0.275718
30.490728 0.42704955 -2.6619985 0.27630404
31.457495 0.40777087 -2.6194963 0.25987855
32.52306 0.38766873 -2.6456187 0.26152048
33.442471 0.44696292 -2.6155119 0.21993968
34.475601 0.39089805 -2.6101816 0.2307563
35.5513 0.38909447 -2.6541975 0.21817002
36.440113 0.31371924 -2.651675 0.23101693
37.347309 0.44193816 -2.6284902 0.15797175
38.538353 0.30967996 -2.6133437 0.15487801
39.578537 0.42521337 -2.534225 0.084451228
40.365002 0.34361601 -2.6337252 0.1533784
41.49942 0.42273128 -2.5773902 0.048728816
42.465885 0.38384974 -2.6739643 0.10188233
43.345795 0.45281374 -2.417165 0.027096773
44.734039 0.5087744 -2.458369 0.0073529412
45.500504 0.55010182 -2.7016618 0.029743591
46.778645 0.17738032 -2.6812489 0.15222223
47.532581 0.34205493 -2.5815668 0.054545451
48.670914 0.49063897 -2.5832961 0.0064615388
49.341885 0.3767868 -2.7159424 0.059157889
50.879669 0.40381503 -2.308171 0
51.330219 0.21919115 -2.7750878 0.0021428571
52.539284 0.46920997 -2.2857049 0
53.690514 0.50736481 -2.6187713 0.011694916
54.214973 0.36076555 -2.7842233 0.044729732
55.788151 0.56076008 -2.0177433 0
56.729317 0.47753489 -2.1843767 0
57.635769 0.26767248 -2.772918 0
58.604687 0.27663174 -2.5711567 0.016666668
59.405487 0.3542797 -2.5963833 0.0049090907
60.569759 0.5035134 -2.5760791 0
61.391048 0.44394761 -2.6640334 0
62.761166 0.58409077 -2.4254584 0.42436936
63.295258 0.60302204 -2.312814 0.17651163
64.533745 0.47984213 -2.129168 0
65.490959 0.46826062 -2.6209462 0
66.281868 0.37373987 -2.5004394 0
78.695465 0.077346087 -2.831414 0.087499999
79.050316 0.37812164 -2.9441752 0
80.91291 0.034393121 -2.8091571 0
81.784546 0.66326958 -2.4400535 0
82.444077 0.51594812 -2.4246547 0.0010714285
85.413177 0.78493625 -2.4916666 0
-53.325413 1.0843838 -2.1435919 0.039999999
-39.298286 1.1901952 -2.017215 0.13666666
-38.487659 1.7418034 -2.0126743 0.11
-27.469635 1.4754007 -2.0331316 0.3039861
-26.5832 1.6024442 -2.081327 0.31822917
-25.54318 1.528187 -2.066076 0.28666672
-24.552874 1.4725711 -2.0415697 0.17583333
-23.790165 1.5622497 -2.0126538 0.13800001
-22.596718 1.8788418 -2.0036952 0.15583335
-7.4860535 1.2639818 -2.0002255 0
-6.096848 1.4761746 -2.0100071 0.17629032
-5.4555287 1.5040302 -2.0536292 0.22837789
-4.5367374 1.483418 -2.1126354 0.22154021
-3.5192041 1.5015541 -2.1407208 0.21606474
-2.4770689 1.4968972 -2.1739242 0.22806624
-1.4963878 1.4983689 -2.2001755 0.23896508
-0.50374329 1.5061399 -2.2379909 0.23696946
0.52603918 1.4875731 -2.2588122 0.21097957
1.4935201 1.4999659 -2.2626674 0.18648756
2.5295196 1.4952742 -2.2129135 0.16245659
3.5329933 1.4955041 -2.2515242 0.15268588
4.5376682 1.4990482 -2.2695961 0.16413777
5.5050812 1.4965571 -2.2852216 0.18298627
6.5095077 1.5026714 -2.3781931 0.21583186
7.5005221 1.5128707 -2.4641461 0.19227135
8.5057755 1.508134 -2.5625839 0.2143165
9.4657936 1.5213361 -2.6976948 0.20805164
10.312938 1.5319037 -2.8693838 0.15070195
13.967927 1.8950276 -2.0061758 0.1576923
14.656438 1.5337561 -2.0298932 0.18079218
15.549277 1.5163661 -2.0713513 0.20953113
16.51965 1.5015354 -2.1376836 0.21534462
17.513821 1.5070862 -2.2147729 0.22443578
18.515953 1.5066006 -2.3413548 0.21924286
19.526829 1.5023195 -2.4786513 0.24341236
20.489336 1.5011418 -2.6622996 0.27138409
21.45656 1.499709 -2.6626296 0.26604483
22.467346 1.4929616 -2.6426919 0.26011202
23.466928 1.494439 -2.6124163 0.26502493
24.475082 1.4953645 -2.6030085 0.21825847
25.492071 1.5003921 -2.5749669 0.25860137
26.512705 1.5067885 -2.599381 0.2690461
27.478872 1.6225033 -2.5265946 0.22943218
28.472466 1.5839773 -2.4903443 0.22214693
29.492233 1.5735317 -2.5247514 0.21048877
30.459084 1.4922023 -2.576122 0.22018121
31.427084 1.4472446 -2.5774486 0.21377538
32.482822 1.4308702 -2.6269114 0.19596426
33.454609 1.4124883 -2.6595984 0.17376743
34.422855 1.3964858 -2.684732 0.20265539
35.508858 1.4346061 -2.7151713 0.16503005
36.474297 1.4213002 -2.6343009 0.1290351
37.331913 1.4341246 -2.6723781 0.097478993
38.511597 1.4206344 -2.6383977 0.051590908
39.615192 1.4354647 -2.5819304 0.0083838375
40.575577 1.440776 -2.6954982 0.019999998
41.481991 1.432193 -2.5221667 0
42.343536 1.4869609 -2.7685137 0
43.420738 1.3040532 -2.3902664 0
44.691479 1.4739825 -2.4916692 0
45.403 1.4708867 -2.7923417 0
46.918236 1.2243751 -2.1367581 0
47.583118 1.3624573 -2.279561 0
48.634438 1.5314391 -2.6119289 0
49.157074 1.4125402 -2.792356 0
50.833092 1.3538673 -2.1188664 0
52.463825 1.4129027 -2.2912083 0.0026923078
53.617775 1.5146344 -2.6177297 0.00086206896
54.147884 1.4831797 -2.8109012 0
55.837872 1.3541224 -2.0222063 0
56.760914 1.3011292 -2.0769494 0
58.462658 1.3146161 -2.1691034 0
59.798302 1.5200461 -2.3604782 0
60.549702 1.5093195 -2.6558905 0
61.193874 1.3948432 -2.6669645 0
62.815765 1.1915601 -2.6075423 0.33333331
63.231621 1.3595723 -2.4167922 0.1723077
64.48246 1.6702062 -2.1613145 0
65.734955 1.1584485 -2.9738092 0
78.943169 1.4232799 -2.2779083 0.32333332
79.12207 1.7319349 -2.5806735 0.20466664
81.746025 1.5329872 -2.5570226 0.18558821
82.276413 1.570475 -2.4938209 0.019270832
85.40387 1.1062994 -2.4767163 0
-42.461773 2.7485428 -2.1885107 0.050000001
-40.209 2.7839999 -2.29 0.13
-39.931187 2.9752507 -2.1137104 0.07
-28.132277 2.650887 -2.0694315 0.3281818
-27.459101 2.5789428 -2.0662296 0.29461548
-26.438463 2.5300255 -2.107214 0.31255177
-25.70742 2.4463212 -2.1204388 0.27034095
-24.639179 2.3623745 -2.0802839 0.10764706
-23.329062 2.6181788 -2.0428581 0.075428568
-22.598953 2.449146 -2.0277851 0.12012655
-21.794573 2.8776324 -2.0066137 0.15799999
-6.0256333 2.1020386 -2.0048959 0.23333333
-5.4526672 2.4496098 -2.0470273 0.23267114
-4.5319109 2.5164573 -2.1056263 0.23489679
-3.4962955 2.5058889 -2.1383138 0.22979492
-2.4757526 2.4937172 -2.1699307 0.24431698
-1.491218 2.5087688 -2.1902101 0.25758639
-0.49518788 2.5003381 -2.2370346 0.24827963
0.52553368 2.5027132 -2.258255 0.22043142
1.4980524 2.5025036 -2.2706523 0.19536184
2.5212934 2.495285 -2.2157824 0.17694914
3.5107017 2.4925833 -2.2605324 0.16248687
4.5241947 2.4770064 -2.322962 0.15864475
5.5142097 2.5038199 -2.2976363 0.17466407
6.504108 2.4997489 -2.3707564 0.21641621
7.4946575 2.4851854 -2.45664 0.19359224
8.4959612 2.4509578 -2.5347822 0.18781196
9.4865017 2.4571817 -2.6558177 0.18622638
10.404434 2.5554187 -2.7853055 0.13547744
11.14938 2.7852936 -2.9313505 0.076532654
13.772348 2.7195029 -2.0171647 0.23379464
14.573077 2.5464087 -2.045146 0.22704898
15.533231 2.5238836 -2.0886476 0.24168147
16.525061 2.5016794 -2.1545331 0.23728207
17.526857 2.5116677 -2.2477705 0.23335056
18.516991 2.5050888 -2.3671732 0.22421715
19.531649 2.5155728 -2.5261009 0.23151362
20.46382 2.4926951 -2.6702302 0.24896577
21.460333 2.4903173 -2.6591933 0.24242035
22.478867 2.4982471 -2.6391912 0.24000886
23.466953 2.4919007 -2.6112084 0.22543859
24.528744 2.5473049 -2.641984 0.22569905
25.566263 2.6591017 -2.6679578 0.23851052
26.506557 2.5230033 -2.4784133 0.22038849
27.419937 2.4633901 -2.4100523 0.19462234
28.407639 2.3869596 -2.4001098 0.17685969
29.42523 2.3890665 -2.3285575 0.17960933
30.533861 2.5126693 -2.2161386 0.18823127
31.441887 2.4608047 -2.1712542 0.19430549
32.570236 2.4159946 -2.1859741 0.17294116
33.302475 2.3310163 -2.2642467 0.075833328
34.26049 2.0826933 -2.953758 0.16857144
35.557964 2.0997078 -2.963119 0.067142859
36.623741 2.0355084 -2.833595 0.16249999
37.394367 2.0874217 -2.9120843 0.099999994
38.498077 2.1475694 -2.9574263 0.047777779
39.714546 2.0625169 -2.7553699 0
40.51693 2.1707504 -2.9084685 0.0091666663
41.953815 2.057956 -2.7142379 0
42.439495 2.1796303 -2.8812878 0
44.740757 2.0482063 -2.6044695 0
45.265091 2.1742558 -2.8358436 0.017307691
48.833408 2.2413037 -2.8874848 0.0075000003
49.034294 2.1536183 -2.8159909 0.050000001
53.7286 2.452451 -2.8455431 0.003870968
54.049664 2.2074978 -2.8828924 0
59.780056 2.3278391 -2.4752345 0
60.447311 2.4460173 -2.742013 0
61.035503 2.1671534 -2.6598084 0
62.64325 2.8852005 -2.1611118 0
63.517242 2.1189671 -2.0368872 0
64.792397 2.5870676 -2.5631719 0
65.077446 2.4640958 -2.7581689 0
79.660225 2.3338513 -2.5281496 0
80.066872 2.7471318 -2.3752229 0
81.771156 2.2142835 -2.6787176 0.29049999
82.450691 2.4457734 -2.5189571 0.048888896
90.538834 2.7902098 -2.2645645 0
-47.560467 3.7634149 -2.4756703 0.0625
-44.598473 3.2699955 -2.0692921 0.039999999
-42.920811 3.3577986 -2.0899308 0
-32.560131 3.855993 -2.0544567 0.12166667
-31.214348 3.7522705 -2.0981543 0.1825
-30.335869 3.8835421 -2.0480487 0.18230769
-29.45223 3.5780282 -2.0431538 0.24124999
-28.48414 3.5888255 -2.1252604 0.26687953
-27.47327 3.4696524 -2.1417727 0.30168071
-26.591251 3.425576 -2.1798317 0.28615394
-25.56559 3.489934 -2.1587541 0.16363637
-24.483679 3.7555819 -2.1695719 0.03106383
-23.388622 3.3693478 -2.0927567 0.084404759
-22.581667 3.4740238 -2.0599234 0.12790696
-21.357393 3.5975847 -2.0315046 0.19193548
-20.843946 3.3805909 -2.0096166 0.25384617
-6.4623041 3.7221913 -2.003068 0
-5.3482256 3.4917612 -2.045764 0.22183603
-4.4998999 3.4756403 -2.0961988 0.26362902
-3.4862239 3.5060029 -2.1355054 0.2457179
-2.4743266 3.4929409 -2.1676717 0.25820413
-1.4924563 3.4338434 -2.191402 0.26410097
-0.50875962 3.3516638 -2.2428994 0.25976592
0.63292098 3.4798543 -2.24119 0.21583022
1.4837899 3.5008686 -2.2601492 0.20237726
2.5191059 3.4350281 -2.2100501 0.16995446
3.5611961 3.5638409 -2.2337966 0.17622803
4.4897623 3.5674443 -2.2662396 0.22912806
5.4914784 3.4299366 -2.2872465 0.20850989
6.5218539 3.5558162 -2.2992339 0.19369788
7.5082855 3.6015015 -2.341645 0.17963955
8.5160732 3.6441414 -2.3183689 0.16604421
9.4949255 3.6891615 -2.3890572 0.19983245
10.496663 3.5327301 -2.715528 0.26215142
11.275019 3.6118598 -2.8647206 0.26470375
12.651299 3.7342002 -2.021214 0.26095229
13.50899 3.5730138 -2.0439227 0.25625262
14.582917 3.4936593 -2.0877566 0.27125156
15.516768 3.5341866 -2.1381714 0.2755836
16.48807 3.5787332 -2.1920304 0.22671936
17.521633 3.5163598 -2.3188379 0.27546969
18.519764 3.5136211 -2.4343283 0.27220643
19.52137 3.5054677 -2.6116939 0.26654935
20.466431 3.4788539 -2.6687267 0.281416
21.465088 3.4807777 -2.6467221 0.26915929
22.472525 3.4919744 -2.6340535 0.28115779
23.478031 3.4872041 -2.6039369 0.25579342
24.653477 3.4747939 -2.746449 0.22743638
25.470364 3.4461024 -2.6558337 0.235842
26.455404 3.3873749 -2.4441185 0.17416935
27.389685 3.4380682 -2.3983879 0.22072463
28.423248 3.5063446 -2.4217417 0.22103791
29.50683 3.5228434 -2.3617628 0.24667767
30.441803 3.6312106 -2.3203273 0.21983963
31.40901 3.6038823 -2.2931621 0.2461074
32.543026 3.6272464 -2.268635 0.21956523
33.382263 3.6502817 -2.1983662 0.20216218
34.588078 3.6917439 -2.1930361 0.15879519
35.252693 3.7312877 -2.1414723 0.058225796
36.459026 3.5159054 -2.0791736 0.050000001
37.551369 3.6892536 -2.1154244 0.02
38.710449 3.6843636 -2.0928817 0
39.599636 3.6892936 -2.1296799 0
40.769012 3.7845292 -2.0067539 0
41.438988 3.8162909 -2.0504072 0
42.434769 3.9370663 -2.1164513 0
44.897957 3.9406276 -2.0415487 0
53.620201 3.0501733 -2.9793587 0.039999999
60.284836 3.1548684 -2.9501126 0
62.669468 3.4908919 -2.4987738 0
64.723152 3.4001653 -2.8124895 0.0013636363
65.003036 3.2708459 -2.6055996 0
79.879463 3.4749403 -2.4371941 0.15368421
80.272743 3.5075948 -2.5812526 0
81.30526 3.8534827 -2.6184745 0
82.380836 3.4030702 -2.4341543 0
90.548912 3.4726195 -2.5547624 0
-39.227291 4.960753 -2.0890777 0.10666666
-38.709473 4.9793668 -2.0876946 0.1
-37.435863 4.9594889 -2.0846186 0.068749994
-35.551205 4.6767416 -2.0141661 0.21166666
-34.603661 4.5084352 -2.1413403 0.064499997
-33.38208 4.7486959 -2.1762593 0.14081077
-32.481987 4.5345612 -2.2868884 0.14880341
-31.576397 4.5067697 -2.3518665 0.18698113
-30.42524 4.439527 -2.2257478 0.20083334
-29.134007 4.5200462 -2.2124925 0.14749999
-28.396263 4.6004505 -2.2410681 0.24505052
-27.55941 4.3117762 -2.2322524 0.23873562
-26.528271 4.5005503 -2.2448988 0.11054546
-25.453453 4.6584964 -2.2422128 0.025789475
-24.667839 4.4020185 -2.1871865 0.07439024
-23.45315 4.3818717 -2.1619694 0.06666667
-22.508099 4.535048 -2.0900996 0.034374997
-21.498068 4.5124049 -2.0715833 0.10574073
-20.653896 4.6180573 -2.0227833 0.11866667
-19.84837 4.9131503 -2.0060296 0.039999999
-6.2583437 4.3943839 -2.0044615 0.026666667
-5.2990551 4.2204747 -2.0536692 0.22556451
-4.5222702 4.1893682 -2.0841308 0.25353155
-3.5343082 4.1043243 -2.1242902 0.25811601
-2.7182457 4.0434237 -2.1058476 0.23645157
0.57292312 4.0458088 -2.4364228 0.2051724
1.4430658 4.2008953 -2.4774961 0.24222223
2.6659136 4.4218168 -2.2606966 0.24078915
3.4705656 4.2912564 -2.2071776 0.24973273
4.2595849 4.1408563 -2.1895773 0.37650636
5.4203639 4.0640359 -2.6996999 0.17428572
6.582634 4.0788436 -2.58688 0.23946038
7.5086761 4.0963492 -2.6289742 0.24981217
8.7622738 4.3651075 -2.6508863 0.20415957
9.6738358 4.440094 -2.4476821 0.28752723
10.379766 4.524652 -2.5196631 0.26125512
11.452487 4.5553184 -2.6600518 0.25525814
12.431113 4.6462073 -2.2973149 0.2794517
13.309679 4.4882364 -2.0810916 0.29460961
14.798383 4.1037536 -2.1773286 0.23149763
15.553103 4.1577153 -2.2274425 0.24375769
16.411148 4.175302 -2.272049 0.22166346
17.622362 4.3868017 -2.4984653 0.25429291
18.534582 4.5059257 -2.6208773 0.27091837
19.464899 4.4716296 -2.6820467 0.28499207
20.464985 4.4782567 -2.6635671 0.29025528
21.473619 4.4865737 -2.6437905 0.28352508
22.471096 4.4852185 -2.6241212 0.29353583
23.489281 4.4919581 -2.5990505 0.26474762
24.542152 4.4336586 -2.6482327 0.27068275
25.434349 4.4172029 -2.616425 0.25305247
26.483027 4.4451528 -2.6060078 0.25063485
27.6805 4.6329689 -2.5036447 0.26346037
28.435936 4.5519786 -2.5027835 0.11895663
29.470478 4.5869498 -2.4027824 0.12114344
30.480034 4.5084891 -2.50207 0.081462748
31.415878 4.4095874 -2.6642385 0.18570563
32.528564 4.3671837 -2.6295383 0.23140749
33.540333 4.4561629 -2.591259 0.23089443
34.634594 4.638258 -2.2623315 0.33163992
35.431644 4.70748 -2.416944 0.25944042
36.531471 4.692204 -2.4094427 0.17178291
37.586662 4.6593456 -2.3938773 0.060062505
38.397953 4.7505093 -2.3771031 0.022844829
39.524925 4.8252578 -2.3407321 0.0017391304
40.148785 4.8489113 -2.8460548 0.38999999
43.408424 4.1091976 -2.1587312 0
44.986961 4.0705748 -2.0468705 0
45.514893 4.219893 -2.0803969 0.086666666
47.048538 4.3874211 -2.1754186 0
48.451889 4.6849461 -2.2892325 0
49.204723 4.4992361 -2.018929 0.015
50.481544 4.8122487 -2.2686987 0.16777778
51.378963 4.867043 -2.4437051 0
52.462261 4.8510275 -2.4564564 0
53.196228 4.8331861 -2.4104013 0
80.28434 4.2109799 -2.7591267 0
81.550392 4.4797506 -2.6131542 0.12421054
82.380554 4.4322295 -2.5221035 0
83.268585 4.7115088 -2.2550442 0.10076923
85.877884 4.759975 -2.5097635 0
86.067017 4.8520017 -2.0903296 0
90.703491 4.1213317 -2.878669 0
-43.541126 5.7551727 -2.0362518 0.050000001
-42.203438 5.4238491 -2.2132175 0.085000001
-41.227448 5.849184 -2.216291 0.026857143
-40.522766 5.8018212 -2.0960948 0.012857144
-39.615833 5.5954137 -2.1034901 0.031999998
-38.605721 5.1761389 -2.1596906 0.082857147
-37.527176 5.6667237 -2.3089387 0.10630252
-36.349537 5.7686234 -2.4010828 0.089999996
-35.538731 5.6055431 -2.2299652 0.15857139
-34.602669 5.3785334 -2.3111324 0.1305263
-33.535007 5.4628921 -2.4096982 0.23515874
-32.602615 5.4672303 -2.4229615 0.24272728
-31.426575 5.502624 -2.4391532 0.2525
-30.353455 5.464139 -2.4392853 0.23424242
-29.492716 5.5467191 -2.3107104 0.090081967
-28.533304 5.4986606 -2.3235433 0.1
-27.635414 5.6527524 -2.3069644 0.0028571428
-26.343885 5.4965844 -2.2853737 0.028723408
-25.584547 5.4965043 -2.2582436 0.052872334
-24.603611 5.5530267 -2.2488875 0.066749997
-23.612642 5.3612843 -2.2149167 0
-22.241558 5.5141077 -2.1553423 0.13599999
-21.362944 5.5041561 -2.1000798 0.1070909
-20.476978 5.4572477 -2.0480459 0.14723074
-19.646833 5.5997148 -2.0189269 0.16479166
-18.6954 5.9301777 -2.0030756 0.29500002
8.9077463 5.2375221 -2.8407311 0.24393615
9.6744194 5.4498615 -2.4571009 0.28541425
10.498536 5.4917889 -2.4497826 0.31818503
11.507963 5.5278559 -2.4848125 0.32025835
12.38628 5.5308518 -2.36254 0.30510002
13.176918 5.4202538 -2.1185491 0.31261957
14.693644 5.862761 -2.3644047 0.026800001
16.206425 5.6442719 -2.0106258 0.16000001
17.900265 5.0806775 -2.8234811 0.21950002
18.621626 5.3947954 -2.8233321 0.28780976
19.489204 5.5503006 -2.7530961 0.31756306
20.478037 5.5644641 -2.697536 0.31180859
21.482224 5.5618315 -2.650259 0.31716523
22.475166 5.5538549 -2.6039703 0.30629146
23.475502 5.5508614 -2.582906 0.30833912
24.48769 5.5331855 -2.5399365 0.33521992
25.494019 5.5425467 -2.5575924 0.34043664
26.470579 5.5219498 -2.6010737 0.33098805
27.652742 5.4131913 -2.5704575 0.23466785
28.400717 5.4851227 -2.554074 0.11388002
29.61142 5.4929347 -2.4434974 0.11849298
30.40539 5.5800948 -2.4643841 0.13391382
31.602942 5.021183 -2.966259 0.13
33.856037 5.0516934 -2.8977604 0.17
34.747925 5.4117427 -2.5231712 0.36384228
35.333591 5.4713249 -2.4543211 0.23184188
36.441551 5.3881979 -2.3393292 0.25691992
37.683887 5.3950477 -2.4649131 0.21934706
38.429596 5.4807606 -2.3741558 0.13216665
39.55394 5.3417077 -2.4375274 0.030983604
40.058338 5.8532119 -2.2153511 0.28642854
49.929935 5.1230736 -2.1211281 0.81999999
50.586292 5.4282403 -2.6429727 0.066250004
51.249046 5.4351115 -2.5992625 0
52.421715 5.5452275 -2.4171243 0
53.324257 5.2662935 -2.65275 0.0017391304
58.978294 5.280951 -2.3388326 0
59.396114 5.5354171 -2.5660787 0
60.162441 5.6358995 -2.4759572 0
81.289581 5.0079398 -2.9695082 0.029999999
82.69632 5.1531725 -2.8565457 0
83.256195 5.3246131 -2.5750666 0.11499999
85.98185 5.2570443 -2.6533985 0
86.197113 5.4384689 -2.5254066 0.0016666666
-46.535503 6.681448 -2.1047087 0.11166668
-44.948303 6.3475366 -2.0812407 0.016666668
-43.303535 6.56672 -2.1450977 0.017297298
-42.343029 6.6720662 -2.2605948 0.02
-41.415649 6.5826869 -2.298923 0.015530303
-40.565605 6.4947252 -2.3310227 0.047377046
-39.677864 6.5944414 -2.3323176 0.067368418
-38.400085 6.6946073 -2.5142703 0.14428571
-37.513359 6.3879647 -2.5156384 0.16188884
-36.319656 6.489171 -2.4324043 0.17166665
-35.523067 6.4989181 -2.2373309 0.17793104
-34.346397 6.4848137 -2.3583195 0.17824563
-33.515774 6.5106516 -2.4344609 0.1649565
-32.531555 6.5390625 -2.4376068 0.10355932
-31.320024 6.4610958 -2.4653687 0.11564102
-30.386246 6.5272827 -2.4133432 0.13361704
-29.430679 6.5073872 -2.325953 0.026641216
-28.504854 6.515316 -2.3433487 0.055876285
-27.676834 6.5121603 -2.1978257 0.0082558133
-26.28825 6.591042 -2.3351767 0.0063414639
-25.60747 6.4492493 -2.285481 0.086556263
-24.704851 6.4911032 -2.2632194 0.10203702
-22.23802 6.4848676 -2.2023401 0.19155556
-21.460747 6.5351701 -2.1356471 0.20445943
-20.435987 6.5142136 -2.0806391 0.22327869
-19.485954 6.526341 -2.0412452 0.25593019
-18.579287 6.6741328 -2.014811 0.26767439
-17.715252 6.8950868 -2.0064533 0.21199998
7.9208946 6.9046655 -2.5802779 0.052678566
8.7023554 6.6702876 -2.4966044 0.24642457
9.5402317 6.4914064 -2.4051886 0.25460023
10.519403 6.4645195 -2.3971875 0.23967278
11.502856 6.4577603 -2.4247849 0.25937808
12.425766 6.4761558 -2.2836585 0.26542592
13.286139 6.5513535 -2.1154549 0.25762844
14.092026 6.8598852 -2.0248098 0.29393947
18.795414 6.298337 -2.8950653 0.28460678
19.526344 6.4309688 -2.7838819 0.27510238
20.500748 6.4657202 -2.7283001 0.29414365
21.476114 6.4576759 -2.6917708 0.27269202
22.492195 6.4825902 -2.6408784 0.26454714
23.501076 6.4569526 -2.5991907 0.3086237
24.489157 6.4599338 -2.5781102 0.31891012
25.503052 6.4725723 -2.618396 0.32190791
26.480772 6.4593134 -2.6333606 0.32778481
27.479969 6.4638343 -2.6435091 0.3171837
28.463673 6.4211025 -2.6276958 0.27145711
29.563517 6.4451818 -2.5706429 0.23533434
30.416309 6.5357118 -2.5520618 0.2149553
31.430227 6.7015553 -2.2312815 0.2629213
32.620186 6.7767344 -2.1340482 0.24071428
33.183407 6.7800956 -2.1226976 0.23357143
34.904572 6.1343441 -2.8717637 0.39136362
35.469418 6.3378963 -2.4867435 0.23230918
36.457047 6.3721194 -2.4260414 0.25158939
37.732555 6.5860372 -2.3944113 0.20909087
38.270733 6.3199739 -2.5014741 0.26800904
39.836418 6.304997 -2.4834085 0.28439021
40.11092 6.3465304 -2.5431199 0.2368889
41.496998 6.6998134 -2.4282858 0.072156847
50.589863 6.0812802 -2.9355347 0.013333333
51.284248 6.1685257 -2.745482 0
52.465679 6.1383228 -2.5511975 0
-54.830315 7.8034658 -2.1651967 0.079999998
-51.151855 7.8418126 -2.2707515 0
-50.613178 7.866076 -2.2521844 0.0064285719
-49.833725 7.5136852 -2.1617708 0.011111111
-46.677166 7.9604588 -2.1717958 0
-45.26363 7.9107361 -2.2615397 0
-43.386177 7.5046859 -2.3065593 0.0054237288
-42.353832 7.5813046 -2.4534783 0.028783781
-41.683849 7.2945237 -2.4371238 0.03430108
-40.656483 7.5522084 -2.3438447 0.038437501
-39.713078 7.338902 -2.3212042 0.058181819
-38.50906 7.517714 -2.5747948 0.12265307
-37.669479 7.5098286 -2.5648377 0.11515623
-36.324207 7.4742475 -2.441941 0.05125
-35.442608 7.4740863 -2.3007953 0.019791668
-34.285076 7.5089159 -2.3572009 0.010943396
-33.391315 7.5198083 -2.3991139 0.0044036699
-32.485287 7.472333 -2.4419799 0
-31.467855 7.5148525 -2.4745345 0.044999998
-30.562639 7.4732294 -2.4394135 0.10536586
-29.390701 7.4904861 -2.3438313 0.048802815
-28.552942 7.506886 -2.3796167 0.029473681
-27.779463 7.4714761 -2.1836624 0.0082666669
-26.413635 7.5225625 -2.3523223 0.046753246
-25.576666 7.5108843 -2.3388121 0.1524719
-24.882868 7.2790766 -2.3203678 0.14428571
-22.173624 7.4382606 -2.1214259 0.25400001
-21.457069 7.4739356 -2.1415653 0.25012502
-20.516136 7.5433197 -2.0915227 0.20490384
-19.523008 7.4830198 -2.06021 0.12880735
-18.432383 7.5584612 -2.0305753 0.16393444
-17.497068 7.5239043 -2.0240295 0.20068699
-16.481503 7.8166175 -2.0058491 0.19829264
-14.031261 7.913445 -2.0067554 0.38000003
-13.933743 7.9433146 -2.0072844 0.33000001
-3.3576002 7.8258719 -2.121944 0.0049999999
-2.1977925 7.6614118 -2.1286273 0
-1.6670495 7.7195129 -2.2288229 0.069210522
-0.85399705 7.8506432 -2.0721314 0
6.7369556 7.8497467 -2.5598707 0.23634341
7.6145248 7.5853224 -2.495342 0.2172963
8.5380831 7.5108042 -2.4027748 0.22821538
9.5269861 7.4629536 -2.3739777 0.29039168
10.51005 7.4903755 -2.4346187 0.28910583
11.501641 7.4882689 -2.4541838 0.26655352
12.436947 7.486393 -2.3241088 0.25692731
13.426728 7.5291452 -2.1459196 0.26975507
14.339035 7.6406527 -2.078361 0.31864837
15.335505 7.8505673 -2.0291448 0.20912087
18.922691 7.0837016 -2.9595892 0.10681819
19.62895 7.4240556 -2.8687015 0.29946411
20.507677 7.4519014 -2.7712536 0.25691155
21.505325 7.4978342 -2.7250714 0.25639483
22.487761 7.4815474 -2.6591289 0.30814746
23.484327 7.4811773 -2.5948575 0.32232293
24.512197 7.5058317 -2.5877473 0.3364791
25.473873 7.4863558 -2.6071773 0.33680284
26.472912 7.4982333 -2.5969396 0.33956867
27.484055 7.4983668 -2.592886 0.32207057
28.506472 7.5084682 -2.5976186 0.31778598
29.478764 7.4762826 -2.5921443 0.3109203
30.470861 7.5058103 -2.5731769 0.28602526
31.477808 7.5293989 -2.5764821 0.28523216
32.460632 7.5597963 -2.4549551 0.28473318
33.481819 7.6343651 -2.4305174 0.27076474
34.411587 7.7334075 -2.4476066 0.23765956
35.349316 7.5917845 -2.1235301 0.2145614
36.166573 7.8800282 -2.3081732 0.20200004
37.597034 7.7954535 -2.0878329 0.20200001
41.562702 7.0764413 -2.8282197 0.037333332
-54.305347 8.4039278 -2.2232718 0.0039999997
-53.6161 8.9967022 -2.2137077 0
-51.178902 8.6791649 -2.0015135 0
-50.507538 8.4265232 -2.1898272 0.0013131313
-49.569088 8.7084389 -2.3522372 0
-48.844482 8.5373917 -2.3441262 0
-46.366123 8.6858721 -2.410681 0
-45.75507 8.4572611 -2.4131341 0
-44.601395 8.6576223 -2.5588324 0
-43.364365 8.4726562 -2.6028209 0.058055546
-42.671959 8.4936781 -2.5244708 0.043582082
-41.400513 8.3702478 -2.3258069 0.021428572
-40.504963 8.5804558 -2.3031821 0.01340909
-39.326897 8.7087107 -2.4145598 0
-38.424351 8.539957 -2.6198316 0.0037931034
-37.666401 8.4218922 -2.5524588 0
-36.582882 8.4825735 -2.5226896 0
-35.497162 8.4745436 -2.2381711 0
-34.363239 8.5145807 -2.4076874 0
-33.433868 8.4847364 -2.4185932 0.0010619469
-32.531277 8.4854975 -2.4689512 0
-31.324453 8.4975281 -2.4895756 0.066842102
-30.448111 8.5694714 -2.4265382 0.051111106
-29.439936 8.4416618 -2.3870466 0.078828827
-28.425947 8.5100069 -2.338099 0.11992064
-27.585857 8.4909544 -2.2141852 0.13767439
-26.524904 8.3928261 -2.3846483 0.22761536
-25.436905 8.3072958 -2.3310831 0.26255324
-24.569294 8.6576252 -2.188535 0.27498943
-23.728945 8.8893776 -2.1974647 0.28094599
-22.723253 8.4339409 -2.2299139 0.26333332
-21.188337 8.4473925 -2.0548177 0.019166667
-20.466188 8.4744492 -2.1120231 0.10916669
-19.646194 8.5128851 -2.08515 0.070707053
-18.420765 8.4901896 -2.062747 0.17600006
-17.444584 8.5062437 -2.0530612 0.19616078
-16.521696 8.4879751 -2.0219285 0.18762599
-15.613398 8.6850586 -2.0123825 0.26258066
-14.407113 8.6140642 -2.0404685 0.36102188
-13.674058 8.6694937 -2.066566 0.361783
-12.572001 8.7167873 -2.0334673 0.3786957
-11.39024 8.9701986 -2.0118558 0.26000002
-10.825518 8.9746389 -2.0088072 0.19
-2.6740575 8.3489628 -2.1806464 0
-1.3536003 8.2298737 -2.1691 0.0075000003
-0.59620231 8.3282747 -2.1380377 0
0.50193495 8.5954819 -2.0444186 0
4.8577971 8.8140068 -2.400574 0.31423077
5.322175 8.7007408 -2.4703283 0.38078618
6.6034598 8.5457087 -2.2493367 0.37081262
7.4410081 8.496521 -2.2811205 0.35978615
8.5729599 8.4290018 -2.3043029 0.35194728
9.5318985 8.495841 -2.3003793 0.35000703
10.522957 8.4839048 -2.3757184 0.3528792
11.534527 8.5091228 -2.3992445 0.36816284
12.489914 8.5769291 -2.3676152 0.37785974
13.48121 8.6541729 -2.2685206 0.36763078
14.4675 8.6840582 -2.2464244 0.29706049
15.42124 8.7178907 -2.2835271 0.18693213
16.486738 8.7942457 -2.2367771 0.13695857
17.339172 8.8356686 -2.30373 0.22654594
18.931561 8.907074 -2.7633612 0.29953852
19.483936 8.770256 -2.6252286 0.36184624
20.670927 8.7080488 -2.5284007 0.35683364
21.498213 8.7487984 -2.4431939 0.37976873
22.456907 8.7482042 -2.4335816 0.38307035
23.507462 8.7573214 -2.4632673 0.39521098
24.50909 8.7289057 -2.4444168 0.39940801
25.430523 8.7072611 -2.4578943 0.39276397
26.426939 8.6854963 -2.4908378 0.36397132
27.604591 8.6074858 -2.4997628 0.36979929
28.480467 8.6537027 -2.5197294 0.37436426
29.451916 8.6239557 -2.5537336 0.35369608
30.440712 8.6552467 -2.4803977 0.34689933
31.524366 8.6010933 -2.4830995 0.34377357
32.45652 8.5958138 -2.5101283 0.31661919
33.499634 8.6282988 -2.4624066 0.32071131
34.514458 8.6670847 -2.4401042 0.31045756
35.37355 8.6139641 -2.4464815 0.27301979
36.553005 8.6769094 -2.4258759 0.29603264
37.51878 8.6412907 -2.3172483 0.30108979
38.403366 8.691515 -2.3527546 0.30755112
39.503918 8.6054392 -2.1326296 0.26790324
40.478088 8.5677614 -2.1442549 0.16692308
41.313255 8.6229134 -2.1228998 0.055
-63.730831 9.343153 -2.2473602 0
-58.944683 9.0872717 -2.6846876 0
-57.303059 9.8474159 -2.6438866 0
-55.105797 9.6053886 -2.0165303 0
-54.291401 9.351779 -2.333771 0
-53.450024 9.2692204 -2.2536592 0
-52.747196 9.7044668 -2.3022974 0.039782606
-51.08976 9.0679617 -2.0691109 0
-50.387711 9.4104958 -2.2727084 0.018709676
-49.774883 9.438777 -2.4921365 0.0010294118
-48.494007 9.6763201 -2.4931757 0.022891568
-47.905579 9.7940483 -2.6319757 0
-46.395481 9.1164255 -2.557853 0.0078260871
-45.781479 9.8135796 -2.3914881 0
-44.356865 9.4625959 -2.5789382 0.0025925925
-43.319763 9.5504169 -2.7171175 0.010000001
-42.605358 9.466136 -2.5489924 0.0032142855
-41.175961 9.5585365 -2.4864478 0
-40.652317 9.4987421 -2.3075073 0
-39.368114 9.5697975 -2.6197963 0
-38.537411 9.4591055 -2.6592367 0
-37.382839 9.5183964 -2.5424981 0
-36.521255 9.5334749 -2.3800356 0
-35.432487 9.5272274 -2.3394299 0
-34.397457 9.5208817 -2.4015849 0
-33.579788 9.4545298 -2.5492563 0.0022222223
-32.67646 9.4488716 -2.527503 0.058333334
-31.416891 9.5314484 -2.5357695 0.19776116
-30.626051 9.5228624 -2.4774215 0.17569621
-29.28578 9.3477345 -2.4571843 0.26514286
-28.481663 9.5064278 -2.3088906 0.2173
-27.515825 9.5402966 -2.1595011 0.17450981
-26.635012 9.4306602 -2.1194434 0.20744681
-24.348171 9.5151739 -2.126322 0.28064513
-23.598713 9.4623423 -2.1891172 0.28845498
-22.554434 9.5507727 -2.207505 0.14342104
-21.37104 9.5837507 -2.1166978 0.033030305
-20.405216 9.5013599 -2.1454895 0.058145151
-19.676498 9.5185928 -2.1138802 0.058256876
-18.382275 9.4536791 -2.0834255 0.14373241
-17.502808 9.4984369 -2.0809462 0.19539015
-16.530539 9.5262823 -2.0522604 0.17900714
-15.501439 9.5447645 -2.0712733 0.31856674
-14.431588 9.4982576 -2.1047375 0.35918361
-13.578065 9.5253935 -2.1421864 0.3586379
-12.584021 9.5615911 -2.1377025 0.35046732
-11.456346 9.4554787 -2.0692701 0.3308824
-10.908873 9.3372841 -2.0427866 0.33230776
0.45905066 9.0206699 -2.0588396 0
2.8646224 9.6284819 -2.1708579 0.29868421
3.3250415 9.785141 -2.2166271 0.4032346
4.5775352 9.5470991 -2.2981703 0.32913741
5.4298763 9.4641838 -2.2642472 0.35505033
6.8253193 9.3930397 -2.2088463 0.31937814
7.4508009 9.3990078 -2.165864 0.35506168
8.2666883 9.501399 -2.1613398 0.33667892
9.7469339 9.4308729 -2.2760561 0.3380304
10.467515 9.4391336 -2.2624245 0.34329191
11.39615 9.4093742 -2.2618856 0.32331529
12.587289 9.2906342 -2.3108623 0.32757804
13.47751 9.3056202 -2.2889264 0.3073191
14.47588 9.2487736 -2.2013135 0.29210541
15.548611 9.2191925 -2.2809575 0.23401637
16.54591 9.232151 -2.2600231 0.28568619
17.541937 9.3268871 -2.3401444 0.30970657
18.401264 9.5143042 -2.5149479 0.31724042
19.500788 9.5813417 -2.4004219 0.36375943
20.59157 9.5157061 -2.4217389 0.36741012
21.462172 9.2855844 -2.4019063 0.34857541
22.49637 9.2256317 -2.4619827 0.36523086
23.491413 9.2507782 -2.4808128 0.38590348
24.500744 9.2313871 -2.4904063 0.40923828
25.443224 9.2366438 -2.4690785 0.38749161
26.451054 9.3125725 -2.4802933 0.37777698
27.786577 9.5018244 -2.528177 0.43425465
28.402077 9.4234076 -2.4354603 0.40567386
29.569101 9.4089251 -2.5069416 0.38557607
30.452978 9.427742 -2.4754357 0.38987172
31.418842 9.4339952 -2.4774959 0.3679381
32.407024 9.4780312 -2.4870837 0.3744607
33.608322 9.5348511 -2.4912946 0.37209976
34.442402 9.4298887 -2.489249 0.33756271
35.182289 9.318923 -2.5303371 0.31451017
36.823414 9.5808821 -2.5793214 0.33805487
37.429829 9.5538712 -2.5157762 0.31010661
38.455627 9.5721378 -2.5058553 0.3292723
39.520824 9.6778097 -2.4173172 0.30953652
40.497372 9.635067 -2.4208543 0.29519737
41.231205 9.709938 -2.2739513 0.2743209
43.651119 9.5791216 -2.1288977 0.22487806
44.42535 9.7705221 -2.4334207 0.21902852
45.774693 9.7824659 -2.4193542 0.25313559
46.454823 9.8017931 -2.3984482 0.23068291
47.591892 9.7695894 -2.4243097 0.1901485
48.548744 9.7321768 -2.3459313 0.18321732
49.195946 9.7530785 -2.2671437 0.2225
50.867565 9.8730583 -2.0388372 0.16499999
57.468979 9.8861475 -2.5896764 0.0049999999
58.199886 9.901885 -2.5537326 0.036666665
82.858253 9.7366247 -2.7545056 0
-54.576199 10.675232 -2.2730677 0.0026666666
-53.466446 10.687617 -2.2347503 0.012580644
-52.617439 10.376123 -2.4101055 0.033924051
-51.65427 10.578246 -2.4690571 0
-50.438808 10.454394 -2.5888686 0
-49.527557 10.668611 -2.6162753 0.0040624999
-48.459381 10.400348 -2.6399841 0.018947368
-47.511028 10.515634 -2.6572862 0
-46.669434 10.52636 -2.4951148 0
-45.833584 10.257475 -2.3986056 0
-44.444344 10.526015 -2.6271822 0
-43.339802 10.556553 -2.6588197 0
-42.779499 10.451592 -2.5826778 0
-41.395054 10.592203 -2.3941171 0
-40.469379 10.500687 -2.496031 0
-39.444778 10.50408 -2.7337251 0
-38.549351 10.43509 -2.6428537 0
-37.489948 10.507946 -2.4497206 0
-36.503319 10.532156 -2.3386135 0
-35.352818 10.535832 -2.487036 0.092682928
-34.544693 10.369241 -2.4550869 0.081685394
-33.439167 10.466822 -2.4047627 0.11803571
-32.368462 10.586872 -2.2766123 0.087580651
-31.559837 10.539143 -2.2518156 0.1324762
-30.665989 10.402401 -2.2622352 0.19396821
-29.075485 10.542567 -2.0757034 0.18000001
-28.451036 10.365403 -2.0326056 0.15230767
-27.722696 10.275575 -2.0169172 0.22500001
-26.164085 10.57113 -2.0905931 0.27703699
-25.600391 10.590632 -2.1344926 0.28173459
-24.412464 10.545983 -2.1476715 0.24503492
-23.559357 10.424383 -2.2029865 0.26721439
-22.394949 10.612021 -2.1368713 0.028113211
-21.524027 10.460212 -2.1508818 0.0044444446
-20.363909 10.464416 -2.1771801 0.093020819
-19.660009 10.525991 -2.1450453 0.059800006
-18.350267 10.498864 -2.1080246 0.13183999
-17.589422 10.521276 -2.1061208 0.19911116
-16.419395 10.489353 -2.0936487 0.2845
-15.486634 10.52701 -2.1334512 0.35272726
-14.411394 10.465985 -2.1526132 0.35357815
-13.622667 10.499853 -2.1834185 0.3567574
-12.697826 10.433851 -2.2276561 0.36382031
-11.4972 10.1726 -2.1544001 0.33399999
-6.6641402 10.76351 -2.006299 0.41
-0.012350082 10.969341 -2.0643311 0
0.3820751 10.857294 -2.0700936 0.25615385
1.6354316 10.245373 -2.0995274 0.30191177
2.7380662 10.85272 -2.3676023 0.33759615
3.3460381 10.330779 -2.320447 0.35102177
4.2990842 10.139627 -2.3450835 0.27966103
5.6402864 10.428387 -2.1947985 0.28397161
6.2182188 10.4451 -2.22263 0.2744444
7.4641976 10.446648 -2.1049209 0.27312487
8.7520294 10.387743 -2.0970888 0.35414901
9.4942856 10.278665 -2.1993413 0.33167595
10.503127 10.278821 -2.1888463 0.34946957
11.313529 10.161124 -2.2146142 0.34871683
12.728621 10.477942 -2.3434224 0.32020521
13.297219 10.42779 -2.2931881 0.28769732
14.505315 10.451955 -2.2830305 0.27111542
15.586189 10.369702 -2.3095038 0.21347405
16.43409 10.479356 -2.2709868 0.23651116
17.523836 10.308139 -2.4484351 0.2973212
18.208363 10.349222 -2.5669806 0.30684
19.464586 10.301277 -2.4478097 0.37773249
20.465483 10.355005 -2.43062 0.33572209
21.272566 10.384079 -2.2967644 0.33488432
22.544519 10.273986 -2.5090792 0.35237509
23.416954 10.209855 -2.5283926 0.31063744
24.546083 10.388638 -2.3242428 0.37257072
25.360392 10.510763 -2.3134425 0.32310629
26.352219 10.1679 -2.6503873 0.33196419
27.738382 10.276825 -2.4647713 0.41252267
28.280405 10.236617 -2.3767605 0.39165643
29.482904 10.491096 -2.5186582 0.36217386
30.573195 10.267687 -2.3296497 0.38627869
31.51922 10.32169 -2.4826136 0.33087233
32.46283 10.385108 -2.4891379 0.36271366
33.453918 10.287178 -2.480685 0.33291414
34.527184 10.264103 -2.4442589 0.28200004
35.183372 10.359793 -2.3660579 0.27168828
36.864735 10.260743 -2.7604768 0.33275515
37.34724 10.543976 -2.3768418 0.32757699
38.586845 10.633367 -2.4034636 0.33104551
39.530087 10.36825 -2.5436459 0.31673175
40.45105 10.568829 -2.318475 0.2870881
41.280724 10.38578 -2.4552758 0.2756429
43.812866 10.512377 -2.6466205 0.20666666
44.600288 10.559458 -2.4568517 0.2787973
45.614315 10.434585 -2.431663 0.25642207
46.350864 10.441072 -2.4383531 0.24465555
47.656906 10.332604 -2.4897313 0.18534204
48.361916 10.393529 -2.5524364 0.19182685
49.357456 10.339647 -2.3998342 0.20537443
50.696999 10.568045 -2.2991762 0.13249999
51.547974 10.504703 -2.3581183 0.19758621
53.20005 10.988813 -2.1482985 0.16
57.345997 10.131851 -2.8080838 0.012857144
58.345119 10.116472 -2.472163 0.035714287
59.234306 10.09941 -2.1052761 0.050000001
-62.075024 11.926598 -2.0238237 0
-57.214058 11.496305 -2.312521 0
-56.664043 11.512402 -2.2906549 0
-55.203011 11.791391 -2.4984889 0
-54.612553 11.583423 -2.7133429 0
-53.449924 11.274093 -2.3990397 0
-52.452522 11.358613 -2.7190621 0
-51.439865 11.389235 -2.534718 0
-50.654728 11.566649 -2.5214491 0
-49.442844 11.478305 -2.7898083 0
-48.730232 11.424502 -2.4236472 0
-47.671772 11.512427 -2.7137253 0
-46.399788 11.246352 -2.4355192 0
-45.072357 11.82232 -2.6025028 0
-44.568588 11.49255 -2.7018795 0
-43.548336 11.479854 -2.656487 0
-42.377754 11.543749 -2.5212805 0
-41.500961 11.35103 -2.4157176 0
-40.353199 11.57588 -2.7956445 0.0028571431
-39.683426 11.456539 -2.7255611 0.028684212
-38.566051 11.487561 -2.5948908 0.041052628
-37.732685 11.177897 -2.3123205 0
-36.411282 11.044683 -2.571882 0.026666665
-35.67524 11.668391 -2.266335 0.039999999
-34.076756 11.191536 -2.2771068 0.063124999
-28.736082 11.952518 -2.1478379 0.11
-27.105434 11.185797 -2.0177989 0.235
-26.293692 11.125593 -2.1134069 0.30825001
-25.618809 11.15719 -2.1221902 0.26019606
-24.502211 11.455129 -2.1450284 0.29626217
-23.778736 11.475661 -2.3045933 0.24096149
-22.44968 11.520046 -2.1922495 0.028846148
-21.615387 11.523117 -2.1999214 0
-20.271624 11.44899 -2.1996982 0.075128205
-19.565203 11.507797 -2.1728983 0.063109756
-18.452456 11.434855 -2.1152749 0.10290697
-17.561258 11.433547 -2.1284745 0.24971008
-16.554356 11.345596 -2.102433 0.3403365
-15.473413 11.161267 -2.0894067 0.31612903
-14.306235 11.341817 -2.1570942 0.34613335
-13.619547 11.333665 -2.2079129 0.35019237
-12.868196 11.261325 -2.3048599 0.37947363
-6.9746575 11.344432 -2.0435972 0.2
-2.1674604 11.734829 -2.0051708 0.18000001
-1.2846451 11.980787 -2.0207949 0.28999999
-0.11858416 11.927029 -2.0314114 0.18000001
0.34517372 11.265821 -2.1590123 0.205
1.7502109 11.67411 -2.1848462 0.18285714
2.6281323 11.27518 -2.303637 0.33987695
3.343183 11.466785 -2.0865633 0.29656249
5.5677876 11.374027 -2.1516607 0.29648003
6.245295 11.513103 -2.1314411 0.29021737
7.7609305 11.504612 -2.1155698 0.29984733
8.2732792 11.598462 -2.2656157 0.25259259
9.789197 11.238534 -2.1987522 0.21599999
10.313707 11.271659 -2.2856302 0.21555558
11.702003 11.755112 -2.2297235 0.228
12.525595 11.285564 -2.3870533 0.25244188
13.412988 11.261478 -2.2406342 0.28677419
14.557549 11.259698 -2.311815 0.27987185
15.587428 11.356075 -2.229197 0.2275281
16.364237 11.365227 -2.2723265 0.24705884
17.654686 11.378662 -2.3595586 0.26452264
18.369576 11.278262 -2.4280155 0.2087013
19.542412 11.444147 -2.4246976 0.32267699
20.737358 11.36315 -2.236541 0.35006332
21.30361 11.428978 -2.27195 0.35623336
22.402441 11.64251 -2.3822703 0.26500002
23.628931 11.371302 -2.6287034 0.28899997
24.222609 11.260469 -2.6564348 0.36266664
25.588972 11.308456 -2.373925 0.32170734
26.140739 11.630681 -2.4581268 0.39500001
27.691347 11.28641 -2.1568677 0.41374999
29.643375 11.462531 -2.282964 0.2873134
30.574854 11.745982 -2.1686735 0.28912279
31.621325 11.858521 -2.1250913 0.32378376
32.39048 11.649887 -2.34641 0.32805553
33.403973 11.684203 -2.4345551 0.28676468
34.391872 11.180516 -2.608748 0.336
35.252609 11.508728 -2.3332238 0.16888891
36.820782 11.17983 -2.7332275 0.14333333
37.647614 11.214987 -2.3023658 0.29955882
38.548237 11.159359 -2.3994584 0.32261747
39.58123 11.424643 -2.4581065 0.23787875
40.379368 11.202917 -2.4157221 0.26529405
41.197174 11.230457 -2.5224123 0.26687497
43.701714 11.759923 -2.9956808 0.13
44.588562 11.258154 -2.4310861 0.28687286
45.742069 11.124881 -2.2459979 0.22957444
46.394012 11.191808 -2.5964015 0.2364835
47.30254 11.210338 -2.472151 0.15083334
48.365643 11.377833 -2.6313772 0.16238093
49.076752 11.454692 -2.4940059 0.051999997
50.655739 11.294189 -2.1250498 0.14714286
-62.143574 12.117992 -2.0853901 0
-61.714092 12.271005 -2.3052289 0
-60.691742 12.128636 -2.4733586 0
-59.160007 12.384183 -2.1562281 0
-58.822304 12.722954 -2.3106987 0.041129027
-57.176342 12.633273 -2.6124942 0
-56.59251 12.36388 -2.5833488 0
-55.259209 12.263293 -2.7997851 0
-54.556423 12.408277 -2.7575395 0
-53.616989 12.651289 -2.6550984 0
-52.424225 12.381509 -2.7243688 0
-51.292679 12.385283 -2.5515122 0
-50.551373 12.438222 -2.7620213 0
-49.69199 12.421561 -2.9048579 0
-48.454895 12.45095 -2.6974139 0
-47.772476 12.457394 -2.74349 0
-46.994743 12.266172 -2.4744561 0
-45.431168 12.531278 -2.7114775 0
-44.364811 12.552164 -2.7370327 0
-43.796688 12.327811 -2.6447296 0
-42.467216 12.343122 -2.3874664 0.003888889
-41.598915 12.407651 -2.5522683 0.016086956
-40.25708 12.270502 -2.808702 0.11424241
-39.539875 12.384908 -2.7547543 0.085423738
-38.416988 12.517378 -2.4106548 0.034814812
-36.060711 12.129474 -2.1425438 0
-35.926113 12.020125 -2.1294813 0.13
-30.119078 12.952168 -2.0340855 0.086666666
-29.313417 12.746551 -2.0936816 0.15433332
-28.957153 12.631027 -2.0942736 0.12
-26.394247 12.834949 -2.1972535 0.15000001
-25.360147 12.529186 -2.2185359 0.22011624
-24.673677 12.514519 -2.200886 0.27750948
-23.400023 12.384984 -2.3000145 0.090531908
-22.476757 12.526559 -2.2438071 0
-21.503899 12.521616 -2.1916606 0.011000001
-20.601414 12.462616 -2.2021415 0.027499998
-19.483038 12.467735 -2.2063143 0.075052641
-18.749842 12.528267 -2.1980152 0.1505263
-17.262501 12.178499 -2.1434999 0.31999999
-15.366 12.196 -2.0969999 0.2
-14.246335 12.261545 -2.1283047 0.36612901
-13.796598 12.199327 -2.1931636 0.25333333
-10.415302 12.072204 -2.2453473 0.18000001
-7.758595 12.392661 -2.1317344 0.22
-5.7431946 12.841971 -2.0426054 0.28636363
-4.5494709 12.683177 -2.0253592 0.26750001
-3.6426611 12.871449 -2.0573988 0.285
-2.5634429 12.531899 -2.1360128 0.2731818
-0.056811076 12.565336 -2.1674416 0.3132433
0.54360193 12.525137 -2.1674173 0.35179505
1.3388153 12.454954 -2.1293988 0.33646208
2.5835421 12.187571 -2.0623753 0.37398547
3.3720624 12.163836 -2.0794392 0.33625001
4.4055982 12.664542 -2.1063142 0.30136365
5.7989187 12.812463 -2.1346698 0.35511243
6.5190873 12.789204 -2.0988765 0.3356522
7.6550941 12.871449 -2.2658305 0.36235088
8.2940483 12.840654 -2.126519 0.35407773
9.2398872 12.834101 -2.1526916 0.30761904
10.799008 12.546509 -2.1866326 0.25666666
11.734525 12.510459 -2.2894449 0.20125002
12.367818 12.631969 -2.1800995 0.28948715
13.425833 12.585436 -2.135901 0.25115383
14.666273 12.397489 -2.2454455 0.23699999
15.752977 12.380421 -2.3954022 0.2366216
16.39468 12.47716 -2.2431276 0.25659427
17.547863 12.488518 -2.4503322 0.30304345
18.094791 12.091825 -2.1537957 0.29100001
19.786589 12.736358 -2.4190516 0.32948726
20.419735 12.73263 -2.2877622 0.37236419
21.424303 12.484999 -2.2546535 0.3344014
22.467716 12.688221 -2.2264028 0.29923078
23.075228 12.880598 -2.3893869 0.25
24.301163 12.023908 -2.4973431 0.15000001
27.706673 12.399363 -2.2534366 0.3230769
28.077408 12.227037 -2.1178298 0.255
29.581081 12.828078 -2.0650506 0.32142857
30.572163 12.057416 -2.1410308 0.30039999
31.701588 12.185169 -2.1602697 0.2786538
32.317814 12.271924 -2.1644733 0.28835297
33.348511 12.433859 -2.4197602 0.25878787
38.393188 12.857111 -2.5649123 0.16749999
39.927044 12.169475 -2.0492878 0.15000001
40.293533 12.481434 -2.6154549 0.17500001
44.357864 12.409914 -2.2707484 0.24717949
45.280476 12.612557 -2.1154997 0.18333334
46.25074 12.313923 -2.2954867 0.11499999
47.828293 12.969743 -2.4228163 0.07
48.693134 12.222858 -2.5545688 0.13666667
-71.615768 13.647925 -2.0226734 0
-60.182018 13.776601 -2.4240682 0.003
-59.428131 13.659014 -2.4451158 0.026413038
-58.733383 13.284964 -2.4971926 0.044205613
-57.658855 13.558615 -2.7590437 0
-55.384026 13.223726 -2.9412963 0
-54.095528 13.029173 -2.852653 0
-50.32151 13.522663 -2.9534919 0
-49.672276 13.377852 -2.7634754 0
-48.554058 13.44319 -2.8659494 0
-47.177345 13.960143 -2.7632596 0
-46.302177 13.537122 -2.782887 0
-45.55352 13.577912 -2.7404492 0
-44.526871 13.422196 -2.7228045 0
-43.760868 13.499505 -2.8354657 0
